# .PCD v.7 - Point Cloud Data file format
FIELDS x y z rgb imX imY
SIZE 4 4 4 4 4 4
TYPE F F F F F F
COUNT 1 1 1 1 1 1
WIDTH 829
HEIGHT 1
VIEWPOINT 0 0 0 1 0 0 0
POINTS 829
DATA ascii
-0.0036714801 0.69800001 -0.0036714801 1.3545745e-38 317 243
-0.0024476533 0.69800001 -0.0036714801 1.345355e-38 318 243
-0.0012238267 0.69800001 -0.0036714801 1.32688e-38 319 243
0 0.69999999 -0.0036819996 1.308477e-38 320 243
0.0012273333 0.69999999 -0.0036819996 1.2992575e-38 321 243
0.0024546667 0.69999999 -0.0036819996 1.2900026e-38 322 243
0.0036872597 0.70099998 -0.0036872597 1.280783e-38 323 243
0.0049163462 0.70099998 -0.0036872597 1.2714207e-38 324 243
0.0061629666 0.70300001 -0.0036977797 1.262201e-38 325 243
0.0073955595 0.70300001 -0.0036977797 1.2528745e-38 326 243
0.0086404262 0.704 -0.0037030398 1.2436549e-38 327 243
0.0098747732 0.704 -0.0037030398 1.2251449e-38 328 243
0.011109119 0.704 -0.0037030398 1.1975221e-38 329 243
0.012378532 0.70599997 -0.0037135598 1.2157817e-38 330 243
0.013616386 0.70599997 -0.0037135598 1.1973067e-38 331 243
0.01487528 0.70700002 -0.0037188199 1.1973072e-38 332 243
0.01613768 0.708 -0.00372408 1.1973072e-38 333 243
0.017428132 0.70999998 -0.0037345996 1.188124e-38 334 243
0.0186993 0.71100003 -0.0037398601 1.188124e-38 335 243
0.020002026 0.713 -0.0037503797 1.1697925e-38 336 243
0.021281958 0.71399999 -0.0037556398 1.1605729e-38 337 243
0.022596961 0.71600002 -0.00376616 1.1330584e-38 338 243
0.02388566 0.71700001 -0.0037714199 1.142278e-38 339 243
0.025212931 0.71899998 -0.0037819401 1.0687408e-38 340 243
0.02647358 0.71899998 -0.0037819401 1.0687408e-38 341 243
0.027772799 0.72000003 -0.0037872 1.3091034e-38 342 243
0.029035201 0.72000003 -0.0037872 1.6317881e-38 343 243
-0.046060063 0.70999998 -0.0049794666 1.4839145e-38 283 244
-0.044815198 0.70999998 -0.0049794666 1.4562498e-38 284 244
-0.043447599 0.708 -0.0049654399 1.4839085e-38 285 244
-0.042206239 0.708 -0.0049654399 1.5759555e-38 286 244
-0.040964879 0.708 -0.0049654399 1.5667359e-38 287 244
-0.039667413 0.70700002 -0.0049584266 1.5943926e-38 288 244
-0.038427804 0.70700002 -0.0049584266 1.6036122e-38 289 244
-0.037030395 0.704 -0.0049373866 1.6036119e-38 290 244
-0.035796054 0.704 -0.0049373866 1.6036119e-38 291 244
-0.034561705 0.704 -0.0049373866 1.6128668e-38 292 244
-0.033280019 0.70300001 -0.0049303733 1.6405255e-38 293 244
-0.032047424 0.70300001 -0.0049303733 1.6404902e-38 294 244
-0.030727165 0.70099998 -0.0049163462 1.6681489e-38 295 244
-0.029455997 0.69999999 -0.0049093333 1.6681505e-38 296 244
-0.028228667 0.69999999 -0.0049093333 1.6773701e-38 297 244
-0.026924185 0.69800001 -0.0048953067 1.6864453e-38 298 244
-0.025700359 0.69800001 -0.0048953067 1.6311281e-38 299 244
-0.024476532 0.69800001 -0.0048953067 1.6310182e-38 300 244
-0.023252707 0.69800001 -0.0048953067 1.594176e-38 301 244
-0.022091998 0.69999999 -0.0049093333 1.5666248e-38 302 244
-0.020864666 0.69999999 -0.0049093333 1.5389302e-38 303 244
-0.019581227 0.69800001 -0.0048953067 1.5205263e-38 304 244
-0.0183574 0.69800001 -0.0048953067 1.4928677e-38 305 244
-0.017133573 0.69800001 -0.0048953067 1.4836832e-38 306 244
-0.015909746 0.69800001 -0.0048953067 1.4836832e-38 307 244
-0.01468592 0.69800001 -0.0048953067 1.4836116e-38 308 244
-0.013442807 0.69700003 -0.0048882933 1.474392e-38 309 244
-0.012220734 0.69700003 -0.0048882933 1.455989e-38 310 244
-0.01099866 0.69700003 -0.0048882933 1.4283664e-38 311 244
-0.0097765867 0.69700003 -0.0048882933 1.4007803e-38 312 244
-0.0085545136 0.69700003 -0.0048882933 1.3915607e-38 313 244
-0.00733244 0.69700003 -0.0048882933 1.3823409e-38 314 244
-0.0061103669 0.69700003 -0.0048882933 1.3638657e-38 315 244
-0.0048953067 0.69800001 -0.0048953067 1.3545743e-38 316 244
-0.0036714801 0.69800001 -0.0048953067 1.3453547e-38 317 244
-0.0024476533 0.69800001 -0.0048953067 1.3361354e-38 318 244
-0.0012238267 0.69800001 -0.0048953067 1.32688e-38 319 244
0 0.69800001 -0.0048953067 1.308477e-38 320 244
0.0012273333 0.69999999 -0.0049093333 1.2900379e-38 321 244
0.0024546667 0.69999999 -0.0049093333 1.2807477e-38 322 244
0.0036819996 0.69999999 -0.0049093333 1.2715281e-38 323 244
0.0049163462 0.70099998 -0.0049163462 1.2622377e-38 324 244
0.0061454331 0.70099998 -0.0049163462 1.2346149e-38 325 244
0.0073955595 0.70300001 -0.0049303733 1.2436912e-38 326 244
0.0086281532 0.70300001 -0.0049303733 1.2160685e-38 327 244
0.0098747732 0.704 -0.0049373866 1.1975941e-38 328 244
0.011109119 0.704 -0.0049373866 1.1791548e-38 329 244
0.012378532 0.70599997 -0.0049514128 1.1973788e-38 330 244
0.013616386 0.70599997 -0.0049514128 1.1881593e-38 331 244
0.01487528 0.70700002 -0.0049584266 1.1696853e-38 332 244
0.01613768 0.708 -0.0049654399 1.1696853e-38 333 244
0.017428132 0.70999998 -0.0049794666 1.1696853e-38 334 244
0.0186993 0.71100003 -0.0049864799 1.1604657e-38 335 244
0.020002026 0.713 -0.0050005065 1.1513533e-38 336 244
0.021252153 0.713 -0.0050005065 1.1513533e-38 337 244
0.022596961 0.71600002 -0.0050215465 1.1330221e-38 338 244
0.023852346 0.71600002 -0.0050215465 1.1422417e-38 339 244
0.025212931 0.71899998 -0.0050425865 1.0963622e-38 340 244
0.02647358 0.71899998 -0.0050425865 1.0318252e-38 341 244
0.027849946 0.722 -0.0050636264 1.2628961e-38 342 244
-0.046060063 0.70999998 -0.0062243328 1.5386549e-38 283 245
-0.044815198 0.70999998 -0.0062243328 1.483764e-38 284 245
-0.043447599 0.708 -0.0062067998 1.4929836e-38 285 245
-0.042206239 0.708 -0.0062067998 1.4931243e-38 286 245
-0.040964879 0.708 -0.0062067998 1.520747e-38 287 245
-0.039667413 0.70700002 -0.0061980332 1.5391846e-38 288 245
-0.038373452 0.70599997 -0.0061892662 1.5576235e-38 289 245
-0.037030395 0.704 -0.0061717331 1.6036486e-38 290 245
-0.035796054 0.704 -0.0061717331 1.6129041e-38 291 245
-0.034561705 0.704 -0.0061717331 1.6037921e-38 292 245
-0.033280019 0.70300001 -0.0061629666 1.6221952e-38 293 245
-0.031956252 0.70099998 -0.0061454331 1.659076e-38 294 245
-0.030727165 0.70099998 -0.0061454331 1.7143934e-38 295 245
-0.029455997 0.69999999 -0.0061366665 1.7696777e-38 296 245
-0.028228667 0.69999999 -0.0061366665 1.7696777e-38 297 245
-0.026924185 0.69800001 -0.006119133 1.760313e-38 298 245
-0.025700359 0.69800001 -0.006119133 1.6681533e-38 299 245
-0.024476532 0.69800001 -0.006119133 1.6588592e-38 300 245
-0.023252707 0.69800001 -0.006119133 1.6035418e-38 301 245
-0.022091998 0.69999999 -0.0061366665 1.5575145e-38 302 245
-0.020805053 0.69800001 -0.006119133 1.5206361e-38 303 245
-0.019581227 0.69800001 -0.006119133 1.5021599e-38 304 245
-0.0183574 0.69800001 -0.006119133 1.4837206e-38 305 245
-0.017133573 0.69800001 -0.006119133 1.4744639e-38 306 245
-0.015909746 0.69800001 -0.006119133 1.4836835e-38 307 245
-0.01466488 0.69700003 -0.0061103669 1.4560971e-38 308 245
-0.013442807 0.69700003 -0.0061103669 1.4468775e-38 309 245
-0.012220734 0.69700003 -0.0061103669 1.4375862e-38 310 245
-0.01099866 0.69700003 -0.0061103669 1.4283666e-38 311 245
-0.0097765867 0.69700003 -0.0061103669 1.4007447e-38 312 245
-0.0085545136 0.69700003 -0.0061103669 1.3823055e-38 313 245
-0.00733244 0.69700003 -0.0061103669 1.3547545e-38 314 245
-0.0061103669 0.69700003 -0.0061103669 1.3363152e-38 315 245
-0.0048882933 0.69700003 -0.0061103669 1.336243e-38 316 245
-0.0036714801 0.69800001 -0.006119133 1.3178039e-38 317 245
-0.0024476533 0.69800001 -0.006119133 1.2809978e-38 318 245
-0.0012238267 0.69800001 -0.006119133 1.2809978e-38 319 245
0 0.69800001 -0.006119133 1.2716708e-38 320 245
0.0012238267 0.69800001 -0.006119133 1.2716708e-38 321 245
0.0024476533 0.69800001 -0.006119133 1.2531613e-38 322 245
0.0036819996 0.69999999 -0.0061366665 1.2439418e-38 323 245
0.0049093333 0.69999999 -0.0061366665 1.2346872e-38 324 245
0.0061454331 0.70099998 -0.0061454331 1.2070285e-38 325 245
0.0073745195 0.70099998 -0.0061454331 1.2161407e-38 326 245
0.0086281532 0.70300001 -0.0061629666 1.1976657e-38 327 245
0.0098607466 0.70300001 -0.0061629666 1.1883744e-38 328 245
0.011109119 0.704 -0.0061717331 1.1791548e-38 329 245
0.012343466 0.704 -0.0061717331 1.1698281e-38 330 245
0.013577812 0.704 -0.0061717331 1.1605726e-38 331 245
0.014854239 0.70599997 -0.0061892662 1.151318e-38 332 245
0.01613768 0.708 -0.0062067998 1.151318e-38 333 245
0.017379038 0.708 -0.0062067998 1.1420267e-38 334 245
0.018672999 0.70999998 -0.0062243328 1.1420267e-38 335 245
0.01994592 0.71100003 -0.0062330998 1.1236952e-38 336 245
0.021252153 0.713 -0.0062506334 1.1329149e-38 337 245
0.022533838 0.71399999 -0.0062593995 1.105436e-38 338 245
0.023852346 0.71600002 -0.0062769335 1.1146556e-38 339 245
0.025212931 0.71899998 -0.0063032326 1.0596269e-38 340 245
-0.046060063 0.70999998 -0.0074691991 1.7217828e-38 283 246
-0.044815198 0.70999998 -0.0074691991 1.4928372e-38 284 246
-0.043447599 0.708 -0.0074481601 1.4928372e-38 285 246
-0.042206239 0.708 -0.0074481601 1.511274e-38 286 246
-0.040964879 0.708 -0.0074481601 1.5297132e-38 287 246
-0.039667413 0.70700002 -0.0074376399 1.5482952e-38 288 246
-0.038373452 0.70599997 -0.0074271196 1.5759179e-38 289 246
-0.037030395 0.704 -0.0074060797 1.6035769e-38 290 246
-0.035796054 0.704 -0.0074060797 1.6404551e-38 291 246
-0.034512613 0.70300001 -0.0073955595 1.6313094e-38 292 246
-0.033280019 0.70300001 -0.0073955595 1.6682237e-38 293 246
-0.031956252 0.70099998 -0.0073745195 1.7051407e-38 294 246
-0.030727165 0.70099998 -0.0073745195 1.7973004e-38 295 246
-0.029455997 0.69999999 -0.0073639993 1.8896784e-38 296 246
-0.028228667 0.69999999 -0.0073639993 1.898898e-38 297 246
-0.026924185 0.69800001 -0.0073429602 1.861875e-38 298 246
-0.025700359 0.69800001 -0.0073429602 1.7051423e-38 299 246
-0.024476532 0.69800001 -0.0073429602 1.6774095e-38 300 246
-0.023252707 0.69800001 -0.0073429602 1.6313477e-38 301 246
-0.022091998 0.69999999 -0.0073639993 1.5759202e-38 302 246
-0.020805053 0.69800001 -0.0073429602 1.5113832e-38 303 246
-0.019581227 0.69800001 -0.0073429602 1.4747182e-38 304 246
-0.0183574 0.69800001 -0.0073429602 1.4470594e-38 305 246
-0.017133573 0.69800001 -0.0073429602 1.4653535e-38 306 246
-0.015909746 0.69800001 -0.0073429602 1.4469144e-38 307 246
-0.01466488 0.69700003 -0.00733244 1.4468425e-38 308 246
-0.013442807 0.69700003 -0.00733244 1.4376229e-38 309 246
-0.012220734 0.69700003 -0.00733244 1.410072e-38 310 246
-0.01099866 0.69700003 -0.00733244 1.4008166e-38 311 246
-0.0097625591 0.69599998 -0.0073219193 1.3823777e-38 312 246
-0.0085422397 0.69599998 -0.0073219193 1.3731223e-38 313 246
-0.0073219193 0.69599998 -0.0073219193 1.3362799e-38 314 246
-0.0061103669 0.69700003 -0.00733244 1.3270603e-38 315 246
-0.0048882933 0.69700003 -0.00733244 1.3178408e-38 316 246
-0.00366622 0.69700003 -0.00733244 1.2901822e-38 317 246
-0.0024476533 0.69800001 -0.0073429602 1.2993293e-38 318 246
-0.0012238267 0.69800001 -0.0073429602 1.2901098e-38 319 246
0 0.69800001 -0.0073429602 1.289967e-38 320 246
0.0012238267 0.69800001 -0.0073429602 1.2715279e-38 321 246
0.0024476533 0.69800001 -0.0073429602 1.2439064e-38 322 246
0.0036819996 0.69999999 -0.0073639993 1.2346869e-38 323 246
0.0049093333 0.69999999 -0.0073639993 1.2254321e-38 324 246
0.0061454331 0.70099998 -0.0073745195 1.1977736e-38 325 246
0.0073745195 0.70099998 -0.0073745195 1.1976304e-38 326 246
0.0086036054 0.70099998 -0.0073745195 1.1792273e-38 327 246
0.0098607466 0.70300001 -0.0073955595 1.160788e-38 328 246
0.011109119 0.704 -0.0074060797 1.1515684e-38 329 246
0.012343466 0.704 -0.0074060797 1.151461e-38 330 246
0.013577812 0.704 -0.0074060797 1.1422414e-38 331 246
0.014854239 0.70599997 -0.0074271196 1.1329146e-38 332 246
0.01613768 0.708 -0.0074481601 1.1236949e-38 333 246
0.017379038 0.708 -0.0074481601 1.1420262e-38 334 246
0.018672999 0.70999998 -0.0074691991 1.1328066e-38 335 246
0.01994592 0.71100003 -0.0074797203 1.1144756e-38 336 246
0.021252153 0.713 -0.0075007593 1.1236952e-38 337 246
0.022533838 0.71399999 -0.0075112795 1.123767e-38 338 246
0.023852346 0.71600002 -0.00753232 1.123767e-38 339 246
0.025212931 0.71899998 -0.0075638802 1.0964313e-38 340 246
-0.046124939 0.71100003 -0.0087263398 1.6848305e-38 283 247
-0.044815198 0.70999998 -0.0087140659 1.5019476e-38 284 247
-0.043570329 0.70999998 -0.0087140659 1.5203507e-38 285 247
-0.042206239 0.708 -0.008689519 1.4562088e-38 286 247
-0.040964879 0.708 -0.008689519 1.493051e-38 287 247
-0.039667413 0.70700002 -0.008677247 1.5115254e-38 288 247
-0.038373452 0.70599997 -0.0086649731 1.5392201e-38 289 247
-0.037030395 0.704 -0.0086404262 1.5760274e-38 290 247
-0.035796054 0.704 -0.0086404262 1.6037221e-38 291 247
-0.034512613 0.70300001 -0.0086281532 1.6129799e-38 292 247
-0.033280019 0.70300001 -0.0086281532 1.6775168e-38 293 247
-0.031956252 0.70099998 -0.0086036054 1.6868111e-38 294 247
-0.030727165 0.70099998 -0.0086036054 1.7974099e-38 295 247
-0.029455997 0.69999999 -0.0085913334 1.9080823e-38 296 247
-0.028148014 0.69800001 -0.0085667865 1.9080823e-38 297 247
-0.026924185 0.69800001 -0.0085667865 1.8070266e-38 298 247
-0.025700359 0.69800001 -0.0085667865 1.6410386e-38 299 247
-0.024476532 0.69800001 -0.0085667865 1.6775196e-38 300 247
-0.023252707 0.69800001 -0.0085667865 1.6037631e-38 301 247
-0.022091998 0.69999999 -0.0085913334 1.5760293e-38 302 247
-0.020805053 0.69800001 -0.0085667865 1.4930893e-38 303 247
-0.019581227 0.69800001 -0.0085667865 1.511381e-38 304 247
-0.0183574 0.69800001 -0.0085667865 1.4745386e-38 305 247
-0.017133573 0.69800001 -0.0085667865 1.4653891e-38 306 247
-0.015909746 0.69800001 -0.0085667865 1.4561695e-38 307 247
-0.01466488 0.69700003 -0.0085545136 1.4376948e-38 308 247
-0.013442807 0.69700003 -0.0085545136 1.4192917e-38 309 247
-0.012220734 0.69700003 -0.0085545136 1.4008168e-38 310 247
-0.01099866 0.69700003 -0.0085545136 1.3915973e-38 311 247
-0.0097625591 0.69599998 -0.0085422397 1.3730507e-38 312 247
-0.0085422397 0.69599998 -0.0085422397 1.3546114e-38 313 247
-0.0073219193 0.69599998 -0.0085422397 1.3362802e-38 314 247
-0.0061015999 0.69599998 -0.0085422397 1.3178052e-38 315 247
-0.0048882933 0.69700003 -0.0085545136 1.3177686e-38 316 247
-0.00366622 0.69700003 -0.0085545136 1.2993293e-38 317 247
-0.0024441467 0.69700003 -0.0085545136 1.271743e-38 318 247
-0.0012238267 0.69800001 -0.0085667865 1.2625234e-38 319 247
0 0.69800001 -0.0085667865 1.2531613e-38 320 247
0.0012238267 0.69800001 -0.0085667865 1.2439418e-38 321 247
0.0024476533 0.69800001 -0.0085667865 1.2163203e-38 322 247
0.0036819996 0.69999999 -0.0085913334 1.2071006e-38 323 247
0.0049093333 0.69999999 -0.0085913334 1.1886262e-38 324 247
0.0061454331 0.70099998 -0.0086036054 1.1794066e-38 325 247
0.0073745195 0.70099998 -0.0086036054 1.1792273e-38 326 247
0.0086036054 0.70099998 -0.0086036054 1.1700076e-38 327 247
0.0098607466 0.70300001 -0.0086281532 1.1607883e-38 328 247
0.011109119 0.704 -0.0086404262 1.1515328e-38 329 247
0.012343466 0.704 -0.0086404262 1.1422061e-38 330 247
0.013577812 0.704 -0.0086404262 1.1329865e-38 331 247
0.014854239 0.70599997 -0.0086649731 1.1236596e-38 332 247
0.01613768 0.708 -0.008689519 1.1144401e-38 333 247
0.017379038 0.708 -0.008689519 1.1052924e-38 334 247
0.018672999 0.70999998 -0.0087140659 1.1052924e-38 335 247
0.01994592 0.71100003 -0.0087263398 1.0868893e-38 336 247
0.021192541 0.71100003 -0.0087263398 1.1145119e-38 337 247
0.022502279 0.713 -0.0087508867 1.1052924e-38 338 247
0.023852346 0.71600002 -0.0087877065 1.1329871e-38 339 247
-0.048618179 0.71100003 -0.0099729598 1.6641672e-38 281 248
-0.047371563 0.71100003 -0.0099729598 1.5099127e-38 282 248
-0.046124939 0.71100003 -0.0099729598 1.6482061e-38 283 248
-0.044815198 0.70999998 -0.0099589331 1.5203151e-38 284 248
-0.043447599 0.708 -0.0099308798 1.5203151e-38 285 248
-0.042206239 0.708 -0.0099308798 1.4837227e-38 286 248
-0.040964879 0.708 -0.0099308798 1.4929423e-38 287 248
-0.039667413 0.70700002 -0.0099168532 1.5115239e-38 288 248
-0.038373452 0.70599997 -0.0099028256 1.5484022e-38 289 248
-0.037030395 0.704 -0.0098747732 1.5760261e-38 290 248
-0.035796054 0.704 -0.0098747732 1.6128685e-38 291 248
-0.034512613 0.70300001 -0.0098607466 1.6129076e-38 292 248
-0.033280019 0.70300001 -0.0098607466 1.6590054e-38 293 248
-0.031956252 0.70099998 -0.0098326923 1.6591165e-38 294 248
-0.030683333 0.69999999 -0.0098186666 1.7881904e-38 295 248
-0.029455997 0.69999999 -0.0098186666 1.8804962e-38 296 248
-0.028148014 0.69800001 -0.0097906133 1.862057e-38 297 248
-0.026924185 0.69800001 -0.0097906133 1.7609292e-38 298 248
-0.025700359 0.69800001 -0.0097906133 1.6226358e-38 299 248
-0.024476532 0.69800001 -0.0097906133 1.6131262e-38 300 248
-0.023252707 0.69800001 -0.0097906133 1.5209666e-38 301 248
-0.022091998 0.69999999 -0.0098186666 1.5392229e-38 302 248
-0.020805053 0.69800001 -0.0097906133 1.4931611e-38 303 248
-0.019581227 0.69800001 -0.0097906133 1.4930866e-38 304 248
-0.0183574 0.69800001 -0.0097906133 1.4562085e-38 305 248
-0.017133573 0.69800001 -0.0097906133 1.4469872e-38 306 248
-0.015909746 0.69800001 -0.0097906133 1.4285481e-38 307 248
-0.01466488 0.69700003 -0.0097765867 1.4192564e-38 308 248
-0.013442807 0.69700003 -0.0097765867 1.4100367e-38 309 248
-0.012220734 0.69700003 -0.0097765867 1.3732307e-38 310 248
-0.01099866 0.69700003 -0.0097765867 1.3640112e-38 311 248
-0.0097625591 0.69599998 -0.0097625591 1.3546841e-38 312 248
-0.0085422397 0.69599998 -0.0097625591 1.3454644e-38 313 248
-0.0073219193 0.69599998 -0.0097625591 1.3178408e-38 314 248
-0.0061015999 0.69599998 -0.0097625591 1.3085853e-38 315 248
-0.0048882933 0.69700003 -0.0097765867 1.308549e-38 316 248
-0.00366622 0.69700003 -0.0097765867 1.2901098e-38 317 248
-0.0024441467 0.69700003 -0.0097765867 1.2624878e-38 318 248
-0.0012238267 0.69800001 -0.0097906133 1.2440487e-38 319 248
0 0.69800001 -0.0097906133 1.2439418e-38 320 248
0.0012238267 0.69800001 -0.0097906133 1.2255025e-38 321 248
0.0024476533 0.69800001 -0.0097906133 1.2070285e-38 322 248
0.0036819996 0.69999999 -0.0098186666 1.1978089e-38 323 248
0.0049093333 0.69999999 -0.0098186666 1.1793345e-38 324 248
0.0061454331 0.70099998 -0.0098326923 1.1701149e-38 325 248
0.0073955595 0.70300001 -0.0098607466 1.1516403e-38 326 248
0.0086281532 0.70300001 -0.0098607466 1.1332372e-38 327 248
0.0098747732 0.704 -0.0098747732 1.1422414e-38 328 248
0.011109119 0.704 -0.0098747732 1.1422414e-38 329 248
0.012343466 0.704 -0.0098747732 1.1330221e-38 330 248
0.013616386 0.70599997 -0.0099028256 1.1238024e-38 331 248
0.014854239 0.70599997 -0.0099028256 1.1144754e-38 332 248
0.01613768 0.708 -0.0099308798 1.0960362e-38 333 248
0.017379038 0.708 -0.0099308798 1.0960362e-38 334 248
0.018672999 0.70999998 -0.0099589331 1.1052558e-38 335 248
0.01994592 0.71100003 -0.0099729598 1.1052202e-38 336 248
0.021192541 0.71100003 -0.0099729598 1.1052202e-38 337 248
0.022502279 0.713 -0.010001013 1.1053277e-38 338 248
-0.048618179 0.71100003 -0.01121958 1.6013212e-38 281 249
-0.047371563 0.71100003 -0.01121958 1.5382554e-38 282 249
-0.046124939 0.71100003 -0.01121958 1.5658782e-38 283 249
-0.044815198 0.70999998 -0.011203799 1.5202432e-38 284 249
-0.043447599 0.708 -0.01117224 1.5202432e-38 285 249
-0.042206239 0.708 -0.01117224 1.4838299e-38 286 249
-0.040964879 0.708 -0.01117224 1.4930495e-38 287 249
-0.039667413 0.70700002 -0.011156459 1.4932646e-38 288 249
-0.038373452 0.70599997 -0.011140679 1.5208874e-38 289 249
-0.037030395 0.704 -0.011109119 1.5668431e-38 290 249
-0.035796054 0.704 -0.011109119 1.5945019e-38 291 249
-0.034512613 0.70300001 -0.01109334 1.5853568e-38 292 249
-0.03318534 0.70099998 -0.011061779 1.622235e-38 293 249
-0.031956252 0.70099998 -0.011061779 1.6314941e-38 294 249
-0.030683333 0.69999999 -0.011045999 1.760568e-38 295 249
-0.029455997 0.69999999 -0.011045999 1.8436902e-38 296 249
-0.028148014 0.69800001 -0.01101444 1.8068118e-38 297 249
-0.026924185 0.69800001 -0.01101444 1.7238349e-38 298 249
-0.025700359 0.69800001 -0.01101444 1.5671382e-38 299 249
-0.024476532 0.69800001 -0.01101444 1.5670274e-38 300 249
-0.023252707 0.69800001 -0.01101444 1.5024904e-38 301 249
-0.022091998 0.69999999 -0.011045999 1.520747e-38 302 249
-0.020805053 0.69800001 -0.01101444 1.4839046e-38 303 249
-0.019581227 0.69800001 -0.01101444 1.4837583e-38 304 249
-0.0183574 0.69800001 -0.01101444 1.4652832e-38 305 249
-0.017133573 0.69800001 -0.01101444 1.4468791e-38 306 249
-0.015909746 0.69800001 -0.01101444 1.4376595e-38 307 249
-0.01466488 0.69700003 -0.01099866 1.400889e-38 308 249
-0.013442807 0.69700003 -0.01099866 1.3732305e-38 309 249
-0.012220734 0.69700003 -0.01099866 1.3730872e-38 310 249
-0.01099866 0.69700003 -0.01099866 1.3546841e-38 311 249
-0.0097625591 0.69599998 -0.010982879 1.3362446e-38 312 249
-0.0085422397 0.69599998 -0.010982879 1.327025e-38 313 249
-0.0073219193 0.69599998 -0.010982879 1.3086209e-38 314 249
-0.0061015999 0.69599998 -0.010982879 1.2902178e-38 315 249
-0.0048812795 0.69599998 -0.010982879 1.2717427e-38 316 249
-0.00366622 0.69700003 -0.01099866 1.2717427e-38 317 249
-0.0024441467 0.69700003 -0.01099866 1.2532682e-38 318 249
-0.0012238267 0.69800001 -0.01101444 1.2256456e-38 319 249
0 0.69800001 -0.01101444 1.2071357e-38 320 249
0.0012238267 0.69800001 -0.01101444 1.1886965e-38 321 249
0.0024476533 0.69800001 -0.01101444 1.1794061e-38 322 249
0.0036819996 0.69999999 -0.011045999 1.161003e-38 323 249
0.0049093333 0.69999999 -0.011045999 1.1517481e-38 324 249
0.0061454331 0.70099998 -0.011061779 1.1333088e-38 325 249
0.0073955595 0.70300001 -0.01109334 1.1423133e-38 326 249
0.0086281532 0.70300001 -0.01109334 1.1330937e-38 327 249
0.0098747732 0.704 -0.011109119 1.1330218e-38 328 249
0.011109119 0.704 -0.011109119 1.1238021e-38 329 249
0.012343466 0.704 -0.011109119 1.1238024e-38 330 249
0.013616386 0.70599997 -0.011140679 1.114547e-38 331 249
0.01487528 0.70700002 -0.011156459 1.1052202e-38 332 249
0.01613768 0.708 -0.01117224 1.0960007e-38 333 249
0.017379038 0.708 -0.01117224 1.0684499e-38 334 249
0.018672999 0.70999998 -0.011203799 1.0776694e-38 335 249
0.019917866 0.70999998 -0.011203799 1.0776694e-38 336 249
0.021192541 0.71100003 -0.01121958 1.0776694e-38 337 249
0.022502279 0.713 -0.011251139 1.086889e-38 338 249
0.023752406 0.713 -0.011251139 1.1145475e-38 339 249
0.027965667 0.72500002 -0.0114405 1.2255459e-38 342 249
-0.048618179 0.71100003 -0.0124662 1.7226874e-38 281 250
-0.047371563 0.71100003 -0.0124662 1.6125521e-38 282 250
-0.046124939 0.71100003 -0.0124662 1.5019532e-38 283 250
-0.044815198 0.70999998 -0.012448666 1.501912e-38 284 250
-0.043447599 0.708 -0.0124136 1.5203151e-38 285 250
-0.042206239 0.708 -0.0124136 1.4930851e-38 286 250
-0.040907022 0.70700002 -0.012396066 1.5023046e-38 287 250
-0.039667413 0.70700002 -0.012396066 1.5208511e-38 288 250
-0.038373452 0.70599997 -0.012378532 1.5300706e-38 289 250
-0.037030395 0.704 -0.012343466 1.5392564e-38 290 250
-0.035796054 0.704 -0.012343466 1.5761347e-38 291 250
-0.034512613 0.70300001 -0.012325933 1.5761369e-38 292 250
-0.03318534 0.70099998 -0.012290866 1.6222347e-38 293 250
-0.031956252 0.70099998 -0.012290866 1.613054e-38 294 250
-0.030683333 0.69999999 -0.012273333 1.7052856e-38 295 250
-0.029455997 0.69999999 -0.012273333 1.7883001e-38 296 250
-0.028148014 0.69800001 -0.012238266 1.7237632e-38 297 250
-0.026924185 0.69800001 -0.012238266 1.6408569e-38 298 250
-0.025700359 0.69800001 -0.012238266 1.4841603e-38 299 250
-0.024476532 0.69800001 -0.012238266 1.5208198e-38 300 250
-0.023252707 0.69800001 -0.012238266 1.5023807e-38 301 250
-0.02202888 0.69800001 -0.012238266 1.4931595e-38 302 250
-0.020805053 0.69800001 -0.012238266 1.4654649e-38 303 250
-0.019581227 0.69800001 -0.012238266 1.4469519e-38 304 250
-0.0183574 0.69800001 -0.012238266 1.4285128e-38 305 250
-0.017133573 0.69800001 -0.012238266 1.4193283e-38 306 250
-0.015909746 0.69800001 -0.012238266 1.400889e-38 307 250
-0.01466488 0.69700003 -0.012220734 1.3640831e-38 308 250
-0.013442807 0.69700003 -0.012220734 1.3456441e-38 309 250
-0.012220734 0.69700003 -0.012220734 1.3454641e-38 310 250
-0.01099866 0.69700003 -0.012220734 1.3362446e-38 311 250
-0.0097625591 0.69599998 -0.0122032 1.3270247e-38 312 250
-0.0085422397 0.69599998 -0.0122032 1.3085856e-38 313 250
-0.0073219193 0.69599998 -0.0122032 1.2810701e-38 314 250
-0.0061015999 0.69599998 -0.0122032 1.2534114e-38 315 250
-0.0048812795 0.69599998 -0.0122032 1.2717427e-38 316 250
-0.00366622 0.69700003 -0.012220734 1.2625231e-38 317 250
-0.0024441467 0.69700003 -0.012220734 1.2164626e-38 318 250
-0.0012238267 0.69800001 -0.012238266 1.1888398e-38 319 250
0 0.69800001 -0.012238266 1.1794414e-38 320 250
0.0012238267 0.69800001 -0.012238266 1.1610383e-38 321 250
0.0024476533 0.69800001 -0.012238266 1.1517837e-38 322 250
0.0036819996 0.69999999 -0.012273333 1.1517837e-38 323 250
0.0049093333 0.69999999 -0.012273333 1.1333091e-38 324 250
0.0061454331 0.70099998 -0.012290866 1.1148341e-38 325 250
0.0073955595 0.70300001 -0.012325933 1.1330216e-38 326 250
0.0086281532 0.70300001 -0.012325933 1.1238019e-38 327 250
0.0098747732 0.704 -0.012343466 1.1145823e-38 328 250
0.011109119 0.704 -0.012343466 1.1145823e-38 329 250
0.012378532 0.70599997 -0.012378532 1.0869959e-38 330 250
0.013616386 0.70599997 -0.012378532 1.0777763e-38 331 250
0.01487528 0.70700002 -0.012396066 1.0776691e-38 332 250
0.01613768 0.708 -0.0124136 1.0776691e-38 333 250
0.017379038 0.708 -0.0124136 1.0592303e-38 334 250
0.018672999 0.70999998 -0.012448666 1.0684499e-38 335 250
0.019917866 0.70999998 -0.012448666 1.0776691e-38 336 250
0.021192541 0.71100003 -0.0124662 1.0869246e-38 337 250
0.022502279 0.713 -0.012501267 1.077741e-38 338 250
0.024085538 0.72299999 -0.012676599 1.0869965e-38 339 250
0.025353199 0.72299999 -0.012676599 1.1055076e-38 340 250
0.026694499 0.72500002 -0.012711667 1.0501902e-38 341 250
-0.047371563 0.71100003 -0.01371282 1.6495382e-38 282 251
-0.046124939 0.71100003 -0.01371282 1.5020252e-38 283 251
-0.044815198 0.70999998 -0.013693533 1.4835443e-38 284 251
-0.043447599 0.708 -0.013654959 1.5020195e-38 285 251
-0.042206239 0.708 -0.013654959 1.4930848e-38 286 251
-0.040907022 0.70700002 -0.013635674 1.5023043e-38 287 251
-0.039611302 0.70599997 -0.013616386 1.5299626e-38 288 251
-0.038373452 0.70599997 -0.013616386 1.5391823e-38 289 251
-0.037030395 0.704 -0.013577812 1.5392199e-38 290 251
-0.035796054 0.704 -0.013577812 1.557623e-38 291 251
-0.034512613 0.70300001 -0.013558527 1.5485136e-38 292 251
-0.033280019 0.70300001 -0.013558527 1.5761722e-38 293 251
-0.031956252 0.70099998 -0.013519952 1.576139e-38 294 251
-0.030683333 0.69999999 -0.013500666 1.640676e-38 295 251
-0.029455997 0.69999999 -0.013500666 1.6592247e-38 296 251
-0.028148014 0.69800001 -0.013462093 1.6223106e-38 297 251
-0.026924185 0.69800001 -0.013462093 1.5671344e-38 298 251
-0.025700359 0.69800001 -0.013462093 1.4564997e-38 299 251
-0.024476532 0.69800001 -0.013462093 1.5115271e-38 300 251
-0.023252707 0.69800001 -0.013462093 1.493124e-38 301 251
-0.02202888 0.69800001 -0.013462093 1.4746479e-38 302 251
-0.020805053 0.69800001 -0.013462093 1.4562088e-38 303 251
-0.019581227 0.69800001 -0.013462093 1.4653187e-38 304 251
-0.0183574 0.69800001 -0.013462093 1.4376242e-38 305 251
-0.017133573 0.69800001 -0.013462093 1.400889e-38 306 251
-0.015909746 0.69800001 -0.013462093 1.38245e-38 307 251
-0.01466488 0.69700003 -0.013442807 1.3456797e-38 308 251
-0.013442807 0.69700003 -0.013442807 1.3272405e-38 309 251
-0.012220734 0.69700003 -0.013442807 1.3362802e-38 310 251
-0.01099866 0.69700003 -0.013442807 1.3270247e-38 311 251
-0.0097625591 0.69599998 -0.013423519 1.2995093e-38 312 251
-0.0085422397 0.69599998 -0.013423519 1.2902897e-38 313 251
-0.0073219193 0.69599998 -0.013423519 1.2718146e-38 314 251
-0.0061015999 0.69599998 -0.013423519 1.2534114e-38 315 251
-0.0048812795 0.69599998 -0.013423519 1.2532682e-38 316 251
-0.00366622 0.69700003 -0.013442807 1.2440487e-38 317 251
-0.0024441467 0.69700003 -0.013442807 1.207171e-38 318 251
-0.0012238267 0.69800001 -0.013462093 1.1794764e-38 319 251
0 0.69800001 -0.013462093 1.1518187e-38 320 251
0.0012238267 0.69800001 -0.013462093 1.142599e-38 321 251
0.0024476533 0.69800001 -0.013462093 1.1333441e-38 322 251
0.0036819996 0.69999999 -0.013500666 1.1241246e-38 323 251
0.0049093333 0.69999999 -0.013500666 1.1240174e-38 324 251
0.0061454331 0.70099998 -0.013519952 1.1147978e-38 325 251
0.0073955595 0.70300001 -0.013558527 1.1055062e-38 326 251
0.0086404262 0.704 -0.013577812 1.0962508e-38 327 251
0.0098747732 0.704 -0.013577812 1.0870312e-38 328 251
0.011140679 0.70599997 -0.013616386 1.0870312e-38 329 251
0.012378532 0.70599997 -0.013616386 1.0594451e-38 330 251
0.013616386 0.70599997 -0.013616386 1.0594451e-38 331 251
0.01487528 0.70700002 -0.013635674 1.05019e-38 332 251
0.016114887 0.70700002 -0.013635674 1.0409704e-38 333 251
0.017428132 0.70999998 -0.013693533 1.040971e-38 334 251
0.018672999 0.70999998 -0.013693533 1.040971e-38 335 251
0.019917866 0.70999998 -0.013693533 1.0685217e-38 336 251
0.021192541 0.71100003 -0.01371282 1.0777413e-38 337 251
0.022502279 0.713 -0.013751393 1.0869965e-38 338 251
0.024052227 0.722 -0.013924973 1.096216e-38 339 251
0.025353199 0.72299999 -0.01394426 1.1055076e-38 340 251
0.026694499 0.72500002 -0.013982833 1.0870684e-38 341 251
0.027965667 0.72500002 -0.013982833 1.2899392e-38 342 251
0.029236834 0.72500002 -0.013982833 1.6218435e-38 343 251
-0.048754938 0.713 -0.015001519 1.7416667e-38 281 252
-0.047571439 0.71399999 -0.015022559 1.6312786e-38 282 252
-0.046319555 0.71399999 -0.015022559 1.4837656e-38 283 252
-0.044815198 0.70999998 -0.014938398 1.5020192e-38 284 252
-0.043447599 0.708 -0.01489632 1.5112387e-38 285 252
-0.042206239 0.708 -0.01489632 1.474718e-38 286 252
-0.040907022 0.70700002 -0.01487528 1.5023765e-38 287 252
-0.039611302 0.70599997 -0.014854239 1.484045e-38 288 252
-0.038373452 0.70599997 -0.014854239 1.4932646e-38 289 252
-0.037030395 0.704 -0.014812159 1.5208526e-38 290 252
-0.035796054 0.704 -0.014812159 1.5208526e-38 291 252
-0.034512613 0.70300001 -0.014791119 1.5116e-38 292 252
-0.033280019 0.70300001 -0.014791119 1.5208554e-38 293 252
-0.031956252 0.70099998 -0.014749039 1.5484082e-38 294 252
-0.030727165 0.70099998 -0.014749039 1.5852864e-38 295 252
-0.029455997 0.69999999 -0.014727999 1.6038685e-38 296 252
-0.028148014 0.69800001 -0.01468592 1.5853933e-38 297 252
-0.026924185 0.69800001 -0.01468592 1.5577328e-38 298 252
-0.025700359 0.69800001 -0.01468592 1.4931959e-38 299 252
-0.024476532 0.69800001 -0.01468592 1.4931589e-38 300 252
-0.023252707 0.69800001 -0.01468592 1.4655002e-38 301 252
-0.02202888 0.69800001 -0.01468592 1.4469885e-38 302 252
-0.020805053 0.69800001 -0.01468592 1.4377689e-38 303 252
-0.019581227 0.69800001 -0.01468592 1.4192927e-38 304 252
-0.0183574 0.69800001 -0.01468592 1.4100731e-38 305 252
-0.017133573 0.69800001 -0.01468592 1.3733379e-38 306 252
-0.015909746 0.69800001 -0.01468592 1.3640825e-38 307 252
-0.01466488 0.69700003 -0.01466488 1.3364595e-38 308 252
-0.013442807 0.69700003 -0.01466488 1.3180203e-38 309 252
-0.012220734 0.69700003 -0.01466488 1.3362796e-38 310 252
-0.01099866 0.69700003 -0.01466488 1.3270601e-38 311 252
-0.0097765867 0.69700003 -0.01466488 1.3086209e-38 312 252
-0.0085545136 0.69700003 -0.01466488 1.2809981e-38 313 252
-0.00733244 0.69700003 -0.01466488 1.2718151e-38 314 252
-0.0061103669 0.69700003 -0.01466488 1.2441566e-38 315 252
-0.0048882933 0.69700003 -0.01466488 1.2256821e-38 316 252
-0.00366622 0.69700003 -0.01466488 1.1888398e-38 317 252
-0.0024476533 0.69800001 -0.01468592 1.1886247e-38 318 252
-0.0012238267 0.69800001 -0.01468592 1.1701497e-38 319 252
0 0.69800001 -0.01468592 1.1517107e-38 320 252
0.0012238267 0.69800001 -0.01468592 1.1333076e-38 321 252
0.0024476533 0.69800001 -0.01468592 1.1147975e-38 322 252
0.0036819996 0.69999999 -0.014727999 1.1240171e-38 323 252
0.0049093333 0.69999999 -0.014727999 1.0964663e-38 324 252
0.0061629666 0.70300001 -0.014791119 1.078027e-38 325 252
0.0074060797 0.704 -0.014812159 1.0963221e-38 326 252
0.0086404262 0.704 -0.014812159 1.0870668e-38 327 252
0.0098747732 0.704 -0.014812159 1.0870312e-38 328 252
0.011140679 0.70599997 -0.014854239 1.0778117e-38 329 252
0.012378532 0.70599997 -0.014854239 1.0777766e-38 330 252
0.013616386 0.70599997 -0.014854239 1.0777766e-38 331 252
0.014854239 0.70599997 -0.014854239 1.0501902e-38 332 252
0.016114887 0.70700002 -0.01487528 1.0501902e-38 333 252
0.017428132 0.70999998 -0.014938398 1.0501186e-38 334 252
0.018672999 0.70999998 -0.014938398 1.0685217e-38 335 252
0.01994592 0.71100003 -0.014959441 1.0777413e-38 336 252
0.021252153 0.713 -0.015001519 1.0777413e-38 337 252
0.022596961 0.71600002 -0.01506464 1.0869612e-38 338 252
0.024052227 0.722 -0.015190879 1.1054004e-38 339 252
0.025353199 0.72299999 -0.015211919 1.0871058e-38 340 252
0.026694499 0.72500002 -0.015254001 1.0963253e-38 341 252
0.027965667 0.72500002 -0.015254001 1.3175986e-38 342 252
0.029236834 0.72500002 -0.015254001 1.6034051e-38 343 252
0.030508002 0.72500002 -0.015254001 1.6125565e-38 344 252
-0.047504812 0.713 -0.016251646 1.6036922e-38 282 253
-0.046254687 0.713 -0.016251646 1.4746183e-38 283 253
-0.044878319 0.71100003 -0.01620606 1.4836879e-38 284 253
-0.043570329 0.70999998 -0.016183265 1.5113106e-38 285 253
-0.042206239 0.708 -0.01613768 1.4930495e-38 286 253
-0.040964879 0.708 -0.01613768 1.4930495e-38 287 253
-0.039611302 0.70599997 -0.016092092 1.4931567e-38 288 253
-0.038373452 0.70599997 -0.016092092 1.4931567e-38 289 253
-0.037030395 0.704 -0.016046507 1.5115239e-38 290 253
-0.035796054 0.704 -0.016046507 1.5299629e-38 291 253
-0.034512613 0.70300001 -0.016023712 1.5206008e-38 292 253
-0.033280019 0.70300001 -0.016023712 1.5390399e-38 293 253
-0.031956252 0.70099998 -0.015978126 1.5022708e-38 294 253
-0.030727165 0.70099998 -0.015978126 1.5114904e-38 295 253
-0.029455997 0.69999999 -0.015955333 1.511598e-38 296 253
-0.028148014 0.69800001 -0.015909746 1.4931589e-38 297 253
-0.026924185 0.69800001 -0.015909746 1.4839744e-38 298 253
-0.025700359 0.69800001 -0.015909746 1.4470961e-38 299 253
-0.024476532 0.69800001 -0.015909746 1.4562435e-38 300 253
-0.023252707 0.69800001 -0.015909746 1.4378043e-38 301 253
-0.02202888 0.69800001 -0.015909746 1.4377324e-38 302 253
-0.020805053 0.69800001 -0.015909746 1.4285128e-38 303 253
-0.019581227 0.69800001 -0.015909746 1.3917775e-38 304 253
-0.0183574 0.69800001 -0.015909746 1.3733023e-38 305 253
-0.017133573 0.69800001 -0.015909746 1.3733377e-38 306 253
-0.015909746 0.69800001 -0.015909746 1.3364595e-38 307 253
-0.01468592 0.69800001 -0.015909746 1.3547913e-38 308 253
-0.013442807 0.69700003 -0.015886955 1.3363521e-38 309 253
-0.012220734 0.69700003 -0.015886955 1.3086938e-38 310 253
-0.01099866 0.69700003 -0.015886955 1.2994742e-38 311 253
-0.0097765867 0.69700003 -0.015886955 1.2809992e-38 312 253
-0.0085545136 0.69700003 -0.015886955 1.2809992e-38 313 253
-0.00733244 0.69700003 -0.015886955 1.2624881e-38 314 253
-0.0061103669 0.69700003 -0.015886955 1.244049e-38 315 253
-0.0048882933 0.69700003 -0.015886955 1.2163908e-38 316 253
-0.00366622 0.69700003 -0.015886955 1.1979158e-38 317 253
-0.0024476533 0.69800001 -0.015909746 1.1794414e-38 318 253
-0.0012238267 0.69800001 -0.015909746 1.142599e-38 319 253
0 0.69800001 -0.015909746 1.1333792e-38 320 253
0.0012238267 0.69800001 -0.015909746 1.1149403e-38 321 253
0.0024546667 0.69999999 -0.015955333 1.1148686e-38 322 253
0.0036819996 0.69999999 -0.015955333 1.1056133e-38 323 253
0.0049163462 0.70099998 -0.015978126 1.096358e-38 324 253
0.0061629666 0.70300001 -0.016023712 1.0871386e-38 325 253
0.0074060797 0.704 -0.016046507 1.0870668e-38 326 253
0.0086404262 0.704 -0.016046507 1.0870668e-38 327 253
0.0098747732 0.704 -0.016046507 1.0778115e-38 328 253
0.011140679 0.70599997 -0.016092092 1.0778115e-38 329 253
0.012378532 0.70599997 -0.016092092 1.0685565e-38 330 253
0.013616386 0.70599997 -0.016092092 1.0778119e-38 331 253
0.014854239 0.70599997 -0.016092092 1.0594098e-38 332 253
0.016114887 0.70700002 -0.016114887 1.0501902e-38 333 253
0.017428132 0.70999998 -0.016183265 1.0501549e-38 334 253
0.0186993 0.71100003 -0.01620606 1.0501549e-38 335 253
0.020002026 0.713 -0.016251646 1.0777416e-38 336 253
0.021281958 0.71399999 -0.016274439 1.0869612e-38 337 253
0.022596961 0.71600002 -0.016320027 1.0961804e-38 338 253
0.024052227 0.722 -0.016456785 1.105436e-38 339 253
0.025353199 0.72299999 -0.01647958 1.1422783e-38 340 253
0.026620859 0.72299999 -0.01647958 1.1607174e-38 341 253
0.027965667 0.72500002 -0.016525166 1.336145e-38 342 253
0.029236834 0.72500002 -0.016525166 1.5850732e-38 343 253
0.030508002 0.72500002 -0.016525166 1.6123763e-38 344 253
-0.048618179 0.71100003 -0.01745268 1.714044e-38 281 254
-0.047371563 0.71100003 -0.01745268 1.6312786e-38 282 254
-0.046124939 0.71100003 -0.01745268 1.5022047e-38 283 254
-0.044878319 0.71100003 -0.01745268 1.4929794e-38 284 254
-0.043570329 0.70999998 -0.017428132 1.4929794e-38 285 254
-0.042206239 0.708 -0.017379038 1.4746829e-38 286 254
-0.040964879 0.708 -0.017379038 1.4746829e-38 287 254
-0.039667413 0.70700002 -0.017354494 1.4747185e-38 288 254
-0.038373452 0.70599997 -0.017329946 1.4931216e-38 289 254
-0.037030395 0.704 -0.017280852 1.4747904e-38 290 254
-0.035796054 0.704 -0.017280852 1.4747904e-38 291 254
-0.034512613 0.70300001 -0.017256306 1.4930866e-38 292 254
-0.033280019 0.70300001 -0.017256306 1.5023062e-38 293 254
-0.031956252 0.70099998 -0.017207211 1.4839747e-38 294 254
-0.030727165 0.70099998 -0.017207211 1.4839747e-38 295 254
-0.029498078 0.70099998 -0.017207211 1.4840097e-38 296 254
-0.028228667 0.69999999 -0.017182667 1.4655706e-38 297 254
-0.026924185 0.69800001 -0.017133573 1.4563154e-38 298 254
-0.025700359 0.69800001 -0.017133573 1.4470958e-38 299 254
-0.024476532 0.69800001 -0.017133573 1.4378045e-38 300 254
-0.023252707 0.69800001 -0.017133573 1.410146e-38 301 254
-0.02202888 0.69800001 -0.017133573 1.4101816e-38 302 254
-0.020805053 0.69800001 -0.017133573 1.400962e-38 303 254
-0.019581227 0.69800001 -0.017133573 1.3825219e-38 304 254
-0.0183574 0.69800001 -0.017133573 1.3733023e-38 305 254
-0.017133573 0.69800001 -0.017133573 1.3456794e-38 306 254
-0.015909746 0.69800001 -0.017133573 1.3456794e-38 307 254
-0.01468592 0.69800001 -0.017133573 1.3455718e-38 308 254
-0.013442807 0.69700003 -0.017109027 1.3363521e-38 309 254
-0.012220734 0.69700003 -0.017109027 1.3086935e-38 310 254
-0.01099866 0.69700003 -0.017109027 1.299474e-38 311 254
-0.0097765867 0.69700003 -0.017109027 1.2901825e-38 312 254
-0.0085545136 0.69700003 -0.017109027 1.2717432e-38 313 254
-0.0073429602 0.69800001 -0.017133573 1.2532685e-38 314 254
-0.006119133 0.69800001 -0.017133573 1.2256458e-38 315 254
-0.0048953067 0.69800001 -0.017133573 1.2071354e-38 316 254
-0.0036714801 0.69800001 -0.017133573 1.1886963e-38 317 254
-0.0024476533 0.69800001 -0.017133573 1.1794051e-38 318 254
-0.0012238267 0.69800001 -0.017133573 1.16093e-38 319 254
0 0.69800001 -0.017133573 1.1333074e-38 320 254
0.0012273333 0.69999999 -0.017182667 1.124088e-38 321 254
0.0024546667 0.69999999 -0.017182667 1.1056133e-38 322 254
0.0036819996 0.69999999 -0.017182667 1.1148686e-38 323 254
0.0049163462 0.70099998 -0.017207211 1.096358e-38 324 254
0.0061629666 0.70300001 -0.017256306 1.0871386e-38 325 254
0.0074060797 0.704 -0.017280852 1.1146176e-38 326 254
0.0086404262 0.704 -0.017280852 1.0869951e-38 327 254
0.0099028256 0.70599997 -0.017329946 1.0778117e-38 328 254
0.011140679 0.70599997 -0.017329946 1.0778117e-38 329 254
0.012378532 0.70599997 -0.017329946 1.0687e-38 330 254
0.013616386 0.70599997 -0.017329946 1.0687e-38 331 254
0.01487528 0.70700002 -0.017354494 1.0594451e-38 332 254
0.016114887 0.70700002 -0.017354494 1.0594451e-38 333 254
0.017428132 0.70999998 -0.017428132 1.0869243e-38 334 254
0.0186993 0.71100003 -0.01745268 1.1053274e-38 335 254
0.020002026 0.713 -0.017501773 1.1238024e-38 336 254
0.021281958 0.71399999 -0.017526319 1.1238024e-38 337 254
0.022691639 0.71899998 -0.017649053 1.11462e-38 338 254
0.024052227 0.722 -0.017722692 1.1330231e-38 339 254
0.025353199 0.72299999 -0.017747238 1.1056173e-38 340 254
0.026620859 0.72299999 -0.017747238 1.1793738e-38 341 254
0.027965667 0.72500002 -0.017796334 1.3822077e-38 342 254
0.029236834 0.72500002 -0.017796334 1.5758186e-38 343 254
0.030508002 0.72500002 -0.017796334 1.6031568e-38 344 254
-0.048618179 0.71100003 -0.0186993 1.6772735e-38 281 255
-0.047371563 0.71100003 -0.0186993 1.649718e-38 282 255
-0.046124939 0.71100003 -0.0186993 1.5206441e-38 283 255
-0.044878319 0.71100003 -0.0186993 1.4929797e-38 284 255
-0.043570329 0.70999998 -0.018672999 1.5021992e-38 285 255
-0.042206239 0.708 -0.0186204 1.4654631e-38 286 255
-0.040964879 0.708 -0.0186204 1.4747185e-38 287 255
-0.039667413 0.70700002 -0.018594101 1.4654984e-38 288 255
-0.038373452 0.70599997 -0.018567799 1.4654984e-38 289 255
-0.037030395 0.704 -0.018515198 1.465534e-38 290 255
-0.035796054 0.704 -0.018515198 1.4747535e-38 291 255
-0.034512613 0.70300001 -0.018488899 1.4930851e-38 292 255
-0.033280019 0.70300001 -0.018488899 1.4930851e-38 293 255
-0.032047424 0.70300001 -0.018488899 1.474718e-38 294 255
-0.030727165 0.70099998 -0.018436298 1.474718e-38 295 255
-0.029498078 0.70099998 -0.018436298 1.4654984e-38 296 255
-0.028228667 0.69999999 -0.018409999 1.4562788e-38 297 255
-0.026924185 0.69800001 -0.0183574 1.4470591e-38 298 255
-0.025700359 0.69800001 -0.0183574 1.42862e-38 299 255
-0.024476532 0.69800001 -0.0183574 1.4101813e-38 300 255
-0.023252707 0.69800001 -0.0183574 1.4009617e-38 301 255
-0.02202888 0.69800001 -0.0183574 1.4100734e-38 302 255
-0.020805053 0.69800001 -0.0183574 1.4100734e-38 303 255
-0.019581227 0.69800001 -0.0183574 1.364191e-38 304 255
-0.0183574 0.69800001 -0.0183574 1.345716e-38 305 255
-0.017133573 0.69800001 -0.0183574 1.3640828e-38 306 255
-0.015909746 0.69800001 -0.0183574 1.3272405e-38 307 255
-0.01468592 0.69800001 -0.0183574 1.3272405e-38 308 255
-0.013462093 0.69800001 -0.0183574 1.317985e-38 309 255
-0.012220734 0.69700003 -0.018331099 1.3087291e-38 310 255
-0.01099866 0.69700003 -0.018331099 1.2994737e-38 311 255
-0.0097906133 0.69800001 -0.0183574 1.2809272e-38 312 255
-0.0085667865 0.69800001 -0.0183574 1.2624881e-38 313 255
-0.0073429602 0.69800001 -0.0183574 1.2256821e-38 314 255
-0.006119133 0.69800001 -0.0183574 1.2072429e-38 315 255
-0.0048953067 0.69800001 -0.0183574 1.2071707e-38 316 255
-0.0036714801 0.69800001 -0.0183574 1.1887316e-38 317 255
-0.0024546667 0.69999999 -0.018409999 1.1610736e-38 318 255
-0.0012273333 0.69999999 -0.018409999 1.1333792e-38 319 255
0 0.69999999 -0.018409999 1.1333076e-38 320 255
0.0012273333 0.69999999 -0.018409999 1.1148327e-38 321 255
0.0024546667 0.69999999 -0.018409999 1.0872462e-38 322 255
0.0036872597 0.70099998 -0.018436298 1.0872462e-38 323 255
0.0049303733 0.70300001 -0.018488899 1.1055057e-38 324 255
0.0061629666 0.70300001 -0.018488899 1.0962862e-38 325 255
0.0074060797 0.704 -0.018515198 1.0870315e-38 326 255
0.0086404262 0.704 -0.018515198 1.0870315e-38 327 255
0.0099028256 0.70599997 -0.018567799 1.0869959e-38 328 255
0.011140679 0.70599997 -0.018567799 1.0777763e-38 329 255
0.012378532 0.70599997 -0.018567799 1.0687003e-38 330 255
0.013616386 0.70599997 -0.018567799 1.0687003e-38 331 255
0.01487528 0.70700002 -0.018594101 1.0687003e-38 332 255
0.01613768 0.708 -0.0186204 1.0687003e-38 333 255
0.017428132 0.70999998 -0.018672999 1.0962513e-38 334 255
0.0186993 0.71100003 -0.0186993 1.1146906e-38 335 255
0.020002026 0.713 -0.018751899 1.1147269e-38 336 255
0.021281958 0.71399999 -0.018778199 1.1239823e-38 337 255
0.022723202 0.72000003 -0.018935999 1.1239114e-38 338 255
0.024052227 0.722 -0.0189886 1.1331669e-38 339 255
0.025353199 0.72299999 -0.019014901 1.1424234e-38 340 255
0.026620859 0.72299999 -0.019014901 1.2438026e-38 341 255
0.027965667 0.72500002 -0.0190675 1.4098301e-38 342 255
0.029236834 0.72500002 -0.0190675 1.5757464e-38 343 255
0.030508002 0.72500002 -0.0190675 1.5939369e-38 344 255
-0.048754938 0.713 -0.020002026 1.6956411e-38 281 256
-0.047504812 0.713 -0.020002026 1.6680859e-38 282 256
-0.046254687 0.713 -0.020002026 1.5482675e-38 283 256
-0.045004558 0.713 -0.020002026 1.5021639e-38 284 256
-0.043570329 0.70999998 -0.019917866 1.5021639e-38 285 256
-0.042325463 0.70999998 -0.019917866 1.4654631e-38 286 256
-0.040964879 0.708 -0.01986176 1.4654631e-38 287 256
-0.039667413 0.70700002 -0.019833706 1.4654984e-38 288 256
-0.038373452 0.70599997 -0.019805651 1.4654984e-38 289 256
-0.037030395 0.704 -0.019749546 1.4656059e-38 290 256
-0.035796054 0.704 -0.019749546 1.4656059e-38 291 256
-0.034561705 0.704 -0.019749546 1.474718e-38 292 256
-0.033280019 0.70300001 -0.019721493 1.474718e-38 293 256
-0.032047424 0.70300001 -0.019721493 1.4747182e-38 294 256
-0.030727165 0.70099998 -0.019665385 1.4654987e-38 295 256
-0.029498078 0.70099998 -0.019665385 1.4470594e-38 296 256
-0.028228667 0.69999999 -0.019637333 1.437804e-38 297 256
-0.026924185 0.69800001 -0.019581227 1.42862e-38 298 256
-0.025700359 0.69800001 -0.019581227 1.410181e-38 299 256
-0.024476532 0.69800001 -0.019581227 1.4009617e-38 300 256
-0.023252707 0.69800001 -0.019581227 1.3917422e-38 301 256
-0.02202888 0.69800001 -0.019581227 1.3824869e-38 302 256
-0.020805053 0.69800001 -0.019581227 1.3824869e-38 303 256
-0.019581227 0.69800001 -0.019581227 1.3640831e-38 304 256
-0.0183574 0.69800001 -0.019581227 1.3456441e-38 305 256
-0.017133573 0.69800001 -0.019581227 1.3456797e-38 306 256
-0.015909746 0.69800001 -0.019581227 1.3364601e-38 307 256
-0.01468592 0.69800001 -0.019581227 1.2996893e-38 308 256
-0.013462093 0.69800001 -0.019581227 1.2904339e-38 309 256
-0.012220734 0.69700003 -0.019553173 1.2903616e-38 310 256
-0.01099866 0.69700003 -0.019553173 1.2719226e-38 311 256
-0.0097906133 0.69800001 -0.019581227 1.2718151e-38 312 256
-0.0085667865 0.69800001 -0.019581227 1.234937e-38 313 256
-0.0073429602 0.69800001 -0.019581227 1.2256824e-38 314 256
-0.006119133 0.69800001 -0.019581227 1.2072073e-38 315 256
-0.0048953067 0.69800001 -0.019581227 1.1887319e-38 316 256
-0.0036819996 0.69999999 -0.019637333 1.1794764e-38 317 256
-0.0024546667 0.69999999 -0.019637333 1.1701851e-38 318 256
-0.0012273333 0.69999999 -0.019637333 1.1517463e-38 319 256
0 0.69999999 -0.019637333 1.1424192e-38 320 256
0.0012273333 0.69999999 -0.019637333 1.1331639e-38 321 256
0.0024581731 0.70099998 -0.019665385 1.1055777e-38 322 256
0.0036872597 0.70099998 -0.019665385 1.096358e-38 323 256
0.0049303733 0.70300001 -0.019721493 1.1055062e-38 324 256
0.0061717331 0.704 -0.019749546 1.0962508e-38 325 256
0.0074060797 0.704 -0.019749546 1.0962508e-38 326 256
0.0086404262 0.704 -0.019749546 1.0870312e-38 327 256
0.0099028256 0.70599997 -0.019805651 1.0870315e-38 328 256
0.011140679 0.70599997 -0.019805651 1.0778119e-38 329 256
0.012378532 0.70599997 -0.019805651 1.0687003e-38 330 256
0.013635674 0.70700002 -0.019833706 1.0687003e-38 331 256
0.01489632 0.708 -0.01986176 1.0686647e-38 332 256
0.016183265 0.70999998 -0.019917866 1.0870678e-38 333 256
0.01745268 0.71100003 -0.01994592 1.1146906e-38 334 256
0.018751899 0.713 -0.020002026 1.1330937e-38 335 256
0.020086186 0.71600002 -0.020086186 1.1423136e-38 336 256
0.021371379 0.71700001 -0.020114239 1.1515331e-38 337 256
0.022723202 0.72000003 -0.020198401 1.1515344e-38 338 256
0.024052227 0.722 -0.020254506 1.16079e-38 339 256
0.025318133 0.722 -0.020254506 1.1516796e-38 340 256
0.026584039 0.722 -0.020254506 1.2807534e-38 341 256
0.027965667 0.72500002 -0.020338668 1.465004e-38 342 256
0.029236834 0.72500002 -0.020338668 1.6032975e-38 343 256
0.030508002 0.72500002 -0.020338668 1.5939369e-38 344 256
-0.048823316 0.71399999 -0.021281958 1.6956411e-38 281 257
-0.047571439 0.71399999 -0.021281958 1.6589748e-38 282 257
-0.046319555 0.71399999 -0.021281958 1.5483401e-38 283 257
-0.045004558 0.713 -0.021252153 1.5572659e-38 284 257
-0.043631699 0.71100003 -0.021192541 1.5480462e-38 285 257
-0.042325463 0.70999998 -0.021162732 1.4930495e-38 286 257
-0.040964879 0.708 -0.021103119 1.4838299e-38 287 257
-0.039667413 0.70700002 -0.021073313 1.465534e-38 288 257
-0.038373452 0.70599997 -0.021043506 1.465534e-38 289 257
