# .PCD v.7 - Point Cloud Data file format
FIELDS x y z rgb imX imY
SIZE 4 4 4 4 4 4
TYPE F F F F F F
COUNT 1 1 1 1 1 1
WIDTH 822
HEIGHT 1
VIEWPOINT 0 0 0 1 0 0 0
POINTS 822
DATA ascii
-0.021523919 0.68199998 -0.004783093 1.3652178e-38 302 244
-0.020328145 0.68199998 -0.004783093 1.3652178e-38 303 244
-0.019132372 0.68199998 -0.004783093 1.3652181e-38 304 244
-0.017936599 0.68199998 -0.004783093 1.3652181e-38 305 244
-0.016740825 0.68199998 -0.004783093 1.3560704e-38 306 244
-0.015545053 0.68199998 -0.004783093 1.3560704e-38 307 244
-0.01434928 0.68199998 -0.004783093 1.3559985e-38 308 244
-0.013114933 0.68000001 -0.0047690663 1.346779e-38 309 244
-0.011922667 0.68000001 -0.0047690663 1.346779e-38 310 244
-0.0107304 0.68000001 -0.0047690663 1.346779e-38 311 244
-0.0095381327 0.68000001 -0.0047690663 1.3191923e-38 312 244
-0.0083458666 0.68000001 -0.0047690663 1.3191923e-38 313 244
-0.0071430802 0.67900002 -0.0047620535 1.3191926e-38 314 244
-0.0059525664 0.67900002 -0.0047620535 1.3191926e-38 315 244
-0.0047690663 0.68000001 -0.0047690663 1.309973e-38 316 244
-0.0035767998 0.68000001 -0.0047690663 1.3007535e-38 317 244
-0.0023845332 0.68000001 -0.0047690663 1.3007535e-38 318 244
-0.0011922666 0.68000001 -0.0047690663 1.3007535e-38 319 244
0 0.68000001 -0.0047690663 1.3374517e-38 320 244
0.0011922666 0.68000001 -0.0047690663 1.3374517e-38 321 244
0.0023845332 0.68000001 -0.0047690663 1.337487e-38 322 244
0.00358732 0.68199998 -0.004783093 1.337487e-38 323 244
0.004783093 0.68199998 -0.004783093 1.319048e-38 324 244
0.005978866 0.68199998 -0.004783093 1.3097926e-38 325 244
0.00717464 0.68199998 -0.004783093 1.2914616e-38 326 244
0.0083704125 0.68199998 -0.004783093 1.2914616e-38 327 244
0.009566186 0.68199998 -0.004783093 1.2913894e-38 328 244
0.01077774 0.68300003 -0.0047901068 1.3097926e-38 329 244
0.011975267 0.68300003 -0.0047901068 1.291425e-38 330 244
0.013172794 0.68300003 -0.0047901068 1.291425e-38 331 244
0.014370319 0.68300003 -0.0047901068 1.2822052e-38 332 244
0.01559064 0.68400002 -0.0047971201 1.2729856e-38 333 244
0.016839013 0.68599999 -0.0048111463 1.2913169e-38 334 244
0.018041799 0.68599999 -0.0048111463 1.2913169e-38 335 244
0.019244585 0.68599999 -0.0048111463 1.2913166e-38 336 244
0.020447372 0.68599999 -0.0048111463 1.2820969e-38 337 244
0.021681719 0.68699998 -0.0048181596 1.282025e-38 338 244
0.022886258 0.68699998 -0.0048181596 1.2728054e-38 339 244
0.024090799 0.68699998 -0.0048181596 1.2635859e-38 340 244
0.02533216 0.68800002 -0.0048251734 1.2635859e-38 341 244
0.026615599 0.69 -0.0048391996 1.2359629e-38 342 244
0.027865725 0.69099998 -0.0048462129 1.2267432e-38 343 244
0.029161438 0.69300002 -0.00486024 1.1899726e-38 344 244
0.030420333 0.69400001 -0.0048672534 1.162278e-38 345 244
0.031728316 0.69599998 -0.0048812795 1.2542571e-38 346 244
0.03299598 0.69700003 -0.0048882933 9.7767024e-39 347 244
0.034365334 0.69999999 -0.0049093333 9.8679438e-41 348 244
0.035643511 0.70099998 -0.0049163462 5.4020056e-42 349 244
0.036977798 0.70300001 -0.0049303733 1.846079e-39 350 244
0.038264744 0.704 -0.0049373866 1.5694935e-39 351 244
0.039499093 0.704 -0.0049373866 1.9379061e-39 352 244
0.042563915 0.71399999 -0.0050075199 1.753868e-39 354 244
0.043815799 0.71399999 -0.0050075199 9.5904965e-39 355 244
0.045067675 0.71399999 -0.0050075199 1.2810153e-38 356 244
0.046449307 0.71600002 -0.0050215465 1.3178937e-38 357 244
-0.053378478 0.708 -0.0062067998 1.9082698e-38 277 245
-0.052137118 0.708 -0.0062067998 1.7512854e-38 278 245
-0.050895758 0.708 -0.0062067998 1.5392354e-38 279 245
-0.049654398 0.708 -0.0062067998 1.3370534e-38 280 245
-0.048413038 0.708 -0.0062067998 1.3554924e-38 281 245
-0.047105055 0.70700002 -0.0061980332 1.3004645e-38 282 245
-0.045865446 0.70700002 -0.0061980332 1.3557818e-38 283 245
-0.044562716 0.70599997 -0.0061892662 1.3560339e-38 284 245
-0.043140765 0.70300001 -0.0061629666 1.0978861e-38 285 245
-0.041729331 0.69999999 -0.0061366665 9.2264181e-39 286 245
-0.040386278 0.69800001 -0.006119133 9.5952021e-39 287 245
-0.039106347 0.69700003 -0.0061103669 9.8714316e-39 288 245
-0.037829921 0.69599998 -0.0061015999 9.9636272e-39 289 245
-0.036609598 0.69599998 -0.0061015999 1.0608278e-38 290 245
-0.035236739 0.69300002 -0.0060753003 1.1069256e-38 291 245
-0.034021679 0.69300002 -0.0060753003 1.1253297e-38 292 245
-0.032711938 0.69099998 -0.0060577663 1.1806471e-38 293 245
-0.031500384 0.69099998 -0.0060577663 1.1904427e-38 294 245
-0.030157333 0.68800002 -0.0060314666 1.2641992e-38 295 245
-0.028908957 0.68699998 -0.0060226996 1.420428e-38 296 245
-0.027704418 0.68699998 -0.0060226996 1.4019889e-38 297 245
-0.026461305 0.68599999 -0.0060139326 1.3652181e-38 298 245
-0.025184879 0.68400002 -0.0059964 1.3652181e-38 299 245
-0.023950534 0.68300003 -0.0059876335 1.3560704e-38 300 245
-0.022753006 0.68300003 -0.0059876335 1.3560704e-38 301 245
-0.021523919 0.68199998 -0.005978866 1.3560704e-38 302 245
-0.020328145 0.68199998 -0.005978866 1.3376673e-38 303 245
-0.019132372 0.68199998 -0.005978866 1.3376673e-38 304 245
-0.017936599 0.68199998 -0.005978866 1.3376673e-38 305 245
-0.016740825 0.68199998 -0.005978866 1.3376317e-38 306 245
-0.015545053 0.68199998 -0.005978866 1.3376317e-38 307 245
-0.014307199 0.68000001 -0.0059613334 1.3284122e-38 308 245
-0.013114933 0.68000001 -0.0059613334 1.3284122e-38 309 245
-0.011922667 0.68000001 -0.0059613334 1.3284122e-38 310 245
-0.010714619 0.67900002 -0.0059525664 1.3191926e-38 311 245
-0.009524107 0.67900002 -0.0059525664 1.309973e-38 312 245
-0.0083458666 0.68000001 -0.0059613334 1.309973e-38 313 245
-0.0071430802 0.67900002 -0.0059525664 1.3099374e-38 314 245
-0.0059525664 0.67900002 -0.0059525664 1.3007179e-38 315 245
-0.0047690663 0.68000001 -0.0059613334 1.3099374e-38 316 245
-0.0035767998 0.68000001 -0.0059613334 1.3007179e-38 317 245
-0.0023845332 0.68000001 -0.0059613334 1.2914982e-38 318 245
-0.0011922666 0.68000001 -0.0059613334 1.3007179e-38 319 245
0 0.68000001 -0.0059613334 1.3099012e-38 320 245
0.0011922666 0.68000001 -0.0059613334 1.3283043e-38 321 245
0.0023915465 0.68199998 -0.005978866 1.3283396e-38 322 245
0.00358732 0.68199998 -0.005978866 1.3099363e-38 323 245
0.004783093 0.68199998 -0.005978866 1.3006812e-38 324 245
0.005978866 0.68199998 -0.005978866 1.282242e-38 325 245
0.0071535995 0.68000001 -0.0059613334 1.2638752e-38 326 245
0.0083458666 0.68000001 -0.0059613334 1.2638752e-38 327 245
0.009566186 0.68199998 -0.005978866 1.282242e-38 328 245
0.01077774 0.68300003 -0.0059876335 1.2729866e-38 329 245
0.011975267 0.68300003 -0.0059876335 1.2730222e-38 330 245
0.013172794 0.68300003 -0.0059876335 1.2730222e-38 331 245
0.014370319 0.68300003 -0.0059876335 1.2729503e-38 332 245
0.015567848 0.68300003 -0.0059876335 1.2729503e-38 333 245
0.016789921 0.68400002 -0.0059964 1.2729856e-38 334 245
0.0179892 0.68400002 -0.0059964 1.2729856e-38 335 245
0.019244585 0.68599999 -0.0060139326 1.2913166e-38 336 245
0.020447372 0.68599999 -0.0060139326 1.2636938e-38 337 245
0.021650158 0.68599999 -0.0060139326 1.282025e-38 338 245
0.022852944 0.68599999 -0.0060139326 1.2728054e-38 339 245
0.024090799 0.68699998 -0.0060226996 1.2728051e-38 340 245
0.02533216 0.68800002 -0.0060314666 1.2451825e-38 341 245
0.026538454 0.68800002 -0.0060314666 1.2359629e-38 342 245
0.027825398 0.69 -0.0060489997 1.2267432e-38 343 245
0.029077278 0.69099998 -0.0060577663 1.1990842e-38 344 245
0.030420333 0.69400001 -0.0060840664 1.1714257e-38 345 245
0.031728316 0.69599998 -0.0061015999 1.199119e-38 346 245
0.032948639 0.69599998 -0.0061015999 9.7788548e-39 347 245
0.034365334 0.69999999 -0.0061366665 1.6638317e-39 348 245
0.035643511 0.70099998 -0.0061454331 2.1523944e-42 349 245
0.036977798 0.70300001 -0.0061629666 1.5676816e-39 350 245
0.038264744 0.704 -0.0061717331 2.0286598e-39 351 245
0.039499093 0.704 -0.0061717331 2.489282e-39 352 245
0.040849157 0.70599997 -0.0061892662 8.2976067e-40 353 245
0.042563915 0.71399999 -0.0062593995 1.2929038e-39 354 245
0.043815799 0.71399999 -0.0062593995 1.0328074e-38 355 245
0.045067675 0.71399999 -0.0062593995 1.484279e-38 356 245
0.046319555 0.71399999 -0.0062593995 1.6871094e-38 357 245
-0.053378478 0.708 -0.0074481601 1.8071422e-38 277 246
-0.052137118 0.708 -0.0074481601 1.6410822e-38 278 246
-0.050895758 0.708 -0.0074481601 1.4198127e-38 279 246
-0.049654398 0.708 -0.0074481601 1.3003549e-38 280 246
-0.048413038 0.708 -0.0074481601 1.3187941e-38 281 246
-0.047171678 0.708 -0.0074481601 1.3095758e-38 282 246
-0.045865446 0.70700002 -0.0074376399 1.3188313e-38 283 246
-0.044562716 0.70599997 -0.0074271196 1.1625677e-38 284 246
-0.043140765 0.70300001 -0.0073955595 3.051483e-39 285 246
-0.041729331 0.69999999 -0.0073639993 3.9096227e-43 286 246
-0.040386278 0.69800001 -0.0073429602 1.4727647e-42 287 246
-0.039106347 0.69700003 -0.00733244 5.5428501e-40 288 246
-0.037884273 0.69700003 -0.00733244 6.4648064e-40 289 246
-0.036609598 0.69599998 -0.0073219193 5.5428781e-40 290 246
-0.035389278 0.69599998 -0.0073219193 6.4648344e-40 291 246
-0.034070771 0.69400001 -0.0073008798 4.4841551e-44 292 246
-0.03280662 0.69300002 -0.0072903596 1.4758938e-39 293 246
-0.031500384 0.69099998 -0.0072693196 2.1998985e-41 294 246
-0.030157333 0.68800002 -0.0072377604 6.0161541e-39 295 246
-0.028908957 0.68699998 -0.0072272392 1.3376333e-38 296 246
-0.027704418 0.68699998 -0.0072272392 1.3561084e-38 297 246
-0.026461305 0.68599999 -0.0072167199 1.3559985e-38 298 246
-0.025184879 0.68400002 -0.0071956799 1.3559985e-38 299 246
-0.023950534 0.68300003 -0.0071851597 1.3376673e-38 300 246
-0.022719691 0.68199998 -0.00717464 1.3376673e-38 301 246
-0.021523919 0.68199998 -0.00717464 1.3559985e-38 302 246
-0.020328145 0.68199998 -0.00717464 1.3559985e-38 303 246
-0.019132372 0.68199998 -0.00717464 1.355963e-38 304 246
-0.017936599 0.68199998 -0.00717464 1.3467434e-38 305 246
-0.016740825 0.68199998 -0.00717464 1.3467437e-38 306 246
-0.015499466 0.68000001 -0.0071535995 1.3375241e-38 307 246
-0.014307199 0.68000001 -0.0071535995 1.3284122e-38 308 246
-0.013114933 0.68000001 -0.0071535995 1.3191926e-38 309 246
-0.011905133 0.67900002 -0.0071430802 1.3008614e-38 310 246
-0.010714619 0.67900002 -0.0071430802 1.2916418e-38 311 246
-0.009524107 0.67900002 -0.0071430802 1.3099374e-38 312 246
-0.0083335936 0.67900002 -0.0071430802 1.3099374e-38 313 246
-0.0071430802 0.67900002 -0.0071430802 1.3099374e-38 314 246
-0.0059525664 0.67900002 -0.0071430802 1.3099374e-38 315 246
-0.0047690663 0.68000001 -0.0071535995 1.3007179e-38 316 246
-0.0035767998 0.68000001 -0.0071535995 1.2914982e-38 317 246
-0.0023845332 0.68000001 -0.0071535995 1.2914982e-38 318 246
-0.0011922666 0.68000001 -0.0071535995 1.2914982e-38 319 246
0 0.68000001 -0.0071535995 1.3190127e-38 320 246
0.0011922666 0.68000001 -0.0071535995 1.3282324e-38 321 246
0.0023845332 0.68000001 -0.0071535995 1.3099012e-38 322 246
0.00358732 0.68199998 -0.00717464 1.3099012e-38 323 246
0.004783093 0.68199998 -0.00717464 1.3097931e-38 324 246
0.0059613334 0.68000001 -0.0071535995 1.2913541e-38 325 246
0.0071535995 0.68000001 -0.0071535995 1.2729869e-38 326 246
0.0083458666 0.68000001 -0.0071535995 1.2729869e-38 327 246
0.009566186 0.68199998 -0.00717464 1.2729866e-38 328 246
0.010761959 0.68199998 -0.00717464 1.2729866e-38 329 246
0.011957732 0.68199998 -0.00717464 1.2729506e-38 330 246
0.013153506 0.68199998 -0.00717464 1.2636952e-38 331 246
0.01434928 0.68199998 -0.00717464 1.2912095e-38 332 246
0.015567848 0.68300003 -0.0071851597 1.3004292e-38 333 246
0.016765373 0.68300003 -0.0071851597 1.2912448e-38 334 246
0.0179892 0.68400002 -0.0071956799 1.3004645e-38 335 246
0.019244585 0.68599999 -0.0072167199 1.2912448e-38 336 246
0.020447372 0.68599999 -0.0072167199 1.2820253e-38 337 246
0.021650158 0.68599999 -0.0072167199 1.2636938e-38 338 246
0.022852944 0.68599999 -0.0072167199 1.2636938e-38 339 246
0.024090799 0.68699998 -0.0072272392 1.2635859e-38 340 246
0.02533216 0.68800002 -0.0072377604 1.2451827e-38 341 246
0.026538454 0.68800002 -0.0072377604 1.2359273e-38 342 246
0.027825398 0.69 -0.0072587994 1.217488e-38 343 246
0.029077278 0.69099998 -0.0072693196 1.1990489e-38 344 246
0.030420333 0.69400001 -0.0073008798 1.1621707e-38 345 246
0.031728316 0.69599998 -0.0073219193 1.1162877e-38 346 246
0.032948639 0.69599998 -0.0073219193 9.7799422e-39 347 246
0.034365334 0.69999999 -0.0073639993 6.2710797e-39 348 246
0.035592664 0.69999999 -0.0073639993 2.85984e-39 349 246
0.036872596 0.70099998 -0.0073745195 1.6577025e-39 350 246
0.038264744 0.704 -0.0074060797 2.395622e-39 351 246
0.039499093 0.704 -0.0074060797 2.2137685e-39 352 246
0.040849157 0.70599997 -0.0074271196 3.6985591e-40 353 246
0.042563915 0.71399999 -0.0075112795 1.0173917e-39 354 246
0.043815799 0.71399999 -0.0075112795 9.6841411e-39 355 246
0.045067675 0.71399999 -0.0075112795 1.5029337e-38 356 246
0.046319555 0.71399999 -0.0075112795 1.770301e-38 357 246
0.047704693 0.71600002 -0.00753232 1.7701561e-38 358 246
0.048960082 0.71600002 -0.00753232 1.751717e-38 359 246
-0.053529263 0.70999998 -0.0087140659 1.8162539e-38 277 247
-0.052284397 0.70999998 -0.0087140659 1.6134958e-38 278 247
-0.051039528 0.70999998 -0.0087140659 1.3922263e-38 279 247
-0.049794663 0.70999998 -0.0087140659 1.2911354e-38 280 247
-0.048549797 0.70999998 -0.0087140659 1.3371973e-38 281 247
-0.047171678 0.708 -0.008689519 1.3188311e-38 282 247
-0.045865446 0.70700002 -0.008677247 1.3188311e-38 283 247
-0.044562716 0.70599997 -0.0086649731 1.0519322e-38 284 247
-0.043140765 0.70300001 -0.0086281532 1.0235308e-39 285 247
-0.041729331 0.69999999 -0.0085913334 2.8025969e-45 286 247
-0.040386278 0.69800001 -0.0085667865 9.329705e-41 287 247
-0.039106347 0.69700003 -0.0085545136 2.7695683e-40 288 247
-0.037884273 0.69700003 -0.0085545136 2.7695683e-40 289 247
-0.036662199 0.69700003 -0.0085545136 1.1210388e-44 290 247
-0.035440128 0.69700003 -0.0085545136 7.0064923e-45 291 247
-0.034218054 0.69700003 -0.0085545136 0 292 247
-0.03280662 0.69300002 -0.0085054198 0 293 247
-0.031591557 0.69300002 -0.0085054198 5.6051939e-45 294 247
-0.030157333 0.68800002 -0.0084440531 5.2566153e-39 295 247
-0.028908957 0.68699998 -0.0084317802 1.3467081e-38 296 247
-0.027664091 0.68599999 -0.0084195063 1.3836223e-38 297 247
-0.02638416 0.68400002 -0.0083949603 1.3284124e-38 298 247
-0.02514806 0.68300003 -0.0083826864 1.3284124e-38 299 247
-0.023950534 0.68300003 -0.0083826864 1.3192289e-38 300 247
-0.022719691 0.68199998 -0.0083704125 1.3192289e-38 301 247
-0.021523919 0.68199998 -0.0083704125 1.3008258e-38 302 247
-0.020328145 0.68199998 -0.0083704125 1.3008258e-38 303 247
-0.019076265 0.68000001 -0.0083458666 1.3191576e-38 304 247
-0.017883999 0.68000001 -0.0083458666 1.309938e-38 305 247
-0.016691733 0.68000001 -0.0083458666 1.2916428e-38 306 247
-0.015476674 0.67900002 -0.0083335936 1.2824232e-38 307 247
-0.01428616 0.67900002 -0.0083335936 1.2916062e-38 308 247
-0.013095647 0.67900002 -0.0083335936 1.2916062e-38 309 247
-0.011905133 0.67900002 -0.0083335936 1.3099374e-38 310 247
-0.010714619 0.67900002 -0.0083335936 1.3099374e-38 311 247
-0.009524107 0.67900002 -0.0083335936 1.2916062e-38 312 247
-0.0083335936 0.67900002 -0.0083335936 1.2916062e-38 313 247
-0.0071430802 0.67900002 -0.0083335936 1.2823867e-38 314 247
-0.0059525664 0.67900002 -0.0083335936 1.2823867e-38 315 247
-0.0047690663 0.68000001 -0.0083458666 1.2914985e-38 316 247
-0.0035767998 0.68000001 -0.0083458666 1.2730595e-38 317 247
-0.0023845332 0.68000001 -0.0083458666 1.2638399e-38 318 247
-0.0011922666 0.68000001 -0.0083458666 1.2730595e-38 319 247
0 0.67900002 -0.0083335936 1.2731314e-38 320 247
0.0011905134 0.67900002 -0.0083335936 1.2731314e-38 321 247
0.0023845332 0.68000001 -0.0083458666 1.273167e-38 322 247
0.0035767998 0.68000001 -0.0083458666 1.2639474e-38 323 247
0.0047690663 0.68000001 -0.0083458666 1.2913547e-38 324 247
0.0059613334 0.68000001 -0.0083458666 1.2728797e-38 325 247
0.0071535995 0.68000001 -0.0083458666 1.2454005e-38 326 247
0.0083458666 0.68000001 -0.0083458666 1.2454005e-38 327 247
0.009566186 0.68199998 -0.0083704125 1.2271049e-38 328 247
0.010761959 0.68199998 -0.0083704125 1.2271049e-38 329 247
0.011957732 0.68199998 -0.0083704125 1.2361442e-38 330 247
0.013153506 0.68199998 -0.0083704125 1.2361442e-38 331 247
0.01434928 0.68199998 -0.0083704125 1.2452559e-38 332 247
0.015567848 0.68300003 -0.0083826864 1.2544755e-38 333 247
0.016765373 0.68300003 -0.0083826864 1.2269963e-38 334 247
0.0179892 0.68400002 -0.0083949603 1.2269963e-38 335 247
0.01918848 0.68400002 -0.0083949603 1.2637659e-38 336 247
0.020447372 0.68599999 -0.0084195063 1.2545105e-38 337 247
0.021650158 0.68599999 -0.0084195063 1.2636938e-38 338 247
0.022886258 0.68699998 -0.0084317802 1.2544742e-38 339 247
0.024090799 0.68699998 -0.0084317802 1.2635859e-38 340 247
0.025295338 0.68699998 -0.0084317802 1.2359273e-38 341 247
0.026538454 0.68800002 -0.0084440531 1.2267076e-38 342 247
0.027825398 0.69 -0.0084686 1.217488e-38 343 247
0.029077278 0.69099998 -0.008480873 1.1990842e-38 344 247
0.0303765 0.69300002 -0.0085054198 1.162206e-38 345 247
0.031728316 0.69599998 -0.0085422397 1.1896123e-38 346 247
0.03299598 0.69700003 -0.0085545136 1.1619896e-38 347 247
0.034267146 0.69800001 -0.0085667865 1.2077242e-38 348 247
0.035592664 0.69999999 -0.0085913334 9.7719913e-39 349 247
0.036872596 0.70099998 -0.0086036054 6.9067059e-39 350 247
0.038210396 0.70300001 -0.0086281532 4.3252366e-39 351 247
0.039499093 0.704 -0.0086404262 1.2946653e-39 352 247
0.040849157 0.70599997 -0.0086649731 2.8698593e-42 353 247
0.042563915 0.71399999 -0.0087631596 2.2126951e-39 354 247
0.043815799 0.71399999 -0.0087631596 1.0879084e-38 355 247
0.045067675 0.71399999 -0.0087631596 1.4660544e-38 356 247
0.046319555 0.71399999 -0.0087631596 1.7426772e-38 357 247
0.047704693 0.71600002 -0.0087877065 1.7792675e-38 358 247
0.048960082 0.71600002 -0.0087877065 1.7608644e-38 359 247
-0.053529263 0.70999998 -0.0099589331 1.8161464e-38 277 248
-0.052284397 0.70999998 -0.0099589331 1.6134964e-38 278 248
-0.051039528 0.70999998 -0.0099589331 1.4106301e-38 279 248
-0.049794663 0.70999998 -0.0099589331 1.3002477e-38 280 248
-0.048549797 0.70999998 -0.0099589331 1.3371259e-38 281 248
-0.047171678 0.708 -0.0099308798 1.3187958e-38 282 248
-0.045865446 0.70700002 -0.0099168532 1.2819534e-38 283 248
-0.044562716 0.70599997 -0.0099028256 9.6902872e-39 284 248
-0.043140765 0.70300001 -0.0098607466 6.5511544e-40 285 248
-0.041729331 0.69999999 -0.0098186666 3.6279617e-42 286 248
-0.040386278 0.69800001 -0.0097906133 2.0319332e-39 287 248
-0.039106347 0.69700003 -0.0097765867 2.8555632e-39 288 248
-0.037884273 0.69700003 -0.0097765867 2.7633676e-39 289 248
-0.036662199 0.69700003 -0.0097765867 2.4878569e-39 290 248
-0.035440128 0.69700003 -0.0097765867 2.4878569e-39 291 248
-0.03299598 0.69700003 -0.0097765867 2.6708188e-39 293 248
-0.03177391 0.69700003 -0.0097765867 3.2229865e-44 294 248
-0.029982001 0.68400002 -0.0095942402 4.2442864e-39 295 248
-0.027583439 0.68400002 -0.0095942402 1.4109949e-38 297 248
-0.026345588 0.68300003 -0.0095802136 1.3099374e-38 298 248
-0.02514806 0.68300003 -0.0095802136 1.3099374e-38 299 248
-0.023915464 0.68199998 -0.009566186 1.3007179e-38 300 248
-0.022719691 0.68199998 -0.009566186 1.3007179e-38 301 248
-0.021523919 0.68199998 -0.009566186 1.3007182e-38 302 248
-0.020328145 0.68199998 -0.009566186 1.3007182e-38 303 248
-0.019076265 0.68000001 -0.0095381327 1.3098661e-38 304 248
-0.017883999 0.68000001 -0.0095381327 1.3098661e-38 305 248
-0.016691733 0.68000001 -0.0095381327 1.3006826e-38 306 248
-0.015476674 0.67900002 -0.009524107 1.3006826e-38 307 248
-0.01428616 0.67900002 -0.009524107 1.2914985e-38 308 248
-0.013095647 0.67900002 -0.009524107 1.3007182e-38 309 248
-0.011905133 0.67900002 -0.009524107 1.2823867e-38 310 248
-0.010714619 0.67900002 -0.009524107 1.2823867e-38 311 248
-0.009524107 0.67900002 -0.009524107 1.2823867e-38 312 248
-0.0083335936 0.67900002 -0.009524107 1.2823867e-38 313 248
-0.0071430802 0.67900002 -0.009524107 1.2731314e-38 314 248
-0.0059525664 0.67900002 -0.009524107 1.2731314e-38 315 248
-0.0047620535 0.67900002 -0.009524107 1.2914985e-38 316 248
-0.0035715401 0.67900002 -0.009524107 1.2638399e-38 317 248
-0.0023810267 0.67900002 -0.009524107 1.2638399e-38 318 248
-0.0011905134 0.67900002 -0.009524107 1.2730595e-38 319 248
0 0.67900002 -0.009524107 1.2730595e-38 320 248
0.0011905134 0.67900002 -0.009524107 1.2730595e-38 321 248
0.0023845332 0.68000001 -0.0095381327 1.2638399e-38 322 248
0.0035767998 0.68000001 -0.0095381327 1.2638399e-38 323 248
0.0047690663 0.68000001 -0.0095381327 1.2821348e-38 324 248
0.0059613334 0.68000001 -0.0095381327 1.2544401e-38 325 248
0.0071535995 0.68000001 -0.0095381327 1.2361089e-38 326 248
0.0083458666 0.68000001 -0.0095381327 1.2453286e-38 327 248
0.0095381327 0.68000001 -0.0095381327 1.2269612e-38 328 248
0.010761959 0.68199998 -0.009566186 1.2269612e-38 329 248
0.011957732 0.68199998 -0.009566186 1.2268891e-38 330 248
0.013153506 0.68199998 -0.009566186 1.2176695e-38 331 248
0.01434928 0.68199998 -0.009566186 1.2268528e-38 332 248
0.015567848 0.68300003 -0.0095802136 1.2268528e-38 333 248
0.016765373 0.68300003 -0.0095802136 1.2268525e-38 334 248
0.0179892 0.68400002 -0.0095942402 1.2452556e-38 335 248
0.01918848 0.68400002 -0.0095942402 1.2452912e-38 336 248
0.020447372 0.68599999 -0.0096222926 1.2452912e-38 337 248
0.021650158 0.68599999 -0.0096222926 1.2544389e-38 338 248
0.022852944 0.68599999 -0.0096222926 1.2452193e-38 339 248
0.024090799 0.68699998 -0.0096363192 1.2451472e-38 340 248
0.025295338 0.68699998 -0.0096363192 1.2359276e-38 341 248
0.026538454 0.68800002 -0.0096503468 1.2175602e-38 342 248
0.027825398 0.69 -0.0096783992 1.1899017e-38 343 248
0.029077278 0.69099998 -0.0096924258 1.1898294e-38 344 248
0.0303765 0.69300002 -0.0097204801 1.1621707e-38 345 248
0.031637147 0.69400001 -0.0097345067 1.1805372e-38 346 248
0.032948639 0.69599998 -0.0097625591 1.3096111e-38 347 248
0.034267146 0.69800001 -0.0097906133 1.493354e-38 348 248
0.035490975 0.69800001 -0.0097906133 1.327402e-38 349 248
0.036819998 0.69999999 -0.0098186666 1.1519399e-38 350 248
0.038101684 0.70099998 -0.0098326923 8.2003566e-39 351 248
0.039499093 0.704 -0.0098747732 3.5984756e-39 352 248
0.040964879 0.708 -0.0099308798 2.5111268e-42 353 248
0.042385083 0.71100003 -0.0099729598 3.2268344e-39 354 248
0.043631699 0.71100003 -0.0099729598 1.1431885e-38 355 248
0.045067675 0.71399999 -0.01001504 1.429212e-38 356 248
0.046319555 0.71399999 -0.01001504 1.7242022e-38 357 248
0.047704693 0.71600002 -0.010043093 1.7608644e-38 358 248
-0.053604662 0.71100003 -0.01121958 1.8069988e-38 277 249
-0.052358042 0.71100003 -0.01121958 1.6410472e-38 278 249
-0.051111419 0.71100003 -0.01121958 1.4474364e-38 279 249
-0.049864799 0.71100003 -0.01121958 1.2726254e-38 280 249
-0.048618179 0.71100003 -0.01121958 1.3003199e-38 281 249
-0.047304932 0.70999998 -0.011203799 1.3004645e-38 282 249
-0.045930319 0.708 -0.01117224 1.2267079e-38 283 249
-0.044562716 0.70599997 -0.011140679 9.5955734e-39 284 249
-0.043140765 0.70300001 -0.01109334 9.2882546e-40 285 249
-0.041729331 0.69999999 -0.011045999 4.6388444e-40 286 249
-0.040386278 0.69800001 -0.01101444 1.9393733e-39 287 249
-0.039106347 0.69700003 -0.01099866 2.4885758e-39 288 249
-0.037884273 0.69700003 -0.01099866 2.3963801e-39 289 249
-0.036662199 0.69700003 -0.01099866 1.8453601e-39 290 249
-0.035440128 0.69700003 -0.01099866 1.8453601e-39 291 249
-0.034218054 0.69700003 -0.01099866 2.2119959e-39 292 249
-0.02878272 0.68400002 -0.01079352 1.0334969e-38 296 249
-0.027583439 0.68400002 -0.01079352 1.2363272e-38 297 249
-0.026345588 0.68300003 -0.01077774 1.3098661e-38 298 249
-0.02514806 0.68300003 -0.01077774 1.2821714e-38 299 249
-0.023915464 0.68199998 -0.010761959 1.2639118e-38 300 249
-0.022719691 0.68199998 -0.010761959 1.2639118e-38 301 249
-0.021523919 0.68199998 -0.010761959 1.2639121e-38 302 249
-0.020328145 0.68199998 -0.010761959 1.2639121e-38 303 249
-0.019076265 0.68000001 -0.0107304 1.2638765e-38 304 249
-0.017883999 0.68000001 -0.0107304 1.2638765e-38 305 249
-0.016691733 0.68000001 -0.0107304 1.2638765e-38 306 249
-0.015476674 0.67900002 -0.010714619 1.2638765e-38 307 249
-0.01428616 0.67900002 -0.010714619 1.2638765e-38 308 249
-0.013095647 0.67900002 -0.010714619 1.2638765e-38 309 249
-0.011905133 0.67900002 -0.010714619 1.2548724e-38 310 249
-0.010714619 0.67900002 -0.010714619 1.2456527e-38 311 249
-0.009524107 0.67900002 -0.010714619 1.2639121e-38 312 249
-0.0083335936 0.67900002 -0.010714619 1.2731316e-38 313 249
-0.0071430802 0.67900002 -0.010714619 1.2639121e-38 314 249
-0.0059525664 0.67900002 -0.010714619 1.2639121e-38 315 249
-0.0047620535 0.67900002 -0.010714619 1.2639118e-38 316 249
-0.0035715401 0.67900002 -0.010714619 1.2639118e-38 317 249
-0.0023810267 0.67900002 -0.010714619 1.2638402e-38 318 249
-0.0011905134 0.67900002 -0.010714619 1.2638402e-38 319 249
0 0.67900002 -0.010714619 1.2546925e-38 320 249
0.0011905134 0.67900002 -0.010714619 1.2546925e-38 321 249
0.0023810267 0.67900002 -0.010714619 1.2362894e-38 322 249
0.0035767998 0.68000001 -0.0107304 1.227034e-38 323 249
0.0047620535 0.67900002 -0.010714619 1.2544404e-38 324 249
0.0059525664 0.67900002 -0.010714619 1.2452209e-38 325 249
0.0071430802 0.67900002 -0.010714619 1.2268896e-38 326 249
0.0083458666 0.68000001 -0.0107304 1.2453289e-38 327 249
0.0095381327 0.68000001 -0.0107304 1.20863e-38 328 249
0.0107304 0.68000001 -0.0107304 1.1994105e-38 329 249
0.011922667 0.68000001 -0.0107304 1.2084502e-38 330 249
0.013153506 0.68199998 -0.010761959 1.1992307e-38 331 249
0.01434928 0.68199998 -0.010761959 1.1992304e-38 332 249
0.015567848 0.68300003 -0.01077774 1.1992304e-38 333 249
0.016765373 0.68300003 -0.01077774 1.2084137e-38 334 249
0.017962901 0.68300003 -0.01077774 1.2176332e-38 335 249
0.01918848 0.68400002 -0.01079352 1.2268525e-38 336 249
0.020447372 0.68599999 -0.010825079 1.2268525e-38 337 249
0.021650158 0.68599999 -0.010825079 1.2268525e-38 338 249
0.022852944 0.68599999 -0.010825079 1.2084134e-38 339 249
0.024090799 0.68699998 -0.010840859 1.2267443e-38 340 249
0.025295338 0.68699998 -0.010840859 1.2175246e-38 341 249
0.026538454 0.68800002 -0.010856641 1.2082688e-38 342 249
0.027744746 0.68800002 -0.010856641 1.2082688e-38 343 249
0.029077278 0.69099998 -0.01090398 1.1621707e-38 344 249
0.0303765 0.69300002 -0.010935539 1.1437315e-38 345 249
0.031637147 0.69400001 -0.01095132 1.2542941e-38 346 249
0.032948639 0.69599998 -0.010982879 1.3372702e-38 347 249
0.034267146 0.69800001 -0.01101444 1.3185793e-38 348 249
0.035490975 0.69800001 -0.01101444 1.2263476e-38 349 249
0.036819998 0.69999999 -0.011045999 1.1432981e-38 350 249
0.038101684 0.70099998 -0.011061779 1.0234438e-38 351 249
0.039499093 0.704 -0.011109119 7.6547204e-39 352 249
0.040964879 0.708 -0.01117224 4.9810471e-39 353 249
0.042206239 0.708 -0.01117224 8.0109234e-39 354 249
0.043570329 0.70999998 -0.011203799 1.3173879e-38 355 249
0.044878319 0.71100003 -0.01121958 1.4199206e-38 356 249
0.046319555 0.71399999 -0.011266919 1.7241303e-38 357 249
0.047571439 0.71399999 -0.011266919 1.7424254e-38 358 249
-0.053604662 0.71100003 -0.0124662 1.816182e-38 277 250
-0.052358042 0.71100003 -0.0124662 1.6503021e-38 278 250
-0.051111419 0.71100003 -0.0124662 1.484314e-38 279 250
-0.049794663 0.70999998 -0.012448666 1.2818805e-38 280 250
-0.048549797 0.70999998 -0.012448666 1.3095392e-38 281 250
-0.047304932 0.70999998 -0.012448666 1.3096844e-38 282 250
-0.045930319 0.708 -0.0124136 1.2082332e-38 283 250
-0.044688959 0.708 -0.0124136 8.8598062e-39 284 250
-0.043202132 0.704 -0.012343466 5.6220094e-40 285 250
-0.041967787 0.704 -0.012343466 3.7132307e-40 286 250
-0.040386278 0.69800001 -0.012238266 2.0304843e-39 287 250
-0.039106347 0.69700003 -0.012220734 2.3052607e-39 288 250
-0.037884273 0.69700003 -0.012220734 2.2130651e-39 289 250
-0.036662199 0.69700003 -0.012220734 1.8453573e-39 290 250
-0.035440128 0.69700003 -0.012220734 1.8453573e-39 291 250
-0.034218054 0.69700003 -0.012220734 2.1201492e-39 292 250
-0.032948639 0.69599998 -0.0122032 2.1201492e-39 293 250
-0.028740639 0.68300003 -0.011975267 6.1912071e-39 296 250
-0.027543113 0.68300003 -0.011975267 1.0247816e-38 297 250
-0.026345588 0.68300003 -0.011975267 1.2914631e-38 298 250
-0.025111238 0.68199998 -0.011957732 1.2453655e-38 299 250
-0.023915464 0.68199998 -0.011957732 1.2179219e-38 300 250
-0.022719691 0.68199998 -0.011957732 1.2271414e-38 301 250
-0.021523919 0.68199998 -0.011957732 1.2271059e-38 302 250
-0.020268533 0.68000001 -0.011922667 1.2363613e-38 303 250
-0.019076265 0.68000001 -0.011922667 1.2546569e-38 304 250
-0.017883999 0.68000001 -0.011922667 1.2546569e-38 305 250
-0.016691733 0.68000001 -0.011922667 1.236326e-38 306 250
-0.015476674 0.67900002 -0.011905133 1.236326e-38 307 250
-0.01428616 0.67900002 -0.011905133 1.2363257e-38 308 250
-0.013095647 0.67900002 -0.011905133 1.2363257e-38 309 250
-0.011905133 0.67900002 -0.011905133 1.2456171e-38 310 250
-0.010698839 0.67799997 -0.011887599 1.2456171e-38 311 250
-0.0095100794 0.67799997 -0.011887599 1.2455453e-38 312 250
-0.0083335936 0.67900002 -0.011905133 1.2547648e-38 313 250
-0.0071325595 0.67799997 -0.011887599 1.2455809e-38 314 250
-0.0059437994 0.67799997 -0.011887599 1.2455809e-38 315 250
-0.0047620535 0.67900002 -0.011905133 1.236361e-38 316 250
-0.0035715401 0.67900002 -0.011905133 1.236361e-38 317 250
-0.0023810267 0.67900002 -0.011905133 1.2271059e-38 318 250
-0.0011905134 0.67900002 -0.011905133 1.2271059e-38 319 250
0 0.67900002 -0.011905133 1.2271059e-38 320 250
0.0011905134 0.67900002 -0.011905133 1.2271059e-38 321 250
0.0023810267 0.67900002 -0.011905133 1.2179219e-38 322 250
0.0035715401 0.67900002 -0.011905133 1.2086664e-38 323 250
0.0047620535 0.67900002 -0.011905133 1.2452206e-38 324 250
0.0059525664 0.67900002 -0.011905133 1.2083783e-38 325 250
0.0071430802 0.67900002 -0.011905133 1.1808273e-38 326 250
0.0083458666 0.68000001 -0.011922667 1.2453642e-38 327 250
0.0095381327 0.68000001 -0.011922667 1.2729506e-38 328 250
0.0107304 0.68000001 -0.011922667 1.2452559e-38 329 250
0.011922667 0.68000001 -0.011922667 1.1808992e-38 330 250
0.013114933 0.68000001 -0.011922667 1.162424e-38 331 250
0.01434928 0.68199998 -0.011957732 1.1808273e-38 332 250
0.015545053 0.68199998 -0.011957732 1.1992304e-38 333 250
0.016765373 0.68300003 -0.011975267 1.1809345e-38 334 250
0.017962901 0.68300003 -0.011975267 1.1809345e-38 335 250
0.019160427 0.68300003 -0.011975267 1.1992657e-38 336 250
0.020387759 0.68400002 -0.0119928 1.1992657e-38 337 250
0.021650158 0.68599999 -0.012027865 1.2084131e-38 338 250
0.022852944 0.68599999 -0.012027865 1.2084131e-38 339 250
0.024055731 0.68599999 -0.012027865 1.2175602e-38 340 250
0.025295338 0.68699998 -0.012045399 1.1991571e-38 341 250
0.026499879 0.68699998 -0.012045399 1.1990133e-38 342 250
0.027744746 0.68800002 -0.012062933 1.1897938e-38 343 250
0.029035198 0.69 -0.012097999 1.1621707e-38 344 250
0.0303765 0.69300002 -0.012150601 1.1713904e-38 345 250
0.031637147 0.69400001 -0.012168133 1.318759e-38 346 250
0.032948639 0.69599998 -0.0122032 1.3095395e-38 347 250
0.034267146 0.69800001 -0.012238266 1.134512e-38 348 250
0.035592664 0.69999999 -0.012273333 1.069975e-38 349 250
0.036819998 0.69999999 -0.012273333 1.0789781e-38 350 250
0.038210396 0.70300001 -0.012325933 1.0974174e-38 351 250
0.039499093 0.704 -0.012343466 1.0881233e-38 352 250
0.040849157 0.70599997 -0.012378532 9.5904937e-39 353 250
0.042087011 0.70599997 -0.012378532 9.6808943e-39 354 250
0.043447599 0.708 -0.0124136 1.124822e-38 355 250
0.044878319 0.71100003 -0.0124662 1.4107376e-38 356 250
0.046124939 0.71100003 -0.0124662 1.7057638e-38 357 250
0.047371563 0.71100003 -0.0124662 1.7423901e-38 358 250
-0.054851279 0.71100003 -0.01371282 1.7977069e-38 276 251
-0.053604662 0.71100003 -0.01371282 1.8254016e-38 277 251
-0.052284397 0.70999998 -0.013693533 1.6595213e-38 278 251
-0.051039528 0.70999998 -0.013693533 1.5027888e-38 279 251
-0.049794663 0.70999998 -0.013693533 1.3278341e-38 280 251
-0.048549797 0.70999998 -0.013693533 1.3370537e-38 281 251
-0.047371563 0.71100003 -0.01371282 1.3096841e-38 282 251
-0.046060063 0.70999998 -0.013693533 1.1713906e-38 283 251
-0.044688959 0.708 -0.013654959 8.031119e-39 284 251
-0.043447599 0.708 -0.013654959 3.7852295e-40 285 251
-0.042206239 0.708 -0.013654959 1.8908281e-40 286 251
-0.040386278 0.69800001 -0.013462093 1.6642129e-39 287 251
-0.039106347 0.69700003 -0.013442807 2.2141371e-39 288 251
-0.037884273 0.69700003 -0.013442807 2.0301059e-39 289 251
-0.036662199 0.69700003 -0.013442807 1.9379061e-39 290 251
-0.035389278 0.69599998 -0.013423519 1.9379061e-39 291 251
-0.034168959 0.69599998 -0.013423519 2.1208652e-39 292 251
-0.032948639 0.69599998 -0.013423519 2.0286696e-39 293 251
-0.031728316 0.69599998 -0.013423519 8.3124044e-40 294 251
-0.028740639 0.68300003 -0.013172794 1.8590859e-39 296 251
-0.027543113 0.68300003 -0.013172794 8.6819212e-39 297 251
-0.026307013 0.68199998 -0.013153506 1.263877e-38 298 251
-0.025111238 0.68199998 -0.013153506 1.2177794e-38 299 251
-0.023915464 0.68199998 -0.013153506 1.1811158e-38 300 251
-0.022719691 0.68199998 -0.013153506 1.1903355e-38 301 251
-0.0214608 0.68000001 -0.013114933 1.2086667e-38 302 251
-0.020268533 0.68000001 -0.013114933 1.2178863e-38 303 251
-0.019076265 0.68000001 -0.013114933 1.2270342e-38 304 251
-0.017883999 0.68000001 -0.013114933 1.2270342e-38 305 251
-0.016691733 0.68000001 -0.013114933 1.2178866e-38 306 251
-0.015476674 0.67900002 -0.013095647 1.2271061e-38 307 251
-0.01428616 0.67900002 -0.013095647 1.2271061e-38 308 251
-0.013095647 0.67900002 -0.013095647 1.2271061e-38 309 251
-0.011905133 0.67900002 -0.013095647 1.2363257e-38 310 251
-0.010698839 0.67799997 -0.013076359 1.2363257e-38 311 251
-0.0095100794 0.67799997 -0.013076359 1.2363613e-38 312 251
-0.0083335936 0.67900002 -0.013095647 1.2363613e-38 313 251
-0.0071325595 0.67799997 -0.013076359 1.2363613e-38 314 251
-0.0059437994 0.67799997 -0.013076359 1.2363613e-38 315 251
-0.0047550397 0.67799997 -0.013076359 1.2363613e-38 316 251
-0.0035662798 0.67799997 -0.013076359 1.2271059e-38 317 251
-0.0023810267 0.67900002 -0.013095647 1.227034e-38 318 251
-0.0011905134 0.67900002 -0.013095647 1.2362894e-38 319 251
0 0.67799997 -0.013076359 1.2271414e-38 320 251
0.0011887599 0.67799997 -0.013076359 1.2179219e-38 321 251
0.0023810267 0.67900002 -0.013095647 1.21785e-38 322 251
0.0035715401 0.67900002 -0.013095647 1.2270696e-38 323 251
0.0047620535 0.67900002 -0.013095647 1.2269615e-38 324 251
0.0059525664 0.67900002 -0.013095647 9.6881376e-39 325 251
0.0071430802 0.67900002 -0.013095647 7.1127724e-39 326 251
0.0083458666 0.68000001 -0.013114933 7.7581418e-39 327 251
0.0095381327 0.68000001 -0.013114933 9.6910088e-39 328 251
0.0107304 0.68000001 -0.013114933 1.0612967e-38 329 251
0.011922667 0.68000001 -0.013114933 1.1165783e-38 330 251
0.013114933 0.68000001 -0.013114933 1.1258339e-38 331 251
0.01434928 0.68199998 -0.013153506 1.1533125e-38 332 251
0.015545053 0.68199998 -0.013153506 1.1440928e-38 333 251
0.016765373 0.68300003 -0.013172794 1.171607e-38 334 251
0.017962901 0.68300003 -0.013172794 1.171607e-38 335 251
0.019160427 0.68300003 -0.013172794 1.171607e-38 336 251
0.020387759 0.68400002 -0.01319208 1.1808626e-38 337 251
0.021650158 0.68599999 -0.013230653 1.1991934e-38 338 251
0.022852944 0.68599999 -0.013230653 1.1991934e-38 339 251
0.024055731 0.68599999 -0.013230653 1.1899735e-38 340 251
0.025295338 0.68699998 -0.013249939 1.180754e-38 341 251
0.026499879 0.68699998 -0.013249939 1.1714625e-38 342 251
0.027744746 0.68800002 -0.013269227 1.162243e-38 343 251
0.029035198 0.69 -0.0133078 1.1897575e-38 344 251
0.0303765 0.69300002 -0.01336566 1.2450388e-38 345 251
0.031591557 0.69300002 -0.01336566 1.2636938e-38 346 251
0.032853961 0.69400001 -0.013384946 1.1714623e-38 347 251
0.034218054 0.69700003 -0.013442807 1.0699031e-38 348 251
0.035592664 0.69999999 -0.013500666 1.0606836e-38 349 251
0.036872596 0.70099998 -0.013519952 1.0789781e-38 350 251
0.038210396 0.70300001 -0.013558527 1.0697585e-38 351 251
0.039499093 0.704 -0.013577812 1.0514623e-38 352 251
0.040849157 0.70599997 -0.013616386 1.0237678e-38 353 251
0.042087011 0.70599997 -0.013616386 9.9614496e-39 354 251
0.043447599 0.708 -0.013654959 1.0237678e-38 355 251
0.044688959 0.708 -0.013654959 1.4198853e-38 356 251
0.046060063 0.70999998 -0.013693533 1.7241309e-38 357 251
-0.054851279 0.71100003 -0.014959441 1.7977072e-38 276 252
-0.053604662 0.71100003 -0.014959441 1.8254019e-38 277 252
-0.052284397 0.70999998 -0.014938398 1.6870725e-38 278 252
-0.051039528 0.70999998 -0.014938398 1.5395594e-38 279 252
-0.049794663 0.70999998 -0.014938398 1.3370534e-38 280 252
-0.048618179 0.71100003 -0.014959441 1.3278339e-38 281 252
-0.047371563 0.71100003 -0.014959441 1.3280509e-38 282 252
-0.046060063 0.70999998 -0.014938398 1.1528792e-38 283 252
-0.044688959 0.708 -0.01489632 7.3850237e-39 284 252
-0.043447599 0.708 -0.01489632 2.8596018e-40 285 252
-0.042206239 0.708 -0.01489632 8.3264734e-40 286 252
-0.040964879 0.708 -0.01489632 1.8471594e-39 287 252
-0.039106347 0.69700003 -0.01466488 2.2141371e-39 288 252
-0.037884273 0.69700003 -0.01466488 2.0301059e-39 289 252
-0.036662199 0.69700003 -0.01466488 2.2134154e-39 290 252
-0.035389278 0.69599998 -0.014643839 2.2134154e-39 291 252
-0.034168959 0.69599998 -0.014643839 2.2134154e-39 292 252
-0.032948639 0.69599998 -0.014643839 2.1212184e-39 293 252
-0.031728316 0.69599998 -0.014643839 1.7528114e-39 294 252
-0.030507999 0.69599998 -0.014643839 5.5426819e-40 295 252
-0.027502786 0.68199998 -0.01434928 6.5574504e-39 297 252
-0.026307013 0.68199998 -0.01434928 1.1718259e-38 298 252
-0.025111238 0.68199998 -0.01434928 1.1902652e-38 299 252
-0.023915464 0.68199998 -0.01434928 1.1810083e-38 300 252
-0.022719691 0.68199998 -0.01434928 1.1717888e-38 301 252
-0.0214608 0.68000001 -0.014307199 1.1718606e-38 302 252
-0.020268533 0.68000001 -0.014307199 1.1718606e-38 303 252
-0.019076265 0.68000001 -0.014307199 1.1902282e-38 304 252
-0.017883999 0.68000001 -0.014307199 1.1902282e-38 305 252
-0.016691733 0.68000001 -0.014307199 1.171969e-38 306 252
-0.015476674 0.67900002 -0.01428616 1.171969e-38 307 252
-0.01428616 0.67900002 -0.01428616 1.1903721e-38 308 252
-0.013095647 0.67900002 -0.01428616 1.1903721e-38 309 252
-0.011887599 0.67799997 -0.014265119 1.2087393e-38 310 252
-0.010698839 0.67799997 -0.014265119 1.2087393e-38 311 252
-0.0095100794 0.67799997 -0.014265119 1.2087749e-38 312 252
-0.0083335936 0.67900002 -0.01428616 1.2179945e-38 313 252
-0.0071325595 0.67799997 -0.014265119 1.2179945e-38 314 252
-0.0059437994 0.67799997 -0.014265119 1.2087749e-38 315 252
-0.0047550397 0.67799997 -0.014265119 1.2271061e-38 316 252
-0.0035662798 0.67799997 -0.014265119 1.2178866e-38 317 252
-0.0023810267 0.67900002 -0.01428616 1.1995553e-38 318 252
-0.0011905134 0.67900002 -0.01428616 1.1995553e-38 319 252
0 0.67799997 -0.014265119 1.1903355e-38 320 252
0.0011887599 0.67799997 -0.014265119 1.1903355e-38 321 252
0.0023810267 0.67900002 -0.01428616 1.1902635e-38 322 252
0.0035715401 0.67900002 -0.01428616 1.2086667e-38 323 252
0.0047620535 0.67900002 -0.01428616 1.1442748e-38 324 252
0.0059525664 0.67900002 -0.01428616 6.095043e-39 325 252
0.0071430802 0.67900002 -0.01428616 1.3069715e-39 326 252
0.0083458666 0.68000001 -0.014307199 2.5055146e-39 327 252
0.0095381327 0.68000001 -0.014307199 5.6347613e-39 328 252
0.0107304 0.68000001 -0.014307199 8.0314889e-39 329 252
0.011922667 0.68000001 -0.014307199 9.6902998e-39 330 252
0.013114933 0.68000001 -0.014307199 1.0704812e-38 331 252
0.01434928 0.68199998 -0.01434928 1.1256539e-38 332 252
0.015545053 0.68199998 -0.01434928 1.1348735e-38 333 252
0.016765373 0.68300003 -0.014370319 1.162424e-38 334 252
0.017962901 0.68300003 -0.014370319 1.1440209e-38 335 252
0.019160427 0.68300003 -0.014370319 1.1256537e-38 336 252
0.020387759 0.68400002 -0.01439136 1.1348732e-38 337 252
0.02158704 0.68400002 -0.01439136 1.1348732e-38 338 252
0.022786319 0.68400002 -0.01439136 1.1348732e-38 339 252
0.024055731 0.68599999 -0.01443344 1.1623512e-38 340 252
0.025295338 0.68699998 -0.014454478 1.1623512e-38 341 252
0.026499879 0.68699998 -0.014454478 1.1713906e-38 342 252
0.027744746 0.68800002 -0.014475521 1.1621709e-38 343 252
0.029035198 0.69 -0.014517599 1.2541868e-38 344 252
0.0303765 0.69300002 -0.014580719 1.3463824e-38 345 252
0.031591557 0.69300002 -0.014580719 1.2450028e-38 346 252
0.032853961 0.69400001 -0.01460176 1.1251485e-38 347 252
0.034168959 0.69599998 -0.014643839 1.0513917e-38 348 252
0.035490975 0.69800001 -0.01468592 1.0790145e-38 349 252
0.036872596 0.70099998 -0.014749039 1.0606466e-38 350 252
0.038210396 0.70300001 -0.014791119 1.051427e-38 351 252
0.039499093 0.704 -0.014812159 1.0422072e-38 352 252
0.040849157 0.70599997 -0.014854239 1.0422072e-38 353 252
0.042087011 0.70599997 -0.014854239 9.9625328e-39 354 252
0.043447599 0.708 -0.01489632 9.6863047e-39 355 252
0.044815198 0.70999998 -0.014938398 1.4199206e-38 356 252
0.046060063 0.70999998 -0.014938398 1.7333857e-38 357 252
-0.054851279 0.71100003 -0.01620606 1.7977069e-38 276 253
-0.053604662 0.71100003 -0.01620606 1.816182e-38 277 253
-0.052358042 0.71100003 -0.01620606 1.696328e-38 278 253
-0.051111419 0.71100003 -0.01620606 1.5672541e-38 279 253
-0.049864799 0.71100003 -0.01620606 1.3738601e-38 280 253
-0.048754938 0.713 -0.016251646 1.3553849e-38 281 253
-0.047504812 0.713 -0.016251646 1.3096841e-38 282 253
-0.046124939 0.71100003 -0.01620606 1.1252568e-38 283 253
-0.044815198 0.70999998 -0.016183265 6.8325716e-39 284 253
-0.043447599 0.708 -0.01613768 9.376088e-42 285 253
-0.042206239 0.708 -0.01613768 9.2412971e-40 286 253
-0.040964879 0.708 -0.01613768 2.0301185e-39 287 253
-0.039162453 0.69800001 -0.015909746 2.213421e-39 288 253
-0.037884273 0.69700003 -0.015886955 2.213421e-39 289 253
-0.036662199 0.69700003 -0.015886955 2.2141343e-39 290 253
-0.035389278 0.69599998 -0.015864158 2.2141343e-39 291 253
-0.034168959 0.69599998 -0.015864158 2.2141343e-39 292 253
-0.032948639 0.69599998 -0.015864158 2.0301031e-39 293 253
-0.031728316 0.69599998 -0.015864158 2.02975e-39 294 253
-0.030507999 0.69599998 -0.015864158 1.1999879e-39 295 253
-0.02869856 0.68199998 -0.015545053 2.558771e-42 296 253
-0.027502786 0.68199998 -0.015545053 4.6148612e-39 297 253
-0.026307013 0.68199998 -0.015545053 8.7723218e-39 298 253
-0.025111238 0.68199998 -0.015545053 1.1076854e-38 299 253
-0.023915464 0.68199998 -0.015545053 1.1810083e-38 300 253
-0.022719691 0.68199998 -0.015545053 1.1533496e-38 301 253
-0.0214608 0.68000001 -0.015499466 1.1625689e-38 302 253
-0.020268533 0.68000001 -0.015499466 1.1718244e-38 303 253
-0.019076265 0.68000001 -0.015499466 1.1993754e-38 304 253
-0.017883999 0.68000001 -0.015499466 1.1993754e-38 305 253
-0.016691733 0.68000001 -0.015499466 1.1902279e-38 306 253
-0.015476674 0.67900002 -0.015476674 1.208667e-38 307 253
-0.01428616 0.67900002 -0.015476674 1.208667e-38 308 253
-0.013095647 0.67900002 -0.015476674 1.2178866e-38 309 253
-0.011887599 0.67799997 -0.015453878 1.1995553e-38 310 253
-0.010698839 0.67799997 -0.015453878 1.2087749e-38 311 253
-0.0095100794 0.67799997 -0.015453878 1.2087749e-38 312 253
-0.0083335936 0.67900002 -0.015476674 1.2087749e-38 313 253
-0.0071325595 0.67799997 -0.015453878 1.2087749e-38 314 253
-0.0059437994 0.67799997 -0.015453878 1.2087749e-38 315 253
-0.0047550397 0.67799997 -0.015453878 1.1995198e-38 316 253
-0.0035662798 0.67799997 -0.015453878 1.1903002e-38 317 253
-0.0023810267 0.67900002 -0.015476674 1.208667e-38 318 253
-0.0011905134 0.67900002 -0.015476674 1.1902279e-38 319 253
0 0.67900002 -0.015476674 1.2086667e-38 320 253
0.0011887599 0.67799997 -0.015453878 1.2086667e-38 321 253
0.0023775198 0.67799997 -0.015453878 1.2271414e-38 322 253
0.0035662798 0.67799997 -0.015453878 1.1810436e-38 323 253
0.0047620535 0.67900002 -0.015476674 1.0427868e-38 324 253
0.0059525664 0.67900002 -0.015476674 1.9458697e-39 325 253
0.0071430802 0.67900002 -0.015476674 1.1098284e-42 326 253
0.0083458666 0.68000001 -0.015499466 1.1098284e-42 327 253
0.0095381327 0.68000001 -0.015499466 1.8385036e-42 328 253
0.0107304 0.68000001 -0.015499466 3.6405734e-42 329 253
0.011922667 0.68000001 -0.015499466 5.6547858e-40 330 253
0.013114933 0.68000001 -0.015499466 3.3313489e-39 331 253
0.01434928 0.68199998 -0.015545053 5.6387423e-39 332 253
0.015545053 0.68199998 -0.015545053 7.6670476e-39 333 253
0.016765373 0.68300003 -0.015567848 1.0612616e-38 334 253
0.017962901 0.68300003 -0.015567848 1.1073593e-38 335 253
0.01918848 0.68400002 -0.01559064 1.1348732e-38 336 253
0.020387759 0.68400002 -0.01559064 1.1256537e-38 337 253
0.02158704 0.68400002 -0.01559064 1.153096e-38 338 253
0.022786319 0.68400002 -0.01559064 1.153096e-38 339 253
0.024055731 0.68599999 -0.015636226 1.1530957e-38 340 253
0.025295338 0.68699998 -0.015659019 1.1623512e-38 341 253
0.026499879 0.68699998 -0.015659019 1.1990133e-38 342 253
0.027744746 0.68800002 -0.015681813 1.1990133e-38 343 253
0.029035198 0.69 -0.015727401 1.2727333e-38 344 253
0.030288832 0.69099998 -0.015750192 1.3003918e-38 345 253
0.031591557 0.69300002 -0.015795778 1.1526991e-38 346 253
0.032853961 0.69400001 -0.015818574 1.0789425e-38 347 253
0.034168959 0.69599998 -0.015864158 1.0606113e-38 348 253
0.035490975 0.69800001 -0.015909746 1.0606113e-38 349 253
0.036872596 0.70099998 -0.015978126 1.051427e-38 350 253
0.038210396 0.70300001 -0.016023712 1.051427e-38 351 253
0.039611302 0.70599997 -0.016092092 1.051427e-38 352 253
0.040849157 0.70599997 -0.016092092 1.0422075e-38 353 253
0.042146627 0.70700002 -0.016114887 1.0054012e-38 354 253
0.043570329 0.70999998 -0.016183265 9.8696197e-39 355 253
0.044815198 0.70999998 -0.016183265 1.4107729e-38 356 253
0.046060063 0.70999998 -0.016183265 1.7242022e-38 357 253
-0.053604662 0.71100003 -0.01745268 1.8161464e-38 277 254
-0.052358042 0.71100003 -0.01745268 1.7055838e-38 278 254
-0.051111419 0.71100003 -0.01745268 1.57651e-38 279 254
-0.049864799 0.71100003 -0.01745268 1.3554568e-38 280 254
-0.048754938 0.713 -0.017501773 1.3554568e-38 281 254
-0.047371563 0.71100003 -0.01745268 1.3280153e-38 282 254
-0.046124939 0.71100003 -0.01745268 1.1344045e-38 283 254
-0.044815198 0.70999998 -0.017428132 7.2910344e-39 284 254
-0.043447599 0.708 -0.017379038 5.60752e-40 285 254
-0.042206239 0.708 -0.017379038 8.3265015e-40 286 254
-0.040964879 0.708 -0.017379038 1.8468035e-39 287 254
-0.039162453 0.69800001 -0.017133573 2.4889261e-39 288 254
-0.037938625 0.69800001 -0.017133573 2.4889261e-39 289 254
-0.036662199 0.69700003 -0.017109027 2.5814748e-39 290 254
-0.035440128 0.69700003 -0.017109027 2.5814748e-39 291 254
-0.034168959 0.69599998 -0.017084479 2.4892792e-39 292 254
-0.032853961 0.69400001 -0.017035386 2.4892792e-39 293 254
-0.031591557 0.69300002 -0.01701084 2.2127007e-39 294 254
-0.0303765 0.69300002 -0.01701084 1.8435595e-39 295 254
-0.029161438 0.69300002 -0.01701084 1.1252427e-42 296 254
-0.027502786 0.68199998 -0.016740825 1.2954654e-39 297 254
-0.026307013 0.68199998 -0.016740825 4.3523335e-39 298 254
-0.025111238 0.68199998 -0.016740825 9.146865e-39 299 254
-0.023915464 0.68199998 -0.016740825 1.1993401e-38 300 254
-0.022653066 0.68000001 -0.016691733 1.1532424e-38 301 254
-0.0214608 0.68000001 -0.016691733 1.1350184e-38 302 254
-0.020268533 0.68000001 -0.016691733 1.144238e-38 303 254
-0.019076265 0.68000001 -0.016691733 1.1534222e-38 304 254
-0.017883999 0.68000001 -0.016691733 1.1534222e-38 305 254
-0.016691733 0.68000001 -0.016691733 1.1534941e-38 306 254
-0.015499466 0.68000001 -0.016691733 1.1534941e-38 307 254
-0.014307199 0.68000001 -0.016691733 1.1719334e-38 308 254
-0.013095647 0.67900002 -0.016667187 1.1719334e-38 309 254
-0.011905133 0.67900002 -0.016667187 1.1903005e-38 310 254
-0.010698839 0.67799997 -0.016642639 1.19952e-38 311 254
-0.0095100794 0.67799997 -0.016642639 1.1903724e-38 312 254
-0.0083335936 0.67900002 -0.016667187 1.1903724e-38 313 254
