# .PCD v.7 - Point Cloud Data file format
FIELDS x y z rgb imX imY
SIZE 4 4 4 4 4 4
TYPE F F F F F F
COUNT 1 1 1 1 1 1
WIDTH 837
HEIGHT 1
VIEWPOINT 0 0 0 1 0 0 0
POINTS 837
DATA ascii
0.0082231332 0.67000002 -0.017620999 1.3797993e-38 327 255
0.0093978662 0.67000002 -0.017620999 1.388947e-38 328 255
0.01054104 0.66799998 -0.017568398 1.388947e-38 329 255
0.011712266 0.66799998 -0.017568398 1.3889473e-38 330 255
0.012883492 0.66799998 -0.017568398 1.3797277e-38 331 255
0.014054719 0.66799998 -0.017568398 1.3797277e-38 332 255
0.015225946 0.66799998 -0.017568398 1.3705082e-38 333 255
0.016397171 0.66799998 -0.017568398 1.3521766e-38 334 255
0.017568398 0.66799998 -0.017568398 1.3521766e-38 335 255
0.018739626 0.66799998 -0.017568398 1.1959861e-38 336 255
0.019910853 0.66799998 -0.017568398 8.6408183e-39 337 255
0.021082079 0.66799998 -0.017568398 1.8392435e-39 338 255
0.022253305 0.66799998 -0.017568398 2.6690041e-39 339 255
0.023494666 0.67000002 -0.017620999 2.1169052e-39 340 255
0.024669399 0.67000002 -0.017620999 2.3012978e-39 341 255
0.025882706 0.671 -0.0176473 8.001567e-39 342 255
0.027059194 0.671 -0.0176473 1.1413164e-38 343 255
0.028235679 0.671 -0.0176473 1.2785649e-38 344 255
0.029455997 0.67199999 -0.017673599 1.2416506e-38 345 255
0.030634239 0.67199999 -0.017673599 1.2140277e-38 346 255
0.031812478 0.67199999 -0.017673599 1.2140277e-38 347 255
0.033088908 0.67400002 -0.0177262 1.1773658e-38 348 255
0.034321502 0.67500001 -0.0177525 1.1773658e-38 349 255
0.035557602 0.676 -0.017778801 1.1772939e-38 350 255
0.036851559 0.67799997 -0.0178314 1.1772939e-38 351 255
0.038152531 0.68000001 -0.017883999 1.1680738e-38 352 255
0.039344799 0.68000001 -0.017883999 1.1680738e-38 353 255
0.040656291 0.68199998 -0.017936599 1.1405946e-38 354 255
0.041852064 0.68199998 -0.017936599 1.1405946e-38 355 255
0.043110959 0.68300003 -0.017962901 1.1130438e-38 356 255
0.04437336 0.68400002 -0.0179892 1.1130438e-38 357 255
0.045772515 0.68699998 -0.018068098 1.0947845e-38 358 255
0.047045439 0.68800002 -0.0180944 1.104004e-38 359 255
0.048391998 0.69 -0.018146999 6.9924331e-39 360 255
0.049817458 0.69300002 -0.018225901 5.1485275e-39 361 255
0.051253434 0.69599998 -0.018304799 8.1902574e-39 362 255
0.052549154 0.69700003 -0.018331099 8.9278225e-39 363 255
0.054234106 0.70300001 -0.018488899 1.0396469e-38 364 255
0.055545598 0.704 -0.018515198 1.0672697e-38 365 255
0.057021905 0.70700002 -0.018594101 1.094821e-38 366 255
0.058343921 0.708 -0.0186204 1.0671984e-38 367 255
0.059837762 0.71100003 -0.0186993 1.0484365e-38 368 255
0.061084379 0.71100003 -0.0186993 1.2973646e-38 369 255
0.062593997 0.71399999 -0.018778199 1.5942634e-38 370 255
0.063845873 0.71399999 -0.018778199 1.898545e-38 371 255
-0.046838548 0.70300001 -0.019721493 1.7794478e-38 282 256
-0.04560595 0.70300001 -0.019721493 1.7978871e-38 283 256
-0.04437336 0.70300001 -0.019721493 1.7882342e-38 284 256
-0.042772565 0.69700003 -0.019553173 1.3087811e-38 285 256
-0.041550495 0.69700003 -0.019553173 1.3901357e-38 286 256
-0.040328421 0.69700003 -0.019553173 1.2887565e-38 287 256
-0.039106347 0.69700003 -0.019553173 1.3894861e-38 288 256
-0.037829921 0.69599998 -0.019525118 1.352608e-38 289 256
-0.036504399 0.69400001 -0.019469013 1.3433157e-38 290 256
-0.035236739 0.69300002 -0.01944096 1.3156571e-38 291 256
-0.033923492 0.69099998 -0.019384852 1.3247328e-38 292 256
-0.032664597 0.69 -0.019356798 1.3062576e-38 293 256
-0.031363625 0.68800002 -0.019300694 1.3154056e-38 294 256
-0.030113498 0.68699998 -0.019272638 1.306186e-38 295 256
-0.028908957 0.68699998 -0.019272638 1.3062226e-38 296 256
-0.027664091 0.68599999 -0.019244585 1.297003e-38 297 256
-0.026461305 0.68599999 -0.019244585 1.3062229e-38 298 256
-0.025184879 0.68400002 -0.01918848 1.2969674e-38 299 256
-0.0239856 0.68400002 -0.01918848 1.2969674e-38 300 256
-0.022719691 0.68199998 -0.019132372 1.2785643e-38 301 256
-0.021523919 0.68199998 -0.019132372 1.2969674e-38 302 256
-0.020268533 0.68000001 -0.019076265 1.2969674e-38 303 256
-0.019076265 0.68000001 -0.019076265 1.2878558e-38 304 256
-0.017883999 0.68000001 -0.019076265 1.2786362e-38 305 256
-0.016691733 0.68000001 -0.019076265 1.296968e-38 306 256
-0.015499466 0.68000001 -0.019076265 1.296968e-38 307 256
-0.014307199 0.68000001 -0.019076265 1.214281e-38 308 256
-0.013114933 0.68000001 -0.019076265 1.0298898e-38 309 256
-0.011922667 0.68000001 -0.019076265 4.4142373e-39 310 256
-0.0107304 0.68000001 -0.019076265 3.584478e-39 311 256
-0.0082844999 0.67500001 -0.018935999 3.5895157e-39 313 256
-0.0071010003 0.67500001 -0.018935999 7.7249759e-39 314 256
-0.0059174998 0.67500001 -0.018935999 1.1136214e-38 315 256
-0.0047269869 0.67400002 -0.018907947 1.3248422e-38 316 256
-0.00353472 0.67199999 -0.018851839 1.2879281e-38 317 256
-0.0023564799 0.67199999 -0.018851839 1.3337735e-38 318 256
-0.0011764866 0.671 -0.018823786 1.3337735e-38 319 256
0 0.671 -0.018823786 1.3521766e-38 320 256
0.0011764866 0.671 -0.018823786 1.3613962e-38 321 256
0.0023529732 0.671 -0.018823786 1.3614315e-38 322 256
0.0035294599 0.671 -0.018823786 1.3798346e-38 323 256
0.0047059464 0.671 -0.018823786 1.388982e-38 324 256
0.0058736666 0.67000002 -0.018795732 1.388982e-38 325 256
0.0070483997 0.67000002 -0.018795732 1.3798346e-38 326 256
0.0082231332 0.67000002 -0.018795732 1.3798346e-38 327 256
0.0093978662 0.67000002 -0.018795732 1.379799e-38 328 256
0.01054104 0.66799998 -0.018739626 1.379799e-38 329 256
0.011712266 0.66799998 -0.018739626 1.3614681e-38 330 256
0.012883492 0.66799998 -0.018739626 1.3614681e-38 331 256
0.014054719 0.66799998 -0.018739626 1.3613606e-38 332 256
0.015225946 0.66799998 -0.018739626 1.3613606e-38 333 256
0.016397171 0.66799998 -0.018739626 1.3614331e-38 334 256
0.017568398 0.66799998 -0.018739626 1.3429581e-38 335 256
0.018739626 0.66799998 -0.018739626 1.067129e-38 336 256
0.019910853 0.66799998 -0.018739626 7.6291929e-39 337 256
0.021082079 0.66799998 -0.018739626 2.2069498e-39 338 256
0.022253305 0.66799998 -0.018739626 2.5760924e-39 339 256
0.023494666 0.67000002 -0.018795732 2.2998517e-39 340 256
0.024669399 0.67000002 -0.018795732 5.2501132e-39 341 256
0.025844134 0.67000002 -0.018795732 1.039433e-38 342 256
0.027059194 0.671 -0.018823786 1.1685069e-38 343 256
0.028235679 0.671 -0.018823786 1.2325391e-38 344 256
0.029412165 0.671 -0.018823786 1.2048444e-38 345 256
0.030634239 0.67199999 -0.018851839 1.1864056e-38 346 256
0.03190716 0.67400002 -0.018907947 1.1956251e-38 347 256
0.033088908 0.67400002 -0.018907947 1.1497075e-38 348 256
0.034321502 0.67500001 -0.018935999 1.1497075e-38 349 256
0.035557602 0.676 -0.018964052 1.1864056e-38 350 256
0.036851559 0.67799997 -0.019020159 1.1956251e-38 351 256
0.038096428 0.67900002 -0.019048214 1.1589977e-38 352 256
0.039286941 0.67900002 -0.019048214 1.1497423e-38 353 256
0.040537067 0.68000001 -0.019076265 1.1405946e-38 354 256
0.041852064 0.68199998 -0.019132372 1.131375e-38 355 256
0.043110959 0.68300003 -0.019160427 1.1130438e-38 356 256
0.04437336 0.68400002 -0.01918848 1.1130438e-38 357 256
0.045772515 0.68699998 -0.019272638 1.0947839e-38 358 256
0.047045439 0.68800002 -0.019300694 1.0947839e-38 359 256
0.048391998 0.69 -0.019356798 7.0839071e-39 360 256
0.049817458 0.69300002 -0.01944096 5.4243927e-39 361 256
0.051253434 0.69599998 -0.019525118 8.3746487e-39 362 256
0.052549154 0.69700003 -0.019553173 9.0200181e-39 363 256
0.054234106 0.70300001 -0.019721493 1.0397189e-38 364 256
0.055545598 0.704 -0.019749546 1.058158e-38 365 256
0.057021905 0.70700002 -0.019833706 1.1224078e-38 366 256
0.058343921 0.708 -0.01986176 1.0763099e-38 367 256
0.059837762 0.71100003 -0.01994592 1.1037538e-38 368 256
0.061084379 0.71100003 -0.01994592 1.4633169e-38 369 256
0.062331002 0.71100003 -0.01994592 1.6405054e-38 370 256
-0.046838548 0.70300001 -0.020954086 1.7701927e-38 282 257
-0.04560595 0.70300001 -0.020954086 1.7978874e-38 283 257
-0.04437336 0.70300001 -0.020954086 1.8068173e-38 284 257
-0.042833932 0.69800001 -0.020805053 1.327436e-38 285 257
-0.041610107 0.69800001 -0.020805053 1.3902794e-38 286 257
-0.040328421 0.69700003 -0.020775247 1.2980477e-38 287 257
-0.039106347 0.69700003 -0.020775247 1.389558e-38 288 257
-0.037829921 0.69599998 -0.020745439 1.3526799e-38 289 257
-0.036504399 0.69400001 -0.020685827 1.3525355e-38 290 257
-0.035236739 0.69300002 -0.020656019 1.324877e-38 291 257
-0.033923492 0.69099998 -0.020596405 1.3339523e-38 292 257
-0.032664597 0.69 -0.020566599 1.3154772e-38 293 257
-0.031363625 0.68800002 -0.020506985 1.3154053e-38 294 257
-0.030113498 0.68699998 -0.020477179 1.3338443e-38 295 257
-0.028908957 0.68699998 -0.020477179 1.2878911e-38 296 257
-0.027704418 0.68699998 -0.020477179 1.2786715e-38 297 257
-0.026461305 0.68599999 -0.020447372 1.2969312e-38 298 257
-0.025258519 0.68599999 -0.020447372 1.2969312e-38 299 257
-0.0239856 0.68400002 -0.020387759 1.2785999e-38 300 257
-0.022719691 0.68199998 -0.020328145 1.2785999e-38 301 257
-0.021523919 0.68199998 -0.020328145 1.297003e-38 302 257
-0.020268533 0.68000001 -0.020268533 1.297003e-38 303 257
-0.019076265 0.68000001 -0.020268533 1.297003e-38 304 257
-0.017883999 0.68000001 -0.020268533 1.2785999e-38 305 257
-0.016691733 0.68000001 -0.020268533 1.2785643e-38 306 257
-0.015499466 0.68000001 -0.020268533 1.2785643e-38 307 257
-0.014307199 0.68000001 -0.020268533 1.0118106e-38 308 257
-0.013153506 0.68199998 -0.020328145 7.9050511e-39 309 257
-0.011957732 0.68199998 -0.020328145 2.0218229e-39 310 257
-0.0082844999 0.67500001 -0.020119499 5.527049e-39 313 257
-0.0071010003 0.67500001 -0.020119499 1.1038981e-38 314 257
-0.0059174998 0.67500001 -0.020119499 1.251447e-38 315 257
-0.0047269869 0.67400002 -0.020089693 1.333882e-38 316 257
-0.00354524 0.67400002 -0.020089693 1.315407e-38 317 257
-0.0023564799 0.67199999 -0.020030079 1.3153706e-38 318 257
-0.0011782399 0.67199999 -0.020030079 1.3337738e-38 319 257
0 0.671 -0.020000271 1.3612883e-38 320 257
0.0011764866 0.671 -0.020000271 1.3705079e-38 321 257
0.0023529732 0.671 -0.020000271 1.3705432e-38 322 257
0.0035294599 0.671 -0.020000271 1.3797627e-38 323 257
0.0047059464 0.671 -0.020000271 1.3797625e-38 324 257
0.0058736666 0.67000002 -0.019970467 1.3797625e-38 325 257
0.0070483997 0.67000002 -0.019970467 1.3797627e-38 326 257
0.0082231332 0.67000002 -0.019970467 1.3797627e-38 327 257
0.0093978662 0.67000002 -0.019970467 1.3613959e-38 328 257
0.0105726 0.67000002 -0.019970467 1.379799e-38 329 257
0.011712266 0.66799998 -0.019910853 1.3614678e-38 330 257
0.012883492 0.66799998 -0.019910853 1.3522483e-38 331 257
0.014054719 0.66799998 -0.019910853 1.3522485e-38 332 257
0.015225946 0.66799998 -0.019910853 1.3522485e-38 333 257
0.016397171 0.66799998 -0.019910853 1.3522135e-38 334 257
0.017568398 0.66799998 -0.019910853 1.3061157e-38 335 257
0.018739626 0.66799998 -0.019910853 9.1994067e-39 336 257
0.019910853 0.66799998 -0.019910853 6.6179291e-39 337 257
0.0211452 0.67000002 -0.019970467 2.2991426e-39 338 257
0.022319933 0.67000002 -0.019970467 2.391697e-39 339 257
0.023494666 0.67000002 -0.019970467 2.6704138e-39 340 257
0.024669399 0.67000002 -0.019970467 7.2801953e-39 341 257
0.025844134 0.67000002 -0.019970467 1.1868369e-38 342 257
0.027059194 0.671 -0.020000271 1.1592142e-38 343 257
0.028235679 0.671 -0.020000271 1.1865485e-38 344 257
0.029412165 0.671 -0.020000271 1.1588539e-38 345 257
0.030634239 0.67199999 -0.020030079 1.1588545e-38 346 257
0.03190716 0.67400002 -0.020089693 1.1495989e-38 347 257
0.033088908 0.67400002 -0.020089693 1.1312683e-38 348 257
0.034321502 0.67500001 -0.020119499 1.1312683e-38 349 257
0.035557602 0.676 -0.020149305 1.1404874e-38 350 257
0.036851559 0.67799997 -0.020208918 1.1497428e-38 351 257
0.038096428 0.67900002 -0.020238725 1.1405946e-38 352 257
0.039286941 0.67900002 -0.020238725 1.1405946e-38 353 257
0.040537067 0.68000001 -0.020268533 1.1222631e-38 354 257
0.041852064 0.68199998 -0.020328145 1.1222631e-38 355 257
0.043110959 0.68300003 -0.020357953 1.1222634e-38 356 257
0.04437336 0.68400002 -0.020387759 1.1130438e-38 357 257
0.045772515 0.68699998 -0.020477179 1.0947123e-38 358 257
0.047045439 0.68800002 -0.020506985 1.0947123e-38 359 257
0.048391998 0.69 -0.020566599 7.3597737e-39 360 257
0.049817458 0.69300002 -0.020656019 5.7920934e-39 361 257
0.051400717 0.69800001 -0.020805053 8.6505125e-39 362 257
0.052624546 0.69800001 -0.020805053 9.2958819e-39 363 257
0.054311249 0.704 -0.020983893 1.0489385e-38 364 257
0.055703394 0.70599997 -0.021043506 1.0673776e-38 365 257
0.057021905 0.70700002 -0.021073313 1.1225153e-38 366 257
0.05826151 0.70700002 -0.021073313 1.0671981e-38 367 257
0.059837762 0.71100003 -0.021192541 1.1408112e-38 368 257
0.061256204 0.713 -0.021252153 1.5649471e-38 369 257
0.062593997 0.71399999 -0.021281958 1.677455e-38 370 257
0.064024724 0.71600002 -0.021341572 1.8618463e-38 371 257
-0.04560595 0.70300001 -0.02218668 1.7886322e-38 283 258
-0.04437336 0.70300001 -0.02218668 1.8253286e-38 284 258
-0.042956665 0.69999999 -0.022091998 1.4104843e-38 285 258
-0.041610107 0.69800001 -0.02202888 1.4272655e-38 286 258
-0.040386278 0.69800001 -0.02202888 1.2797165e-38 287 258
-0.039162453 0.69800001 -0.02202888 1.3897379e-38 288 258
-0.037884273 0.69700003 -0.02199732 1.3528596e-38 289 258
-0.036609598 0.69599998 -0.021965759 1.3433884e-38 290 258
-0.035287585 0.69400001 -0.021902639 1.3249491e-38 291 258
-0.033923492 0.69099998 -0.021807959 1.3431363e-38 292 258
-0.032711938 0.69099998 -0.021807959 1.3246972e-38 293 258
-0.031363625 0.68800002 -0.021713281 1.3154772e-38 294 258
-0.030113498 0.68699998 -0.021681719 1.3062576e-38 295 258
-0.028908957 0.68699998 -0.021681719 1.2878911e-38 296 258
-0.027704418 0.68699998 -0.021681719 1.2786715e-38 297 258
-0.026499879 0.68699998 -0.021681719 1.297003e-38 298 258
-0.025258519 0.68599999 -0.021650158 1.297003e-38 299 258
-0.0239856 0.68400002 -0.02158704 1.2785999e-38 300 258
-0.022753006 0.68300003 -0.02155548 1.2785999e-38 301 258
-0.021523919 0.68199998 -0.021523919 1.297003e-38 302 258
-0.020268533 0.68000001 -0.0214608 1.2785999e-38 303 258
-0.019076265 0.68000001 -0.0214608 1.2969312e-38 304 258
-0.017883999 0.68000001 -0.0214608 1.2969312e-38 305 258
-0.016691733 0.68000001 -0.0214608 1.2879281e-38 306 258
-0.015499466 0.68000001 -0.0214608 1.1957683e-38 307 258
-0.014307199 0.68000001 -0.0214608 6.2502185e-39 308 258
-0.011922667 0.68000001 -0.0214608 2.3898935e-39 310 258
-0.0071010003 0.67500001 -0.021303 1.278853e-38 314 258
-0.0059174998 0.67500001 -0.021303 1.278853e-38 315 258
-0.0047269869 0.67400002 -0.021271439 1.3154426e-38 316 258
-0.00353472 0.67199999 -0.021208318 1.3062229e-38 317 258
-0.0023564799 0.67199999 -0.021208318 1.3337015e-38 318 258
-0.0011764866 0.671 -0.021176759 1.3429571e-38 319 258
0 0.671 -0.021176759 1.3520686e-38 320 258
0.0011764866 0.671 -0.021176759 1.3612883e-38 321 258
0.0023529732 0.671 -0.021176759 1.3521766e-38 322 258
0.0035294599 0.671 -0.021176759 1.3521766e-38 323 258
0.0047059464 0.671 -0.021176759 1.3705076e-38 324 258
0.0058824331 0.671 -0.021176759 1.3705076e-38 325 258
0.0070483997 0.67000002 -0.0211452 1.3521761e-38 326 258
0.0082231332 0.67000002 -0.0211452 1.3521761e-38 327 258
0.0093978662 0.67000002 -0.0211452 1.3521761e-38 328 258
0.0105726 0.67000002 -0.0211452 1.3614315e-38 329 258
0.011712266 0.66799998 -0.021082079 1.3613959e-38 330 258
0.012883492 0.66799998 -0.021082079 1.379799e-38 331 258
0.014054719 0.66799998 -0.021082079 1.3522485e-38 332 258
0.015225946 0.66799998 -0.021082079 1.343029e-38 333 258
0.016397171 0.66799998 -0.021082079 1.3431384e-38 334 258
0.017620999 0.67000002 -0.0211452 1.2509069e-38 335 258
0.018795732 0.67000002 -0.0211452 6.8984774e-39 336 258
0.019970467 0.67000002 -0.0211452 5.0545648e-39 337 258
0.0211452 0.67000002 -0.0211452 3.124946e-39 338 258
0.022319933 0.67000002 -0.0211452 3.2171417e-39 339 258
0.023494666 0.67000002 -0.0211452 5.7049565e-39 340 258
0.024669399 0.67000002 -0.0211452 9.66937e-39 341 258
0.025844134 0.67000002 -0.0211452 1.2236428e-38 342 258
0.027018867 0.67000002 -0.0211452 1.1591059e-38 343 258
0.028235679 0.671 -0.021176759 1.1588539e-38 344 258
0.029412165 0.671 -0.021176759 1.1496342e-38 345 258
0.030634239 0.67199999 -0.021208318 1.1312677e-38 346 258
0.03190716 0.67400002 -0.021271439 1.1220481e-38 347 258
0.033088908 0.67400002 -0.021271439 1.1220481e-38 348 258
0.034321502 0.67500001 -0.021303 1.1220481e-38 349 258
0.035557602 0.676 -0.021334561 1.1313033e-38 350 258
0.036851559 0.67799997 -0.021397678 1.140523e-38 351 258
0.038040318 0.67799997 -0.021397678 1.1405946e-38 352 258
0.039286941 0.67900002 -0.021429239 1.1405946e-38 353 258
0.040477451 0.67900002 -0.021429239 1.1130801e-38 354 258
0.041852064 0.68199998 -0.021523919 1.1130801e-38 355 258
0.043110959 0.68300003 -0.02155548 1.0947489e-38 356 258
0.044567976 0.68699998 -0.021681719 1.0855293e-38 357 258
0.045772515 0.68699998 -0.021681719 1.1130438e-38 358 258
0.046977058 0.68699998 -0.021681719 1.1222634e-38 359 258
0.048391998 0.69 -0.021776399 7.8182309e-39 360 258
0.049817458 0.69300002 -0.021871079 6.3427477e-39 361 258
0.051400717 0.69800001 -0.02202888 9.3859139e-39 362 258
0.052850723 0.70099998 -0.022123558 9.938729e-39 363 258
0.054311249 0.704 -0.022218239 1.0857447e-38 364 258
0.055703394 0.70599997 -0.022281358 1.1225871e-38 365 258
0.056941248 0.70599997 -0.022281358 1.1319151e-38 366 258
0.058179103 0.70599997 -0.022281358 1.1134401e-38 367 258
0.060006075 0.713 -0.022502279 1.2148201e-38 368 258
0.061256204 0.713 -0.022502279 1.6481397e-38 369 258
0.062593997 0.71399999 -0.022533838 1.6867832e-38 370 258
0.064024724 0.71600002 -0.022596961 1.8342962e-38 371 258
0.06528011 0.71600002 -0.022596961 1.705656e-38 372 258
-0.045670826 0.704 -0.023452586 1.7978518e-38 283 259
-0.04437336 0.70300001 -0.023419274 1.8071417e-38 284 259
-0.043018032 0.70099998 -0.023352645 1.4844929e-38 285 259
-0.041610107 0.69800001 -0.023252707 1.4734348e-38 286 259
-0.040386278 0.69800001 -0.023252707 1.2890437e-38 287 259
-0.039162453 0.69800001 -0.023252707 1.4265438e-38 288 259
-0.037884273 0.69700003 -0.023219392 1.3712265e-38 289 259
-0.036609598 0.69599998 -0.023186078 1.389306e-38 290 259
-0.035287585 0.69400001 -0.023119451 1.3524636e-38 291 259
-0.034021679 0.69300002 -0.02308614 1.3432072e-38 292 259
-0.032711938 0.69099998 -0.023019511 1.3339518e-38 293 259
-0.031500384 0.69099998 -0.023019511 1.3247322e-38 294 259
-0.030113498 0.68699998 -0.022886258 1.3155125e-38 295 259
-0.028908957 0.68699998 -0.022886258 1.2879267e-38 296 259
-0.027704418 0.68699998 -0.022886258 1.2786713e-38 297 259
-0.026499879 0.68699998 -0.022886258 1.2786715e-38 298 259
-0.025258519 0.68599999 -0.022852944 1.2786715e-38 299 259
-0.0239856 0.68400002 -0.022786319 1.2785996e-38 300 259
-0.022753006 0.68300003 -0.022753006 1.2785996e-38 301 259
-0.021523919 0.68199998 -0.022719691 1.2785999e-38 302 259
-0.020268533 0.68000001 -0.022653066 1.2785999e-38 303 259
-0.019076265 0.68000001 -0.022653066 1.2693804e-38 304 259
-0.017883999 0.68000001 -0.022653066 1.297003e-38 305 259
-0.016691733 0.68000001 -0.022653066 1.1958413e-38 306 259
-0.015499466 0.68000001 -0.022653066 1.0668033e-38 307 259
-0.014307199 0.68000001 -0.022653066 3.9503753e-39 308 259
-0.011887599 0.67799997 -0.022586439 2.2998517e-39 310 259
-0.0094820261 0.676 -0.022519812 8.6444182e-39 312 259
-0.0082967728 0.676 -0.022519812 1.1594677e-38 313 259
-0.0071010003 0.67500001 -0.022486499 1.3156943e-38 314 259
-0.0059174998 0.67500001 -0.022486499 1.2695966e-38 315 259
-0.0047269869 0.67400002 -0.022453187 1.2971463e-38 316 259
-0.00353472 0.67199999 -0.022386558 1.2971463e-38 317 259
-0.0023564799 0.67199999 -0.022386558 1.3338087e-38 318 259
-0.0011764866 0.671 -0.022353247 1.3338087e-38 319 259
0 0.671 -0.022353247 1.3429564e-38 320 259
0.0011764866 0.671 -0.022353247 1.3429564e-38 321 259
0.0023529732 0.671 -0.022353247 1.3612527e-38 322 259
0.0035294599 0.671 -0.022353247 1.3612527e-38 323 259
0.0047059464 0.671 -0.022353247 1.3521411e-38 324 259
0.0058736666 0.67000002 -0.022319933 1.3521411e-38 325 259
0.0070483997 0.67000002 -0.022319933 1.3612883e-38 326 259
0.0082231332 0.67000002 -0.022319933 1.3612883e-38 327 259
0.0093698129 0.66799998 -0.022253305 1.343029e-38 328 259
0.01054104 0.66799998 -0.022253305 1.3522485e-38 329 259
0.011712266 0.66799998 -0.022253305 1.3614681e-38 330 259
0.012883492 0.66799998 -0.022253305 1.3522485e-38 331 259
0.014054719 0.66799998 -0.022253305 1.3431369e-38 332 259
0.015225946 0.66799998 -0.022253305 1.3246619e-38 333 259
0.016446266 0.67000002 -0.022319933 1.2880728e-38 334 259
0.017620999 0.67000002 -0.022319933 1.1682185e-38 335 259
0.018795732 0.67000002 -0.022319933 5.1492842e-39 336 259
0.019970467 0.67000002 -0.022319933 3.950741e-39 337 259
0.0211452 0.67000002 -0.022319933 2.57644e-39 338 259
0.022319933 0.67000002 -0.022319933 3.8671788e-39 339 259
0.023424532 0.66799998 -0.022253305 8.4625437e-39 340 259
0.02459576 0.66799998 -0.022253305 1.1136217e-38 341 259
0.025766984 0.66799998 -0.022253305 1.2050968e-38 342 259
0.027018867 0.67000002 -0.022319933 1.1405598e-38 343 259
0.028235679 0.671 -0.022353247 1.1496345e-38 344 259
0.029412165 0.671 -0.022353247 1.1312314e-38 345 259
0.030634239 0.67199999 -0.022386558 1.0944973e-38 346 259
0.031812478 0.67199999 -0.022386558 1.0944973e-38 347 259
0.033088908 0.67400002 -0.022453187 1.1220484e-38 348 259
0.034270655 0.67400002 -0.022453187 1.1220484e-38 349 259
0.035557602 0.676 -0.022519812 1.1129365e-38 350 259
0.036851559 0.67799997 -0.022586439 1.1313397e-38 351 259
0.038040318 0.67799997 -0.022586439 1.1313753e-38 352 259
0.039286941 0.67900002 -0.022619752 1.1405949e-38 353 259
0.040477451 0.67900002 -0.022619752 1.1130801e-38 354 259
0.041852064 0.68199998 -0.022719691 1.1130801e-38 355 259
0.043110959 0.68300003 -0.022753006 1.094677e-38 356 259
0.044567976 0.68699998 -0.022886258 1.1130801e-38 357 259
0.045772515 0.68699998 -0.022886258 1.1130788e-38 358 259
0.046977058 0.68699998 -0.022886258 1.0946396e-38 359 259
0.048391998 0.69 -0.022986198 7.8185784e-39 360 259
0.049817458 0.69300002 -0.02308614 6.0672412e-39 361 259
0.051547997 0.69999999 -0.023319334 9.7543363e-39 362 259
0.053076904 0.704 -0.023452586 1.0399706e-38 363 259
0.054465543 0.70599997 -0.023519212 1.1041841e-38 364 259
0.055703394 0.70599997 -0.023519212 1.150246e-38 365 259
0.056941248 0.70599997 -0.023519212 1.159538e-38 366 259
0.058179103 0.70599997 -0.023519212 1.159538e-38 367 259
0.059837762 0.71100003 -0.023685781 1.2887934e-38 368 259
0.061256204 0.713 -0.023752406 1.7589911e-38 369 259
0.062593997 0.71399999 -0.02378572 1.7144068e-38 370 259
0.063845873 0.71399999 -0.02378572 1.8342612e-38 371 259
0.065097757 0.71399999 -0.02378572 1.7148756e-38 372 259
-0.045670826 0.704 -0.024686933 1.7978521e-38 283 260
-0.044436477 0.704 -0.024686933 1.8071422e-38 284 260
-0.043140765 0.70300001 -0.024651866 1.5766172e-38 285 260
-0.041729331 0.69999999 -0.024546666 1.5660268e-38 286 260
-0.040386278 0.69800001 -0.024476532 1.2617811e-38 287 260
-0.039162453 0.69800001 -0.024476532 1.4449834e-38 288 260
-0.037938625 0.69800001 -0.024476532 1.389666e-38 289 260
-0.036662199 0.69700003 -0.024441468 1.3711193e-38 290 260
-0.035287585 0.69400001 -0.024336265 1.3434606e-38 291 260
-0.034021679 0.69300002 -0.024301201 1.3342407e-38 292 260
-0.032711938 0.69099998 -0.024231065 1.2881429e-38 293 260
-0.031500384 0.69099998 -0.024231065 1.3156574e-38 294 260
-0.030244999 0.69 -0.024195999 1.2972183e-38 295 260
-0.028951041 0.68800002 -0.024125867 1.2879631e-38 296 260
-0.027704418 0.68699998 -0.024090799 1.2787434e-38 297 260
-0.026499879 0.68699998 -0.024090799 1.2878911e-38 298 260
-0.025258519 0.68599999 -0.024055731 1.2786715e-38 299 260
-0.024055731 0.68599999 -0.024055731 1.2786713e-38 300 260
-0.022753006 0.68300003 -0.023950534 1.2786713e-38 301 260
-0.021523919 0.68199998 -0.023915464 1.3061504e-38 302 260
-0.020328145 0.68199998 -0.023915464 1.3061504e-38 303 260
-0.019076265 0.68000001 -0.023845334 1.2970405e-38 304 260
-0.017883999 0.68000001 -0.023845334 1.3339186e-38 305 260
-0.016691733 0.68000001 -0.023845334 9.1954424e-39 306 260
-0.015499466 0.68000001 -0.023845334 6.7983575e-39 307 260
-0.010698839 0.67799997 -0.023775198 5.9865853e-39 311 260
-0.0094820261 0.676 -0.023705067 1.2328276e-38 312 260
-0.0082967728 0.676 -0.023705067 1.2512669e-38 313 260
-0.0071010003 0.67500001 -0.023669999 1.2879281e-38 314 260
-0.0059174998 0.67500001 -0.023669999 1.2787084e-38 315 260
-0.0047339997 0.67500001 -0.023669999 1.2971111e-38 316 260
-0.00354524 0.67400002 -0.023634933 1.2971111e-38 317 260
-0.0023564799 0.67199999 -0.023564799 1.3246975e-38 318 260
-0.0011764866 0.671 -0.023529733 1.3246975e-38 319 260
0 0.671 -0.023529733 1.3429568e-38 320 260
0.0011764866 0.671 -0.023529733 1.3429568e-38 321 260
0.0023529732 0.671 -0.023529733 1.3612527e-38 322 260
0.0035294599 0.671 -0.023529733 1.3705082e-38 323 260
0.0047059464 0.671 -0.023529733 1.3521411e-38 324 260
0.0058736666 0.67000002 -0.023494666 1.3521411e-38 325 260
0.0070483997 0.67000002 -0.023494666 1.3521411e-38 326 260
0.0082231332 0.67000002 -0.023494666 1.3521411e-38 327 260
0.0093698129 0.66799998 -0.023424532 1.3522129e-38 328 260
0.01054104 0.66799998 -0.023424532 1.3522129e-38 329 260
0.011712266 0.66799998 -0.023424532 1.3431016e-38 330 260
0.012864206 0.667 -0.023389466 1.3431016e-38 331 260
0.014033679 0.667 -0.023389466 1.343066e-38 332 260
0.015203152 0.667 -0.023389466 1.3246268e-38 333 260
0.016397171 0.66799998 -0.023424532 1.2327926e-38 334 260
0.017620999 0.67000002 -0.023494666 1.057621e-38 335 260
0.018795732 0.67000002 -0.023494666 3.768512e-39 336 260
0.019970467 0.67000002 -0.023494666 3.4922838e-39 337 260
0.021082079 0.66799998 -0.023424532 1.4740385e-39 338 260
0.022253305 0.66799998 -0.023424532 4.332103e-39 339 260
0.023424532 0.66799998 -0.023424532 9.8415125e-39 340 260
0.02459576 0.66799998 -0.023424532 1.1316644e-38 341 260
0.025766984 0.66799998 -0.023424532 1.158999e-38 342 260
0.027018867 0.67000002 -0.023494666 1.1129012e-38 343 260
0.028235679 0.671 -0.023529733 1.1403077e-38 344 260
0.029412165 0.671 -0.023529733 1.1495273e-38 345 260
0.030588651 0.671 -0.023529733 1.0944973e-38 346 260
0.031812478 0.67199999 -0.023564799 1.0944973e-38 347 260
0.033088908 0.67400002 -0.023634933 1.1220481e-38 348 260
0.034270655 0.67400002 -0.023634933 1.1312677e-38 349 260
0.035557602 0.676 -0.023705067 1.1129721e-38 350 260
0.036851559 0.67799997 -0.023775198 1.1405949e-38 351 260
0.038040318 0.67799997 -0.023775198 1.1223353e-38 352 260
0.039286941 0.67900002 -0.023810266 1.1131157e-38 353 260
0.040477451 0.67900002 -0.023810266 1.1130801e-38 354 260
0.041852064 0.68199998 -0.023915464 1.1223355e-38 355 260
0.043110959 0.68300003 -0.023950534 1.1130804e-38 356 260
0.044567976 0.68699998 -0.024090799 1.1130804e-38 357 260
0.045772515 0.68699998 -0.024090799 1.1130085e-38 358 260
0.047045439 0.68800002 -0.024125867 1.1407031e-38 359 260
0.048391998 0.69 -0.024195999 7.5441691e-39 360 260
0.050392549 0.70099998 -0.024581732 6.0686789e-39 361 260
0.051621638 0.70099998 -0.024581732 9.9394534e-39 362 260
0.053227689 0.70599997 -0.024757065 1.0308236e-38 363 260
0.054542694 0.70700002 -0.024792133 1.1317713e-38 364 260
0.055703394 0.70599997 -0.024757065 1.1686854e-38 365 260
0.056941248 0.70599997 -0.024757065 1.187484e-38 366 260
0.058343921 0.708 -0.024827199 1.1137274e-38 367 260
0.059753593 0.70999998 -0.024897331 1.3536898e-38 368 260
0.061084379 0.71100003 -0.024932399 1.8792049e-38 369 260
0.062593997 0.71399999 -0.025037598 1.7606847e-38 370 260
0.063845873 0.71399999 -0.025037598 1.779124e-38 371 260
-0.044183996 0.69999999 -0.025773998 1.8070343e-38 284 261
-0.042956665 0.69999999 -0.025773998 1.6779605e-38 285 261
-0.041729331 0.69999999 -0.025773998 1.6401073e-38 286 261
-0.040386278 0.69800001 -0.025700359 1.225227e-38 287 261
-0.039162453 0.69800001 -0.025700359 1.4359433e-38 288 261
-0.037938625 0.69800001 -0.025700359 1.3990291e-38 289 261
-0.036662199 0.69700003 -0.025663542 1.398813e-38 290 261
-0.035440128 0.69700003 -0.025663542 1.3527152e-38 291 261
-0.034021679 0.69300002 -0.02551626 1.334276e-38 292 261
-0.03280662 0.69300002 -0.02551626 1.2973978e-38 293 261
-0.031500384 0.69099998 -0.025442619 1.3156571e-38 294 261
-0.030288832 0.69099998 -0.025442619 1.3064376e-38 295 261
-0.029035198 0.69 -0.025405798 1.297146e-38 296 261
-0.027744746 0.68800002 -0.02533216 1.2879264e-38 297 261
-0.026499879 0.68699998 -0.025295338 1.3062576e-38 298 261
-0.025295338 0.68699998 -0.025295338 1.2970381e-38 299 261
-0.024055731 0.68599999 -0.025258519 1.2970378e-38 300 261
-0.022786319 0.68400002 -0.025184879 1.2970378e-38 301 261
-0.02155548 0.68300003 -0.02514806 1.2786713e-38 302 261
-0.020328145 0.68199998 -0.025111238 1.2786713e-38 303 261
-0.019076265 0.68000001 -0.025037598 1.2510148e-38 304 261
-0.017883999 0.68000001 -0.025037598 1.2233561e-38 305 261
-0.016691733 0.68000001 -0.025037598 6.9874375e-39 306 261
-0.015499466 0.68000001 -0.025037598 4.7754584e-39 307 261
-0.013037786 0.676 -0.024890319 3.3114869e-39 309 261
-0.010698839 0.67799997 -0.024963958 9.5699675e-39 311 261
-0.0094820261 0.676 -0.024890319 1.2697041e-38 312 261
-0.0082967728 0.676 -0.024890319 1.2420454e-38 313 261
-0.0071010003 0.67500001 -0.0248535 1.2879634e-38 314 261
-0.0059174998 0.67500001 -0.0248535 1.297183e-38 315 261
-0.0047339997 0.67500001 -0.0248535 1.3154423e-38 316 261
-0.00354524 0.67400002 -0.024816679 1.3246619e-38 317 261
-0.0023564799 0.67199999 -0.024743039 1.3246972e-38 318 261
-0.0011764866 0.671 -0.024706218 1.3246972e-38 319 261
0 0.671 -0.024706218 1.343029e-38 320 261
0.0011764866 0.671 -0.024706218 1.343029e-38 321 261
0.0023529732 0.671 -0.024706218 1.3521411e-38 322 261
0.0035294599 0.671 -0.024706218 1.3521411e-38 323 261
0.0047059464 0.671 -0.024706218 1.3429937e-38 324 261
0.0058736666 0.67000002 -0.024669399 1.3429937e-38 325 261
0.0070483997 0.67000002 -0.024669399 1.3429937e-38 326 261
0.0081985854 0.66799998 -0.02459576 1.3429937e-38 327 261
0.0093698129 0.66799998 -0.02459576 1.333882e-38 328 261
0.01054104 0.66799998 -0.02459576 1.3431016e-38 329 261
0.011694733 0.667 -0.024558939 1.3155871e-38 330 261
0.012864206 0.667 -0.024558939 1.3155871e-38 331 261
0.014033679 0.667 -0.024558939 1.3063675e-38 332 261
0.015203152 0.667 -0.024558939 1.3063675e-38 333 261
0.016397171 0.66799998 -0.02459576 1.0856753e-38 334 261
0.017620999 0.67000002 -0.024669399 9.0132008e-39 335 261
0.018795732 0.67000002 -0.024669399 2.7575998e-39 336 261
0.019910853 0.66799998 -0.02459576 2.4813731e-39 337 261
0.021082079 0.66799998 -0.02459576 1.4758335e-39 338 261
0.022253305 0.66799998 -0.02459576 4.7026806e-39 339 261
0.023424532 0.66799998 -0.02459576 1.1037885e-38 340 261
0.02459576 0.66799998 -0.02459576 1.1222636e-38 341 261
0.025844134 0.67000002 -0.024669399 1.1130082e-38 342 261
0.027018867 0.67000002 -0.024669399 1.1037885e-38 343 261
0.028193599 0.67000002 -0.024669399 1.1311958e-38 344 261
0.029412165 0.671 -0.024706218 1.1219762e-38 345 261
0.030588651 0.671 -0.024706218 1.0944973e-38 346 261
0.031812478 0.67199999 -0.024743039 1.0944973e-38 347 261
0.033088908 0.67400002 -0.024816679 1.1220481e-38 348 261
0.034321502 0.67500001 -0.0248535 1.1312677e-38 349 261
0.035557602 0.676 -0.024890319 1.131375e-38 350 261
0.036851559 0.67799997 -0.024963958 1.1405946e-38 351 261
0.038040318 0.67799997 -0.024963958 1.122335e-38 352 261
0.039286941 0.67900002 -0.025000781 1.122335e-38 353 261
0.040656291 0.68199998 -0.025111238 1.1223353e-38 354 261
0.041913435 0.68300003 -0.02514806 1.1223353e-38 355 261
0.043110959 0.68300003 -0.02514806 1.1223353e-38 356 261
0.044567976 0.68699998 -0.025295338 1.1223353e-38 357 261
0.045839146 0.68800002 -0.02533216 1.1131507e-38 358 261
0.047045439 0.68800002 -0.02533216 1.1223703e-38 359 261
0.048602402 0.69300002 -0.02551626 7.5441635e-39 360 261
0.050320663 0.69999999 -0.025773998 6.7144015e-39 361 261
0.051547997 0.69999999 -0.025773998 1.0216406e-38 362 261
0.053227689 0.70599997 -0.025994917 1.076958e-38 363 261
0.054542694 0.70700002 -0.02603174 1.159538e-38 364 261
0.055703394 0.70599997 -0.025994917 1.1964164e-38 365 261
0.056941248 0.70599997 -0.025994917 1.1875562e-38 366 261
0.058179103 0.70599997 -0.025994917 1.2244344e-38 367 261
0.059753593 0.70999998 -0.026142199 1.4277703e-38 368 261
0.061084379 0.71100003 -0.026179021 1.9625049e-38 369 261
0.062331002 0.71100003 -0.026179021 1.7791959e-38 370 261
-0.042833932 0.69800001 -0.026924185 1.7701564e-38 285 262
-0.040386278 0.69800001 -0.026924185 1.2253715e-38 287 262
-0.039162453 0.69800001 -0.026924185 1.4083572e-38 288 262
-0.037938625 0.69800001 -0.026924185 1.389918e-38 289 262
-0.036662199 0.69700003 -0.026885614 1.3897382e-38 290 262
-0.035440128 0.69700003 -0.026885614 1.3436404e-38 291 262
-0.034021679 0.69300002 -0.02673132 1.3343489e-38 292 262
-0.03280662 0.69300002 -0.02673132 1.3158739e-38 293 262
-0.031500384 0.69099998 -0.026654173 1.3249491e-38 294 262
-0.030288832 0.69099998 -0.026654173 1.3064741e-38 295 262
-0.029077278 0.69099998 -0.026654173 1.2971827e-38 296 262
-0.027744746 0.68800002 -0.026538454 1.2787434e-38 297 262
-0.026538454 0.68800002 -0.026538454 1.2970384e-38 298 262
-0.025295338 0.68699998 -0.026499879 1.2970384e-38 299 262
-0.024090799 0.68699998 -0.026499879 1.3062579e-38 300 262
-0.022786319 0.68400002 -0.02638416 1.2970384e-38 301 262
-0.02158704 0.68400002 -0.02638416 1.2786715e-38 302 262
-0.020328145 0.68199998 -0.026307013 1.2878911e-38 303 262
-0.019132372 0.68199998 -0.026307013 1.1314126e-38 304 262
-0.017883999 0.68000001 -0.026229866 9.8389958e-39 305 262
-0.016691733 0.68000001 -0.026229866 4.5031931e-39 306 262
-0.015499466 0.68000001 -0.026229866 3.3060849e-39 307 262
-0.013037786 0.676 -0.026075572 4.4160324e-39 309 262
-0.011852534 0.676 -0.026075572 1.0393967e-38 310 262
-0.01066728 0.676 -0.026075572 1.1776902e-38 311 262
-0.0094820261 0.676 -0.026075572 1.2879631e-38 312 262
-0.0082967728 0.676 -0.026075572 1.2603403e-38 313 262
-0.0071010003 0.67500001 -0.026037 1.3154779e-38 314 262
-0.0059174998 0.67500001 -0.026037 1.3154779e-38 315 262
-0.0047339997 0.67500001 -0.026037 1.3246619e-38 316 262
-0.00354524 0.67400002 -0.025998428 1.3246619e-38 317 262
-0.0023564799 0.67199999 -0.025921278 1.343029e-38 318 262
-0.0011782399 0.67199999 -0.025921278 1.3337735e-38 319 262
0 0.67199999 -0.025921278 1.3429934e-38 320 262
0.0011764866 0.671 -0.025882706 1.3429934e-38 321 262
0.0023529732 0.671 -0.025882706 1.3429937e-38 322 262
0.0035294599 0.671 -0.025882706 1.3522132e-38 323 262
0.0047059464 0.671 -0.025882706 1.3429581e-38 324 262
0.0058736666 0.67000002 -0.025844134 1.3337385e-38 325 262
0.0070483997 0.67000002 -0.025844134 1.3429583e-38 326 262
0.0081985854 0.66799998 -0.025766984 1.3429583e-38 327 262
0.0093698129 0.66799998 -0.025766984 1.3246271e-38 328 262
0.01054104 0.66799998 -0.025766984 1.3338467e-38 329 262
0.011694733 0.667 -0.025728412 1.3156236e-38 330 262
0.012864206 0.667 -0.025728412 1.3064041e-38 331 262
0.014033679 0.667 -0.025728412 1.288001e-38 332 262
0.015203152 0.667 -0.025728412 1.3064041e-38 333 262
0.016372627 0.667 -0.025728412 9.3855888e-39 334 262
0.0175421 0.667 -0.025728412 7.4494806e-39 335 262
0.018739626 0.66799998 -0.025766984 1.9317922e-39 336 262
0.019910853 0.66799998 -0.025766984 1.9317922e-39 337 262
0.021082079 0.66799998 -0.025766984 3.2181954e-39 338 262
0.022319933 0.67000002 -0.025844134 7.0904119e-39 339 262
0.023494666 0.67000002 -0.025844134 1.1774731e-38 340 262
0.024669399 0.67000002 -0.025844134 1.1129721e-38 341 262
0.025844134 0.67000002 -0.025844134 1.1313747e-38 342 262
0.027018867 0.67000002 -0.025844134 1.1129715e-38 343 262
0.028193599 0.67000002 -0.025844134 1.1220834e-38 344 262
0.029412165 0.671 -0.025882706 1.1128639e-38 345 262
0.030588651 0.671 -0.025882706 1.1128283e-38 346 262
0.031812478 0.67199999 -0.025921278 1.1220837e-38 347 262
0.033088908 0.67400002 -0.025998428 1.1037166e-38 348 262
0.034321502 0.67500001 -0.026037 1.1129721e-38 349 262
0.035557602 0.676 -0.026075572 1.1222634e-38 350 262
0.036851559 0.67799997 -0.026152719 1.1314829e-38 351 262
0.038096428 0.67900002 -0.026191294 1.1223353e-38 352 262
0.039286941 0.67900002 -0.026191294 1.1223353e-38 353 262
0.040656291 0.68199998 -0.026307013 1.1222634e-38 354 262
0.042097531 0.68599999 -0.026461305 1.1222634e-38 355 262
0.043363437 0.68699998 -0.026499879 1.1223355e-38 356 262
0.044567976 0.68699998 -0.026499879 1.1315551e-38 357 262
0.045839146 0.68800002 -0.026538454 1.1132239e-38 358 262
0.047182199 0.69 -0.026615599 1.1132239e-38 359 262
0.048602402 0.69300002 -0.02673132 7.5438132e-39 360 262
0.050033119 0.69599998 -0.026847038 7.1750293e-39 361 262
0.051547997 0.69999999 -0.027001332 1.0493353e-38 362 262
0.053227689 0.70599997 -0.027232772 1.1046527e-38 363 262
0.054542694 0.70700002 -0.027271347 1.1780489e-38 364 262
0.055703394 0.70599997 -0.027232772 1.2057435e-38 365 262
0.056941248 0.70599997 -0.027232772 1.2058878e-38 366 262
0.058179103 0.70599997 -0.027232772 1.3810595e-38 367 262
0.059753593 0.70999998 -0.027387066 1.5109265e-38 368 262
0.061084379 0.71100003 -0.027425639 1.9719047e-38 369 262
-0.039274666 0.69999999 -0.028228667 1.4176134e-38 288 263
-0.037938625 0.69800001 -0.028148014 1.3991742e-38 289 263
-0.0367148 0.69800001 -0.028148014 1.4082489e-38 290 263
-0.035440128 0.69700003 -0.028107686 1.3529317e-38 291 263
-0.034070771 0.69400001 -0.027986705 1.3619713e-38 292 263
-0.032711938 0.69099998 -0.027865725 1.3251291e-38 293 263
-0.031500384 0.69099998 -0.027865725 1.3341687e-38 294 263
-0.030288832 0.69099998 -0.027865725 1.3064741e-38 295 263
-0.029077278 0.69099998 -0.027865725 1.3247691e-38 296 263
-0.027825398 0.69 -0.027825398 1.2971463e-38 297 263
-0.026538454 0.68800002 -0.027744746 1.3154056e-38 298 263
-0.025295338 0.68699998 -0.027704418 1.3154056e-38 299 263
-0.024090799 0.68699998 -0.027704418 1.306186e-38 300 263
-0.022852944 0.68599999 -0.027664091 1.306186e-38 301 263
-0.02158704 0.68400002 -0.027583439 1.2786362e-38 302 263
-0.020357953 0.68300003 -0.027543113 1.2786362e-38 303 263
-0.019160427 0.68300003 -0.027543113 9.5653012e-39 304 263
-0.017962901 0.68300003 -0.027543113 6.8916279e-39 305 263
-0.016839013 0.68599999 -0.027664091 2.4835269e-39 306 263
-0.015636226 0.68599999 -0.027664091 2.3909725e-39 307 263
-0.014265119 0.67799997 -0.027341479 4.3209501e-39 308 263
-0.013037786 0.676 -0.027260827 6.7180364e-39 309 263
-0.011852534 0.676 -0.027260827 1.1592142e-38 310 263
-0.01066728 0.676 -0.027260827 1.2053119e-38 311 263
-0.0095100794 0.67799997 -0.027341479 1.2786715e-38 312 263
-0.0082967728 0.676 -0.027260827 1.2786715e-38 313 263
-0.0071115191 0.676 -0.027260827 1.3062579e-38 314 263
-0.0059174998 0.67500001 -0.027220501 1.3062579e-38 315 263
-0.0047339997 0.67500001 -0.027220501 1.3062223e-38 316 263
-0.00354524 0.67400002 -0.027180174 1.3062223e-38 317 263
-0.0023564799 0.67199999 -0.027099518 1.3337015e-38 318 263
-0.0011782399 0.67199999 -0.027099518 1.3429571e-38 319 263
0 0.67199999 -0.027099518 1.3337738e-38 320 263
0.0011764866 0.671 -0.027059194 1.3337738e-38 321 263
0.0023529732 0.671 -0.027059194 1.3154073e-38 322 263
0.0035294599 0.671 -0.027059194 1.3154073e-38 323 263
0.0047059464 0.671 -0.027059194 1.3152999e-38 324 263
0.0058736666 0.67000002 -0.027018867 1.3337032e-38 325 263
0.0070273597 0.66799998 -0.026938211 1.3061523e-38 326 263
0.0081985854 0.66799998 -0.026938211 1.315372e-38 327 263
0.0093698129 0.66799998 -0.026938211 1.3062603e-38 328 263
0.010525259 0.667 -0.026897885 1.3246634e-38 329 263
0.011694733 0.667 -0.026897885 1.2880375e-38 330 263
0.012864206 0.667 -0.026897885 1.2880375e-38 331 263
0.014033679 0.667 -0.026897885 1.2605586e-38 332 263
0.015203152 0.667 -0.026897885 1.2697782e-38 333 263
0.016372627 0.667 -0.026897885 8.0059012e-39 334 263
0.0175421 0.667 -0.026897885 5.9775973e-39 335 263
0.018739626 0.66799998 -0.026938211 1.8413945e-39 336 263
0.019910853 0.66799998 -0.026938211 2.6711551e-39 337 263
0.021082079 0.66799998 -0.026938211 6.7133505e-39 338 263
0.022319933 0.67000002 -0.027018867 9.4792208e-39 339 263
0.023494666 0.67000002 -0.027018867 1.1774737e-38 340 263
0.024669399 0.67000002 -0.027018867 1.13134e-38 341 263
0.025844134 0.67000002 -0.027018867 1.1220834e-38 342 263
0.027018867 0.67000002 -0.027018867 1.131303e-38 343 263
0.028235679 0.671 -0.027059194 1.1312667e-38 344 263
0.029412165 0.671 -0.027059194 1.1312667e-38 345 263
0.030634239 0.67199999 -0.027099518 1.1220834e-38 346 263
0.031812478 0.67199999 -0.027099518 1.131303e-38 347 263
0.033088908 0.67400002 -0.027180174 1.1129721e-38 348 263
0.034372345 0.676 -0.027260827 1.1313753e-38 349 263
0.035557602 0.676 -0.027260827 1.1222636e-38 350 263
0.036851559 0.67799997 -0.027341479 1.1314832e-38 351 263
0.038096428 0.67900002 -0.027381808 1.1223355e-38 352 263
0.039344799 0.68000001 -0.027422134 1.1223355e-38 353 263
0.040715907 0.68300003 -0.027543113 1.1498144e-38 354 263
0.042097531 0.68599999 -0.027664091 1.1405949e-38 355 263
0.043363437 0.68699998 -0.027704418 1.1314476e-38 356 263
0.044567976 0.68699998 -0.027704418 1.1407031e-38 357 263
0.046039023 0.69099998 -0.027865725 1.1223353e-38 358 263
0.047387339 0.69300002 -0.027946379 1.0854929e-38 359 263
0.048672531 0.69400001 -0.027986705 8.1877365e-39 360 263
0.050033119 0.69599998 -0.028067358 8.2799321e-39 361 263
0.051547997 0.69999999 -0.028228667 1.0953973e-38 362 263
0.053227689 0.70599997 -0.028470624 1.1230918e-38 363 263
0.054542694 0.70700002 -0.028510952 1.1965602e-38 364 263
0.055703394 0.70599997 -0.028470624 1.2150354e-38 365 263
0.056941248 0.70599997 -0.028470624 1.2427306e-38 366 263
0.058179103 0.70599997 -0.028470624 1.5561958e-38 367 263
0.059416957 0.70599997 -0.028470624 1.5848998e-38 368 263
-0.038047329 0.69999999 -0.029455997 1.3716597e-38 289 264
-0.0367148 0.69800001 -0.029371841 1.4082845e-38 290 264
-0.035440128 0.69700003 -0.02932976 1.3714064e-38 291 264
-0.034070771 0.69400001 -0.029203519 1.3712265e-38 292 264
-0.032711938 0.69099998 -0.029077278 1.3343483e-38 293 264
-0.031500384 0.69099998 -0.029077278 1.343424e-38 294 264
-0.030288832 0.69099998 -0.029077278 1.3157293e-38 295 264
-0.029077278 0.69099998 -0.029077278 1.3340242e-38 296 264
-0.027865725 0.69099998 -0.029077278 1.3063657e-38 297 264
-0.026615599 0.69 -0.029035198 1.3247328e-38 298 264
-0.025295338 0.68699998 -0.028908957 1.3062576e-38 299 264
-0.024090799 0.68699998 -0.028908957 1.3154053e-38 300 264
-0.022886258 0.68699998 -0.028908957 1.3061858e-38 301 264
-0.021650158 0.68599999 -0.02886688 1.2510854e-38 302 264
-0.020387759 0.68400002 -0.02878272 1.1957681e-38 303 264
-0.01918848 0.68400002 -0.02878272 7.2650963e-39 304 264
-0.018041799 0.68599999 -0.02886688 4.2244328e-39 305 264
-0.016839013 0.68599999 -0.02886688 2.1158304e-39 306 264
-0.015476674 0.67900002 -0.028572321 2.4846129e-39 307 264
-0.014265119 0.67799997 -0.028530238 6.8059133e-39 308 264
-0.013076359 0.67799997 -0.028530238 8.9264127e-39 309 264
-0.011887599 0.67799997 -0.028530238 1.2420106e-38 310 264
-0.010698839 0.67799997 -0.028530238 1.2327911e-38 311 264
-0.0095100794 0.67799997 -0.028530238 1.2786362e-38 312 264
-0.0082967728 0.676 -0.028446076 1.2786362e-38 313 264
-0.0071115191 0.676 -0.028446076 1.2786718e-38 314 264
-0.0059174998 0.67500001 -0.028404001 1.2878914e-38 315 264
-0.0047339997 0.67500001 -0.028404001 1.3062229e-38 316 264
-0.0035505001 0.67500001 -0.028404001 1.3062229e-38 317 264
-0.0023564799 0.67199999 -0.02827776 1.3153352e-38 318 264
-0.0011782399 0.67199999 -0.02827776 1.3153352e-38 319 264
0 0.67199999 -0.02827776 1.3153352e-38 320 264
0.0011782399 0.67199999 -0.02827776 1.3337385e-38 321 264
0.0023529732 0.671 -0.028235679 1.3154076e-38 322 264
0.0035294599 0.671 -0.028235679 1.3154076e-38 323 264
0.0047059464 0.671 -0.028235679 1.3061523e-38 324 264
0.0058736666 0.67000002 -0.028193599 1.3061523e-38 325 264
0.0070273597 0.66799998 -0.028109439 1.2877857e-38 326 264
0.0081985854 0.66799998 -0.028109439 1.2970054e-38 327 264
0.0093698129 0.66799998 -0.028109439 1.2879659e-38 328 264
0.010525259 0.667 -0.028067358 1.306369e-38 329 264
0.011694733 0.667 -0.028067358 1.2697429e-38 330 264
0.012864206 0.667 -0.028067358 1.2789624e-38 331 264
0.014033679 0.667 -0.028067358 1.2607404e-38 332 264
0.015203152 0.667 -0.028067358 1.2607404e-38 333 264
0.016372627 0.667 -0.028067358 6.8088224e-39 334 264
0.0175421 0.667 -0.028067358 5.0574641e-39 335 264
0.018739626 0.66799998 -0.028109439 2.2116189e-39 336 264
0.019970467 0.67000002 -0.028193599 3.5023577e-39 337 264
0.0211452 0.67000002 -0.028193599 8.9228002e-39 338 264
0.022319933 0.67000002 -0.028193599 1.0490126e-38 339 264
0.023494666 0.67000002 -0.028193599 1.1773658e-38 340 264
0.024669399 0.67000002 -0.028193599 1.131268e-38 341 264
0.025882706 0.671 -0.028235679 1.1496345e-38 342 264
0.027059194 0.671 -0.028235679 1.1312314e-38 343 264
0.028235679 0.671 -0.028235679 1.1313027e-38 344 264
0.029412165 0.671 -0.028235679 1.1313027e-38 345 264
0.030634239 0.67199999 -0.02827776 1.1405583e-38 346 264
0.03190716 0.67400002 -0.02836192 1.1405583e-38 347 264
0.033088908 0.67400002 -0.02836192 1.1405227e-38 348 264
0.034372345 0.676 -0.028446076 1.1405227e-38 349 264
0.035557602 0.676 -0.028446076 1.1314832e-38 350 264
0.036851559 0.67799997 -0.028530238 1.1407028e-38 351 264
0.038152531 0.68000001 -0.028614398 1.1407028e-38 352 264
0.039460517 0.68199998 -0.02869856 1.1314832e-38 353 264
0.040715907 0.68300003 -0.028740639 1.1498144e-38 354 264
0.041974798 0.68400002 -0.02878272 1.159034e-38 355 264
0.043363437 0.68699998 -0.028908957 1.1407747e-38 356 264
0.044567976 0.68699998 -0.028908957 1.1499942e-38 357 264
0.046039023 0.69099998 -0.029077278 1.1132955e-38 358 264
0.047387339 0.69300002 -0.029161438 1.0764174e-38 359 264
0.048672531 0.69400001 -0.029203519 9.0178531e-39 360 264
0.050033119 0.69599998 -0.029287677 9.847255e-39 361 264
0.051400717 0.69800001 -0.029371841 1.1230921e-38 362 264
0.053227689 0.70599997 -0.029708479 1.1507148e-38 363 264
0.054542694 0.70700002 -0.029750559 1.20596e-38 364 264
0.055782299 0.70700002 -0.029750559 1.2151795e-38 365 264
0.057021905 0.70700002 -0.029750559 1.2521304e-38 366 264
0.058508728 0.70999998 -0.029876797 1.6854498e-38 367 264
0.059753593 0.70999998 -0.029876797 1.6405054e-38 368 264
-0.038047329 0.69999999 -0.030683333 1.3350336e-38 289 265
-0.0367148 0.69800001 -0.030595668 1.4266516e-38 290 265
-0.035440128 0.69700003 -0.030551834 1.4174319e-38 291 265
-0.034168959 0.69599998 -0.030507999 1.3714061e-38 292 265
-0.03280662 0.69300002 -0.0303765 1.3345277e-38 293 265
-0.031500384 0.69099998 -0.030288832 1.3343486e-38 294 265
-0.030288832 0.69099998 -0.030288832 1.2974344e-38 295 265
-0.029077278 0.69099998 -0.030288832 1.3157293e-38 296 265
-0.027865725 0.69099998 -0.030288832 1.2881066e-38 297 265
-0.026615599 0.69 -0.030244999 1.3247691e-38 298 265
-0.02533216 0.68800002 -0.030157333 1.2971463e-38 299 265
-0.024090799 0.68699998 -0.030113498 1.297003e-38 300 265
-0.022886258 0.68699998 -0.030113498 1.3154423e-38 301 265
-0.021681719 0.68699998 -0.030113498 1.1958416e-38 302 265
-0.020447372 0.68599999 -0.030069664 9.6538842e-39 303 265
-0.019244585 0.68599999 -0.030069664 4.5057113e-39 304 265
-0.018041799 0.68599999 -0.030069664 3.1227768e-39 305 265
-0.016839013 0.68599999 -0.030069664 2.29913e-39 306 265
-0.015476674 0.67900002 -0.029762832 3.036695e-39 307 265
-0.01428616 0.67900002 -0.029762832 1.0028427e-38 308 265
-0.013076359 0.67799997 -0.029718997 1.1226612e-38 309 265
-0.011887599 0.67799997 -0.029718997 1.2602697e-38 310 265
-0.010698839 0.67799997 -0.029718997 1.2510501e-38 311 265
-0.0095100794 0.67799997 -0.029718997 1.2694167e-38 312 265
-0.0082967728 0.676 -0.029631332 1.2786362e-38 313 265
-0.0071115191 0.676 -0.029631332 1.2786362e-38 314 265
-0.0059262668 0.676 -0.029631332 1.2694167e-38 315 265
