# .PCD v.7 - Point Cloud Data file format
FIELDS x y z rgb imX imY
SIZE 4 4 4 4 4 4
TYPE F F F F F F
COUNT 1 1 1 1 1 1
WIDTH 833
HEIGHT 1
VIEWPOINT 0 0 0 1 0 0 0
POINTS 833
DATA ascii
0.0036136196 0.68699998 -0.018068098 1.1866151e-38 323 255
0.0048251734 0.68800002 -0.0180944 1.1957269e-38 324 255
0.0060314666 0.68800002 -0.0180944 1.1957269e-38 325 255
0.0072587994 0.69 -0.018146999 1.1773956e-38 326 255
0.008480873 0.69099998 -0.0181733 1.1681403e-38 327 255
0.0097345067 0.69400001 -0.0182522 1.1406614e-38 328 255
0.010982879 0.69599998 -0.018304799 1.131442e-38 329 255
0.012238266 0.69800001 -0.0183574 1.131442e-38 330 255
0.013462093 0.69800001 -0.0183574 1.1221867e-38 331 255
0.01468592 0.69800001 -0.0183574 1.1221867e-38 332 255
0.015909746 0.69800001 -0.0183574 1.1221867e-38 333 255
0.017256306 0.70300001 -0.018488899 1.1130749e-38 334 255
0.018567799 0.70599997 -0.018567799 1.1130749e-38 335 255
0.019805651 0.70599997 -0.018567799 1.1038555e-38 336 255
0.021192541 0.71100003 -0.0186993 1.1130749e-38 337 255
0.022533838 0.71399999 -0.018778199 1.085596e-38 338 255
0.023852346 0.71600002 -0.0188308 1.0948154e-38 339 255
0.025107734 0.71600002 -0.0188308 1.0582247e-38 340 255
0.026363119 0.71600002 -0.0188308 1.0582247e-38 341 255
-0.071998879 0.708 -0.01986176 1.3080917e-38 262 256
-0.070657574 0.70700002 -0.019833706 9.3012545e-39 263 256
-0.069319785 0.70599997 -0.019805651 1.1595666e-38 264 256
-0.06808193 0.70599997 -0.019805651 1.1964443e-38 265 256
-0.066654719 0.704 -0.019749546 1.2056637e-38 266 256
-0.065420374 0.704 -0.019749546 1.2240667e-38 267 256
-0.064186029 0.704 -0.019749546 1.2149908e-38 268 256
-0.062683418 0.70099998 -0.019665385 1.2242102e-38 269 256
-0.06145433 0.70099998 -0.019665385 1.187476e-38 270 256
-0.060139328 0.69999999 -0.019637333 1.1505983e-38 271 256
-0.058911994 0.69999999 -0.019637333 1.0676953e-38 272 256
-0.055706903 0.676 -0.018964052 8.6486796e-39 273 256
-0.054521654 0.676 -0.018964052 5.3386557e-39 274 256
-0.053336397 0.676 -0.018964052 5.6148796e-39 275 256
-0.052151144 0.676 -0.018964052 4.6943807e-39 276 256
-0.050965894 0.676 -0.018964052 4.6021837e-39 277 256
-0.049780637 0.676 -0.018964052 4.0522497e-39 278 256
-0.048595384 0.676 -0.018964052 4.0522497e-39 279 256
-0.047410134 0.676 -0.018964052 4.0526e-39 280 256
-0.046361636 0.67799997 -0.019020159 4.0526e-39 281 256
-0.045172878 0.67799997 -0.019020159 3.8700052e-39 282 256
-0.044048995 0.67900002 -0.019048214 3.9621994e-39 283 256
-0.042921599 0.68000001 -0.019076265 3.8703639e-39 284 256
-0.041913435 0.68300003 -0.019160427 3.8703639e-39 285 256
-0.040715907 0.68300003 -0.019160427 3.7785284e-39 286 256
-0.03957624 0.68400002 -0.01918848 3.8707227e-39 287 256
-0.038376961 0.68400002 -0.01918848 4.3309763e-39 288 256
-0.037286382 0.68599999 -0.019244585 4.4231706e-39 289 256
-0.036083598 0.68599999 -0.019244585 4.0576223e-39 290 256
-0.034880809 0.68599999 -0.019244585 3.9650693e-39 291 256
-0.033579841 0.68400002 -0.01918848 3.5970098e-39 292 256
-0.032380559 0.68400002 -0.01918848 3.5970098e-39 293 256
-0.031135695 0.68300003 -0.019160427 4.1476641e-39 294 256
-0.029938167 0.68300003 -0.019160427 4.7930237e-39 295 256
-0.028614398 0.68000001 -0.019076265 9.3883858e-39 296 256
-0.027381808 0.67900002 -0.019048214 1.0586558e-38 297 256
-0.026152719 0.67799997 -0.019020159 1.2793115e-38 298 256
-0.024890319 0.676 -0.018964052 1.2885309e-38 299 256
-0.023669999 0.67500001 -0.018935999 1.325301e-38 300 256
-0.022486499 0.67500001 -0.018935999 1.3529593e-38 301 256
-0.021334561 0.676 -0.018964052 1.3713264e-38 302 256
-0.020119499 0.67500001 -0.018935999 1.3713264e-38 303 256
-0.018935999 0.67500001 -0.018935999 1.3621069e-38 304 256
-0.0177525 0.67500001 -0.018935999 1.3344128e-38 305 256
-0.016569 0.67500001 -0.018935999 1.3341976e-38 306 256
-0.0153855 0.67500001 -0.018935999 1.3065752e-38 307 256
-0.014223038 0.676 -0.018964052 1.2788452e-38 308 256
-0.013037786 0.676 -0.018964052 1.2512228e-38 309 256
-0.011852534 0.676 -0.018964052 1.2419675e-38 310 256
-0.010698839 0.67799997 -0.019020159 1.2419675e-38 311 256
-0.0095100794 0.67799997 -0.019020159 1.232748e-38 312 256
-0.0083335936 0.67900002 -0.019048214 1.2234927e-38 313 256
-0.0071535995 0.68000001 -0.019076265 1.2234927e-38 314 256
-0.005978866 0.68199998 -0.019132372 1.2142733e-38 315 256
-0.004783093 0.68199998 -0.019132372 1.2142733e-38 316 256
-0.0035925799 0.68300003 -0.019160427 1.1866509e-38 317 256
-0.0023950534 0.68300003 -0.019160427 1.1774674e-38 318 256
-0.00119928 0.68400002 -0.01918848 1.1774674e-38 319 256
0 0.68599999 -0.019244585 1.1866151e-38 320 256
0.0012027866 0.68599999 -0.019244585 1.1866151e-38 321 256
0.0024090798 0.68699998 -0.019272638 1.1774674e-38 322 256
0.0036136196 0.68699998 -0.019272638 1.1682121e-38 323 256
0.0048181596 0.68699998 -0.019272638 1.1681403e-38 324 256
0.0060314666 0.68800002 -0.019300694 1.1681403e-38 325 256
0.0072587994 0.69 -0.019356798 1.1681403e-38 326 256
0.008480873 0.69099998 -0.019384852 1.1681403e-38 327 256
0.0097345067 0.69400001 -0.019469013 1.1498091e-38 328 256
0.01095132 0.69400001 -0.019469013 1.1498091e-38 329 256
0.012220734 0.69700003 -0.019553173 1.131442e-38 330 256
0.013442807 0.69700003 -0.019553173 1.1221867e-38 331 256
0.01468592 0.69800001 -0.019581227 1.1037837e-38 332 256
0.015909746 0.69800001 -0.019581227 1.1037837e-38 333 256
0.017207211 0.70099998 -0.019665385 1.1038555e-38 334 256
0.018594101 0.70700002 -0.019833706 1.1038555e-38 335 256
0.019833706 0.70700002 -0.019833706 1.0946361e-38 336 256
0.021192541 0.71100003 -0.01994592 1.1038555e-38 337 256
0.022533838 0.71399999 -0.020030079 1.0580454e-38 338 256
0.023852346 0.71600002 -0.020086186 1.0764842e-38 339 256
0.025107734 0.71600002 -0.020086186 1.076556e-38 340 256
0.026363119 0.71600002 -0.020086186 1.0858112e-38 341 256
-0.071897186 0.70700002 -0.021073313 1.2710692e-38 262 257
-0.070657574 0.70700002 -0.021073313 9.2994538e-39 263 257
-0.069319785 0.70599997 -0.021043506 1.159459e-38 264 257
-0.06808193 0.70599997 -0.021043506 1.1871173e-38 265 257
-0.066654719 0.704 -0.020983893 1.187189e-38 266 257
-0.065420374 0.704 -0.020983893 1.2056279e-38 267 257
-0.064186029 0.704 -0.020983893 1.2150267e-38 268 257
-0.062683418 0.70099998 -0.020894472 1.2058072e-38 269 257
-0.06145433 0.70099998 -0.020894472 1.1782207e-38 270 257
-0.060139328 0.69999999 -0.020864666 1.1413789e-38 271 257
-0.058911994 0.69999999 -0.020864666 1.1135413e-38 272 257
-0.05768466 0.69999999 -0.020864666 9.7524992e-39 273 257
-0.054521654 0.676 -0.020149305 7.3647763e-39 274 257
-0.053336397 0.676 -0.020149305 6.3506398e-39 275 257
-0.052151144 0.676 -0.020149305 4.6958072e-39 276 257
-0.050965894 0.676 -0.020149305 4.3270303e-39 277 257
-0.049780637 0.676 -0.020149305 4.235199e-39 278 257
-0.048595384 0.676 -0.020149305 4.235199e-39 279 257
-0.047550395 0.67799997 -0.020208918 4.0518825e-39 280 257
-0.046361636 0.67799997 -0.020208918 4.1440768e-39 281 257
-0.045239504 0.67900002 -0.020238725 3.9618407e-39 282 257
-0.044113863 0.68000001 -0.020268533 3.8696465e-39 283 257
-0.043047838 0.68199998 -0.020328145 3.9611232e-39 284 257
-0.041913435 0.68300003 -0.020357953 3.9611232e-39 285 257
-0.040715907 0.68300003 -0.020357953 3.5944987e-39 286 257
-0.039518382 0.68300003 -0.020357953 3.9629169e-39 287 257
-0.038376961 0.68400002 -0.020387759 4.0561873e-39 288 257
-0.037177678 0.68400002 -0.020387759 4.33277e-39 289 257
-0.035978399 0.68400002 -0.020387759 4.2412932e-39 290 257
-0.03477912 0.68400002 -0.020387759 3.9650693e-39 291 257
-0.033579841 0.68400002 -0.020387759 3.7799634e-39 292 257
-0.032380559 0.68400002 -0.020387759 3.6877691e-39 293 257
-0.031135695 0.68300003 -0.020357953 4.2398583e-39 294 257
-0.029894331 0.68199998 -0.020328145 5.0692504e-39 295 257
-0.028614398 0.68000001 -0.020268533 1.0031952e-38 296 257
-0.027381808 0.67900002 -0.020238725 1.104609e-38 297 257
-0.026075572 0.676 -0.020149305 1.2792398e-38 298 257
-0.0248535 0.67500001 -0.020119499 1.306898e-38 299 257
-0.023669999 0.67500001 -0.020119499 1.3253728e-38 300 257
-0.022486499 0.67500001 -0.020119499 1.3345922e-38 301 257
-0.021303 0.67500001 -0.020119499 1.3621069e-38 302 257
-0.020119499 0.67500001 -0.020119499 1.3713264e-38 303 257
-0.018935999 0.67500001 -0.020119499 1.3711829e-38 304 257
-0.0177525 0.67500001 -0.020119499 1.3435605e-38 305 257
-0.016569 0.67500001 -0.020119499 1.3158663e-38 306 257
-0.0153855 0.67500001 -0.020119499 1.2789887e-38 307 257
-0.014202001 0.67500001 -0.020119499 1.2788452e-38 308 257
-0.0130185 0.67500001 -0.020119499 1.2512228e-38 309 257
-0.011852534 0.676 -0.020149305 1.2419675e-38 310 257
-0.01066728 0.676 -0.020149305 1.232748e-38 311 257
-0.0095100794 0.67799997 -0.020208918 1.232748e-38 312 257
-0.0083213197 0.67799997 -0.020208918 1.2234927e-38 313 257
-0.0071430802 0.67900002 -0.020238725 1.2142733e-38 314 257
-0.0059525664 0.67900002 -0.020238725 1.2050539e-38 315 257
-0.004783093 0.68199998 -0.020328145 1.1866868e-38 316 257
-0.00358732 0.68199998 -0.020328145 1.1774674e-38 317 257
-0.0023915465 0.68199998 -0.020328145 1.1774674e-38 318 257
-0.0011975267 0.68300003 -0.020357953 1.168248e-38 319 257
0 0.68599999 -0.020447372 1.1682121e-38 320 257
0.0012027866 0.68599999 -0.020447372 1.1498091e-38 321 257
0.0024055731 0.68599999 -0.020447372 1.1498091e-38 322 257
0.00360836 0.68599999 -0.020447372 1.1498091e-38 323 257
0.0048181596 0.68699998 -0.020477179 1.1405897e-38 324 257
0.0060314666 0.68800002 -0.020506985 1.1405897e-38 325 257
0.0072377604 0.68800002 -0.020506985 1.1405897e-38 326 257
0.008480873 0.69099998 -0.020596405 1.1405897e-38 327 257
0.0097204801 0.69300002 -0.020656019 1.131442e-38 328 257
0.01095132 0.69400001 -0.020685827 1.1406614e-38 329 257
0.012220734 0.69700003 -0.020775247 1.1221867e-38 330 257
0.013442807 0.69700003 -0.020775247 1.1221867e-38 331 257
0.01468592 0.69800001 -0.020805053 1.0945643e-38 332 257
0.015909746 0.69800001 -0.020805053 1.0945643e-38 333 257
0.017207211 0.70099998 -0.020894472 1.0853808e-38 334 257
0.018515198 0.704 -0.020983893 1.0853808e-38 335 257
0.019749546 0.704 -0.020983893 1.0670495e-38 336 257
0.021073313 0.70700002 -0.021073313 1.0670495e-38 337 257
0.022596961 0.71600002 -0.021341572 1.0763407e-38 338 257
0.023852346 0.71600002 -0.021341572 1.085596e-38 339 257
0.025107734 0.71600002 -0.021341572 1.0673365e-38 340 257
0.026363119 0.71600002 -0.021341572 1.076556e-38 341 257
-0.071897186 0.70700002 -0.022312919 1.2341187e-38 262 258
-0.070657574 0.70700002 -0.022312919 9.1143395e-39 263 258
-0.069319785 0.70599997 -0.022281358 1.1318366e-38 264 258
-0.06808193 0.70599997 -0.022281358 1.1686784e-38 265 258
-0.066654719 0.704 -0.022218239 1.1963008e-38 266 258
-0.065420374 0.704 -0.022218239 1.2147397e-38 267 258
-0.064094849 0.70300001 -0.02218668 1.2058072e-38 268 258
-0.062683418 0.70099998 -0.022123558 1.2150267e-38 269 258
-0.06145433 0.70099998 -0.022123558 1.1690013e-38 270 258
-0.060225245 0.70099998 -0.022123558 1.1229042e-38 271 258
-0.058996156 0.70099998 -0.022123558 1.0858471e-38 272 258
-0.05768466 0.69999999 -0.022091998 9.9368877e-39 273 258
-0.056296028 0.69800001 -0.02202888 7.8243125e-39 274 258
-0.0550722 0.69800001 -0.02202888 6.7179818e-39 275 258
-0.052305438 0.67799997 -0.021397678 5.0638667e-39 276 258
-0.050965894 0.676 -0.021334561 4.787284e-39 277 258
-0.049780637 0.676 -0.021334561 4.1440768e-39 278 258
-0.048739154 0.67799997 -0.021397678 4.328468e-39 279 258
-0.047550395 0.67799997 -0.021397678 3.8692877e-39 280 258
-0.046361636 0.67799997 -0.021397678 3.9614848e-39 281 258
-0.045306131 0.68000001 -0.0214608 3.9625582e-39 282 258
-0.044113863 0.68000001 -0.0214608 3.9625582e-39 283 258
-0.043047838 0.68199998 -0.021523919 3.8700052e-39 284 258
-0.041913435 0.68300003 -0.02155548 3.7774522e-39 285 258
-0.040715907 0.68300003 -0.02155548 3.8700052e-39 286 258
-0.039518382 0.68300003 -0.02155548 4.1465879e-39 287 258
-0.038376961 0.68400002 -0.02158704 4.1487403e-39 288 258
-0.037177678 0.68400002 -0.02158704 4.2409345e-39 289 258
-0.035978399 0.68400002 -0.02158704 4.0576223e-39 290 258
-0.03477912 0.68400002 -0.02158704 3.8728751e-39 291 258
-0.033530746 0.68300003 -0.02155548 3.6877691e-39 292 258
-0.032333218 0.68300003 -0.02155548 3.6877691e-39 293 258
-0.031090107 0.68199998 -0.021523919 4.6068416e-39 294 258
-0.029894331 0.68199998 -0.021523919 5.7135352e-39 295 258
-0.028614398 0.68000001 -0.0214608 1.1135054e-38 296 258
-0.027341479 0.67799997 -0.021397678 1.1780416e-38 297 258
-0.026075572 0.676 -0.021334561 1.297571e-38 298 258
-0.0248535 0.67500001 -0.021303 1.3067904e-38 299 258
-0.023634933 0.67400002 -0.021271439 1.3436322e-38 300 258
-0.022453187 0.67400002 -0.021271439 1.3528517e-38 301 258
-0.021303 0.67500001 -0.021303 1.3711829e-38 302 258
-0.020089693 0.67400002 -0.021271439 1.3711829e-38 303 258
-0.018907947 0.67400002 -0.021271439 1.3435605e-38 304 258
-0.0177262 0.67400002 -0.021271439 1.3343411e-38 305 258
-0.016544454 0.67400002 -0.021271439 1.306611e-38 306 258
-0.0153855 0.67500001 -0.021303 1.2789887e-38 307 258
-0.014202001 0.67500001 -0.021303 1.2788452e-38 308 258
-0.0130185 0.67500001 -0.021303 1.2512228e-38 309 258
-0.011852534 0.676 -0.021334561 1.232748e-38 310 258
-0.01066728 0.676 -0.021334561 1.2142733e-38 311 258
-0.0094820261 0.676 -0.021334561 1.2142733e-38 312 258
-0.0082967728 0.676 -0.021334561 1.2234927e-38 313 258
-0.0071325595 0.67799997 -0.021397678 1.1959421e-38 314 258
-0.0059437994 0.67799997 -0.021397678 1.1867227e-38 315 258
-0.0047690663 0.68000001 -0.0214608 1.1774674e-38 316 258
-0.00358732 0.68199998 -0.021523919 1.1774674e-38 317 258
-0.0023915465 0.68199998 -0.021523919 1.1774674e-38 318 258
-0.0011975267 0.68300003 -0.02155548 1.1682121e-38 319 258
0 0.68400002 -0.02158704 1.1682121e-38 320 258
0.00119928 0.68400002 -0.02158704 1.1405897e-38 321 258
0.0024055731 0.68599999 -0.021650158 1.1405897e-38 322 258
0.00360836 0.68599999 -0.021650158 1.1405897e-38 323 258
0.0048181596 0.68699998 -0.021681719 1.1405897e-38 324 258
0.0060314666 0.68800002 -0.021713281 1.1405897e-38 325 258
0.0072377604 0.68800002 -0.021713281 1.1405897e-38 326 258
0.008480873 0.69099998 -0.021807959 1.1405897e-38 327 258
0.0097204801 0.69300002 -0.021871079 1.131442e-38 328 258
0.01095132 0.69400001 -0.021902639 1.131442e-38 329 258
0.012220734 0.69700003 -0.02199732 1.1128955e-38 330 258
0.013442807 0.69700003 -0.02199732 1.1128955e-38 331 258
0.01468592 0.69800001 -0.02202888 1.0945284e-38 332 258
0.015909746 0.69800001 -0.02202888 1.085309e-38 333 258
0.017207211 0.70099998 -0.022123558 1.0669778e-38 334 258
0.018515198 0.704 -0.022218239 1.0577584e-38 335 258
0.019749546 0.704 -0.022218239 1.0578301e-38 336 258
0.021043506 0.70599997 -0.022281358 1.0670495e-38 337 258
0.022281358 0.70599997 -0.022281358 1.0671213e-38 338 258
0.023852346 0.71600002 -0.022596961 1.0763407e-38 339 258
0.0251428 0.71700001 -0.02262852 1.076556e-38 340 258
-0.071897186 0.70700002 -0.023552528 1.2155708e-38 262 259
-0.070657574 0.70700002 -0.023552528 9.2972832e-39 263 259
-0.069319785 0.70599997 -0.023519212 1.1409484e-38 264 259
-0.06808193 0.70599997 -0.023519212 1.1593873e-38 265 259
-0.066654719 0.704 -0.023452586 1.1503831e-38 266 259
-0.065420374 0.704 -0.023452586 1.1780055e-38 267 259
-0.064094849 0.70300001 -0.023419274 1.1782207e-38 268 259
-0.062683418 0.70099998 -0.023352645 1.1782207e-38 269 259
-0.06145433 0.70099998 -0.023352645 1.1596743e-38 270 259
-0.060225245 0.70099998 -0.023352645 1.113613e-38 271 259
-0.058911994 0.69999999 -0.023319334 1.0950307e-38 272 259
-0.05768466 0.69999999 -0.023319334 1.0212753e-38 273 259
-0.056296028 0.69800001 -0.023252707 8.6497558e-39 274 259
-0.0550722 0.69800001 -0.023252707 7.3590366e-39 275 259
-0.053848371 0.69800001 -0.023252707 4.9741836e-39 276 259
-0.051116679 0.67799997 -0.022586439 4.6057654e-39 277 259
-0.049927916 0.67799997 -0.022586439 4.6057654e-39 278 259
-0.048739154 0.67799997 -0.022586439 4.6983183e-39 279 259
-0.047550395 0.67799997 -0.022586439 4.7894364e-39 280 259
-0.046430022 0.67900002 -0.022619752 4.8816306e-39 281 259
-0.045306131 0.68000001 -0.022653066 4.6061241e-39 282 259
-0.044243611 0.68199998 -0.022719691 4.5139299e-39 283 259
-0.043047838 0.68199998 -0.022719691 4.4206594e-39 284 259
-0.041913435 0.68300003 -0.022753006 4.236271e-39 285 259
-0.040715907 0.68300003 -0.022753006 3.8700052e-39 286 259
-0.03957624 0.68400002 -0.022786319 4.1465879e-39 287 259
-0.038376961 0.68400002 -0.022786319 4.1480228e-39 288 259
-0.037177678 0.68400002 -0.022786319 4.516441e-39 289 259
-0.035978399 0.68400002 -0.022786319 4.0561873e-39 290 259
-0.034728274 0.68300003 -0.022753006 3.8721576e-39 291 259
-0.033530746 0.68300003 -0.022753006 3.4119039e-39 292 259
-0.032333218 0.68300003 -0.022753006 3.5040982e-39 293 259
-0.031090107 0.68199998 -0.022719691 5.6177495e-39 294 259
-0.029894331 0.68199998 -0.022719691 6.9084757e-39 295 259
-0.028572321 0.67900002 -0.022619752 1.1503113e-38 296 259
-0.027341479 0.67799997 -0.022586439 1.1964085e-38 297 259
-0.026037 0.67500001 -0.022486499 1.2791321e-38 298 259
-0.024816679 0.67400002 -0.022453187 1.3067904e-38 299 259
-0.023564799 0.67199999 -0.022386558 1.3251934e-38 300 259
-0.022386558 0.67199999 -0.022386558 1.3344128e-38 301 259
-0.021271439 0.67400002 -0.022453187 1.3343411e-38 302 259
-0.020089693 0.67400002 -0.022453187 1.3343411e-38 303 259
-0.018907947 0.67400002 -0.022453187 1.3250858e-38 304 259
-0.0177262 0.67400002 -0.022453187 1.3158663e-38 305 259
-0.016544454 0.67400002 -0.022453187 1.2790604e-38 306 259
-0.015362706 0.67400002 -0.022453187 1.269841e-38 307 259
-0.014202001 0.67500001 -0.022486499 1.2513663e-38 308 259
-0.0130185 0.67500001 -0.022486499 1.223708e-38 309 259
-0.011835 0.67500001 -0.022486499 1.232748e-38 310 259
-0.0106515 0.67500001 -0.022486499 1.2234927e-38 311 259
-0.0094820261 0.676 -0.022519812 1.2051615e-38 312 259
-0.0082967728 0.676 -0.022519812 1.1959421e-38 313 259
-0.0071325595 0.67799997 -0.022586439 1.1959421e-38 314 259
-0.0059437994 0.67799997 -0.022586439 1.1867227e-38 315 259
-0.0047620535 0.67900002 -0.022619752 1.1683556e-38 316 259
-0.0035767998 0.68000001 -0.022653066 1.1591362e-38 317 259
-0.0023915465 0.68199998 -0.022719691 1.1591362e-38 318 259
-0.0011957732 0.68199998 -0.022719691 1.1499167e-38 319 259
0 0.68400002 -0.022786319 1.1405897e-38 320 259
0.00119928 0.68400002 -0.022786319 1.1405897e-38 321 259
0.0024055731 0.68599999 -0.022852944 1.1405897e-38 322 259
0.00360836 0.68599999 -0.022852944 1.1405897e-38 323 259
0.0048181596 0.68699998 -0.022886258 1.1130749e-38 324 259
0.0060314666 0.68800002 -0.022919573 1.1130749e-38 325 259
0.0072587994 0.69 -0.022986198 1.1130749e-38 326 259
0.008480873 0.69099998 -0.023019511 1.1130749e-38 327 259
0.0097204801 0.69300002 -0.02308614 1.1221867e-38 328 259
0.01095132 0.69400001 -0.023119451 1.1037837e-38 329 259
0.0122032 0.69599998 -0.023186078 1.0945643e-38 330 259
0.013442807 0.69700003 -0.023219392 1.0945643e-38 331 259
0.01468592 0.69800001 -0.023252707 1.0578301e-38 332 259
0.015955333 0.69999999 -0.023319334 1.0486107e-38 333 259
0.017207211 0.70099998 -0.023352645 1.0119124e-38 334 259
0.018488899 0.70300001 -0.023419274 1.0119124e-38 335 259
0.019749546 0.704 -0.023452586 1.0119841e-38 336 259
0.020983893 0.704 -0.023452586 1.0304588e-38 337 259
0.022281358 0.70599997 -0.023519212 1.0212394e-38 338 259
-0.073240235 0.708 -0.024827199 1.2992708e-38 261 260
-0.071897186 0.70700002 -0.024792133 1.2246104e-38 262 260
-0.070657574 0.70700002 -0.024792133 9.4802353e-39 263 260
-0.069319785 0.70599997 -0.024757065 1.1501678e-38 264 260
-0.06808193 0.70599997 -0.024757065 1.1686067e-38 265 260
-0.066654719 0.704 -0.024686933 1.1503831e-38 266 260
-0.065420374 0.704 -0.024686933 1.1780055e-38 267 260
-0.064094849 0.70300001 -0.024651866 1.1690013e-38 268 260
-0.062683418 0.70099998 -0.024581732 1.1782207e-38 269 260
-0.06145433 0.70099998 -0.024581732 1.141343e-38 270 260
-0.060225245 0.70099998 -0.024581732 1.1136848e-38 271 260
-0.058911994 0.69999999 -0.024546666 1.0307458e-38 272 260
-0.05768466 0.69999999 -0.024546666 1.0030876e-38 273 260
-0.056296028 0.69800001 -0.024476532 7.4566118e-39 274 260
-0.0550722 0.69800001 -0.024476532 5.6127272e-39 275 260
-0.053848371 0.69800001 -0.024476532 3.8707227e-39 276 260
-0.052624546 0.69800001 -0.024476532 4.2398583e-39 277 260
-0.050075196 0.68000001 -0.023845334 4.607559e-39 278 260
-0.048811045 0.67900002 -0.023810266 4.8837844e-39 279 260
-0.047620531 0.67900002 -0.023810266 4.9756185e-39 280 260
-0.046498399 0.68000001 -0.023845334 4.79123e-39 281 260
-0.045439381 0.68199998 -0.023915464 4.6990358e-39 282 260
-0.044308487 0.68300003 -0.023950534 4.4228118e-39 283 260
-0.043110959 0.68300003 -0.023950534 4.2380647e-39 284 260
-0.041913435 0.68300003 -0.023950534 4.0536762e-39 285 260
-0.040715907 0.68300003 -0.023950534 4.3295414e-39 286 260
-0.03957624 0.68400002 -0.0239856 4.4217356e-39 287 260
-0.038376961 0.68400002 -0.0239856 4.240217e-39 288 260
-0.037177678 0.68400002 -0.0239856 4.240217e-39 289 260
-0.035978399 0.68400002 -0.0239856 3.8721576e-39 290 260
-0.034728274 0.68300003 -0.023950534 3.7799634e-39 291 260
-0.03348165 0.68199998 -0.023915464 3.2278742e-39 292 260
-0.032285877 0.68199998 -0.023915464 3.5048156e-39 293 260
-0.031090107 0.68199998 -0.023915464 6.6304511e-39 294 260
-0.029894331 0.68199998 -0.023915464 7.7364231e-39 295 260
-0.028572321 0.67900002 -0.023810266 1.1595666e-38 296 260
-0.027260827 0.676 -0.023705067 1.1964443e-38 297 260
-0.025998428 0.67400002 -0.023634933 1.2974992e-38 298 260
-0.024743039 0.67199999 -0.023564799 1.3067187e-38 299 260
-0.023529733 0.671 -0.023529733 1.3343411e-38 300 260
-0.022353247 0.671 -0.023529733 1.3343411e-38 301 260
-0.021208318 0.67199999 -0.023564799 1.3250858e-38 302 260
-0.020030079 0.67199999 -0.023564799 1.3250858e-38 303 260
-0.018851839 0.67199999 -0.023564799 1.3341976e-38 304 260
-0.017673599 0.67199999 -0.023564799 1.3065752e-38 305 260
-0.01649536 0.67199999 -0.023564799 1.2789887e-38 306 260
-0.01531712 0.67199999 -0.023564799 1.2605139e-38 307 260
-0.01418096 0.67400002 -0.023634933 1.2420751e-38 308 260
-0.012999214 0.67400002 -0.023634933 1.2328198e-38 309 260
-0.011835 0.67500001 -0.023669999 1.1960138e-38 310 260
-0.0106515 0.67500001 -0.023669999 1.1960138e-38 311 260
-0.0094679995 0.67500001 -0.023669999 1.1959421e-38 312 260
-0.0082967728 0.676 -0.023705067 1.1959421e-38 313 260
-0.0071115191 0.676 -0.023705067 1.1959421e-38 314 260
-0.0059437994 0.67799997 -0.023775198 1.1867227e-38 315 260
-0.0047620535 0.67900002 -0.023810266 1.1591362e-38 316 260
-0.0035767998 0.68000001 -0.023845334 1.1499167e-38 317 260
-0.0023845332 0.68000001 -0.023845334 1.1498809e-38 318 260
-0.0011957732 0.68199998 -0.023915464 1.1406614e-38 319 260
0 0.68400002 -0.0239856 1.1405897e-38 320 260
0.0012027866 0.68599999 -0.024055731 1.1498091e-38 321 260
0.0024055731 0.68599999 -0.024055731 1.1406614e-38 322 260
0.00360836 0.68599999 -0.024055731 1.131442e-38 323 260
0.0048181596 0.68699998 -0.024090799 1.1130749e-38 324 260
0.0060489997 0.69 -0.024195999 1.1038555e-38 325 260
0.0072587994 0.69 -0.024195999 1.1221867e-38 326 260
0.008480873 0.69099998 -0.024231065 1.1221867e-38 327 260
0.0097204801 0.69300002 -0.024301201 1.1038555e-38 328 260
0.01095132 0.69400001 -0.024336265 1.0946361e-38 329 260
0.0122032 0.69599998 -0.0244064 1.0945643e-38 330 260
0.013442807 0.69700003 -0.024441468 1.0853449e-38 331 260
0.01468592 0.69800001 -0.024476532 1.0578301e-38 332 260
0.015955333 0.69999999 -0.024546666 1.0486107e-38 333 260
0.017207211 0.70099998 -0.024581732 1.0119124e-38 334 260
0.018436298 0.70099998 -0.024581732 1.0119124e-38 335 260
0.019749546 0.704 -0.024686933 1.0119124e-38 336 260
0.020983893 0.704 -0.024686933 1.0303153e-38 337 260
0.022281358 0.70599997 -0.024757065 1.0395706e-38 338 260
-0.073136792 0.70700002 -0.02603174 1.2808674e-38 261 261
-0.071897186 0.70700002 -0.02603174 1.2245378e-38 262 261
-0.070657574 0.70700002 -0.02603174 9.848292e-39 263 261
-0.069319785 0.70599997 -0.025994917 1.1500961e-38 264 261
-0.06808193 0.70599997 -0.025994917 1.1777544e-38 265 261
-0.066654719 0.704 -0.02592128 1.1594949e-38 266 261
-0.065420374 0.704 -0.02592128 1.1779337e-38 267 261
-0.064094849 0.70300001 -0.025884461 1.178149e-38 268 261
-0.062683418 0.70099998 -0.025810819 1.178149e-38 269 261
-0.06145433 0.70099998 -0.025810819 1.187189e-38 270 261
-0.060139328 0.69999999 -0.025773998 1.1410919e-38 271 261
-0.058911994 0.69999999 -0.025773998 1.1133619e-38 272 261
-0.05768466 0.69999999 -0.025773998 1.0396065e-38 273 261
-0.056457333 0.69999999 -0.025773998 8.9241861e-39 274 261
-0.0550722 0.69800001 -0.025700359 7.3568842e-39 275 261
-0.053848371 0.69800001 -0.025700359 4.145153e-39 276 261
-0.052624546 0.69800001 -0.025700359 4.6983183e-39 277 261
-0.051400717 0.69800001 -0.025700359 4.8841417e-39 278 261
-0.049170479 0.68400002 -0.025184879 5.0685316e-39 279 261
-0.0479712 0.68400002 -0.025184879 5.3440367e-39 280 261
-0.04670354 0.68300003 -0.02514806 5.2518424e-39 281 261
-0.045506012 0.68300003 -0.02514806 5.342243e-39 282 261
-0.04437336 0.68400002 -0.025184879 5.1578545e-39 283 261
-0.043174081 0.68400002 -0.025184879 4.7897951e-39 284 261
-0.041974798 0.68400002 -0.025184879 4.6057654e-39 285 261
-0.040775519 0.68400002 -0.025184879 4.3309763e-39 286 261
-0.03957624 0.68400002 -0.025184879 4.4231706e-39 287 261
-0.038376961 0.68400002 -0.025184879 4.2405758e-39 288 261
-0.037177678 0.68400002 -0.025184879 4.1480228e-39 289 261
-0.035925802 0.68300003 -0.02514806 3.6881279e-39 290 261
-0.034728274 0.68300003 -0.02514806 3.5959336e-39 291 261
-0.03348165 0.68199998 -0.025111238 3.2289504e-39 292 261
-0.032285877 0.68199998 -0.025111238 3.5977273e-39 293 261
-0.031090107 0.68199998 -0.025111238 7.6417177e-39 294 261
-0.029806666 0.68000001 -0.025037598 8.4714728e-39 295 261
-0.028530238 0.67799997 -0.024963958 1.1779337e-38 296 261
-0.027260827 0.676 -0.024890319 1.2240308e-38 297 261
-0.025998428 0.67400002 -0.024816679 1.2608009e-38 298 261
-0.024743039 0.67199999 -0.024743039 1.2884951e-38 299 261
-0.023529733 0.671 -0.024706218 1.3251575e-38 300 261
-0.022353247 0.671 -0.024706218 1.3251575e-38 301 261
-0.021208318 0.67199999 -0.024743039 1.3067545e-38 302 261
-0.020030079 0.67199999 -0.024743039 1.3067545e-38 303 261
-0.018851839 0.67199999 -0.024743039 1.2973916e-38 304 261
-0.017673599 0.67199999 -0.024743039 1.2789887e-38 305 261
-0.01649536 0.67199999 -0.024743039 1.2513663e-38 306 261
-0.01531712 0.67199999 -0.024743039 1.2329633e-38 307 261
-0.01413888 0.67199999 -0.024743039 1.2145603e-38 308 261
-0.012999214 0.67400002 -0.024816679 1.1961573e-38 309 261
-0.011817466 0.67400002 -0.024816679 1.186902e-38 310 261
-0.01063572 0.67400002 -0.024816679 1.1776826e-38 311 261
-0.0094679995 0.67500001 -0.0248535 1.1867944e-38 312 261
-0.0082844999 0.67500001 -0.0248535 1.1867944e-38 313 261
-0.0071115191 0.676 -0.024890319 1.1867585e-38 314 261
-0.0059262668 0.676 -0.024890319 1.1591362e-38 315 261
-0.0047550397 0.67799997 -0.024963958 1.1774674e-38 316 261
-0.0035715401 0.67900002 -0.025000781 1.1682121e-38 317 261
-0.0023845332 0.68000001 -0.025037598 1.1406614e-38 318 261
-0.0011957732 0.68199998 -0.025111238 1.1406614e-38 319 261
0 0.68300003 -0.02514806 1.131442e-38 320 261
0.0011975267 0.68300003 -0.02514806 1.131442e-38 321 261
0.0023985601 0.68400002 -0.025184879 1.1038555e-38 322 261
0.00359784 0.68400002 -0.025184879 1.1038555e-38 323 261
0.0048181596 0.68699998 -0.025295338 1.0946361e-38 324 261
0.0060314666 0.68800002 -0.02533216 1.0946361e-38 325 261
0.0072587994 0.69 -0.025405798 1.0946361e-38 326 261
0.008480873 0.69099998 -0.025442619 1.0946361e-38 327 261
0.0097204801 0.69300002 -0.02551626 1.076269e-38 328 261
0.01095132 0.69400001 -0.025553079 1.0670495e-38 329 261
0.0122032 0.69599998 -0.025626717 1.0670495e-38 330 261
0.013442807 0.69700003 -0.025663542 1.0670495e-38 331 261
0.01468592 0.69800001 -0.025700359 1.0487183e-38 332 261
0.015955333 0.69999999 -0.025773998 1.0487183e-38 333 261
0.017207211 0.70099998 -0.025810819 1.0119124e-38 334 261
0.018436298 0.70099998 -0.025810819 1.0119124e-38 335 261
0.019805651 0.70599997 -0.025994917 9.8443347e-39 336 261
0.021043506 0.70599997 -0.025994917 9.9365289e-39 337 261
0.022281358 0.70599997 -0.025994917 1.01202e-38 338 261
0.023552528 0.70700002 -0.02603174 1.0304588e-38 339 261
-0.073136792 0.70700002 -0.027271347 1.3084902e-38 261 262
-0.071897186 0.70700002 -0.027271347 1.2429051e-38 262 262
-0.070657574 0.70700002 -0.027271347 1.0031604e-38 263 262
-0.069319785 0.70599997 -0.027232772 1.1776826e-38 264 262
-0.06808193 0.70599997 -0.027232772 1.186902e-38 265 262
-0.066654719 0.704 -0.027155625 1.1869738e-38 266 262
-0.065420374 0.704 -0.027155625 1.2146679e-38 267 262
-0.064094849 0.70300001 -0.027117053 1.1873684e-38 268 262
-0.062683418 0.70099998 -0.027039904 1.2058072e-38 269 262
-0.06145433 0.70099998 -0.027039904 1.1872608e-38 270 262
-0.060139328 0.69999999 -0.027001332 1.1411637e-38 271 262
-0.058911994 0.69999999 -0.027001332 1.0950307e-38 272 262
-0.05768466 0.69999999 -0.027001332 1.0488977e-38 273 262
-0.056457333 0.69999999 -0.027001332 8.6504733e-39 274 262
-0.0550722 0.69800001 -0.026924185 7.728531e-39 275 262
-0.053848371 0.69800001 -0.026924185 5.4326436e-39 276 262
-0.052549154 0.69700003 -0.026885614 5.1564196e-39 277 262
-0.050664321 0.68800002 -0.026538454 4.607559e-39 278 262
-0.049386136 0.68699998 -0.026499879 5.0685316e-39 279 262
-0.0479712 0.68400002 -0.02638416 5.2532774e-39 280 262
-0.046771921 0.68400002 -0.02638416 5.0688889e-39 281 262
-0.045572639 0.68400002 -0.02638416 5.0685302e-39 282 262
-0.04437336 0.68400002 -0.02638416 4.883783e-39 283 262
-0.043174081 0.68400002 -0.02638416 4.6993945e-39 284 262
-0.041974798 0.68400002 -0.02638416 4.6068416e-39 285 262
-0.040775519 0.68400002 -0.02638416 4.3316938e-39 286 262
-0.03957624 0.68400002 -0.02638416 4.423888e-39 287 262
-0.038376961 0.68400002 -0.02638416 4.1480228e-39 288 262
-0.037177678 0.68400002 -0.02638416 4.0558286e-39 289 262
-0.035925802 0.68300003 -0.026345588 3.4122627e-39 290 262
-0.034728274 0.68300003 -0.026345588 3.4122627e-39 291 262
-0.03348165 0.68199998 -0.026307013 3.5048156e-39 292 262
-0.032285877 0.68199998 -0.026307013 3.6892041e-39 293 262
-0.031090107 0.68199998 -0.026307013 8.4693134e-39 294 262
-0.029806666 0.68000001 -0.026229866 9.1146772e-39 295 262
-0.028446076 0.676 -0.026075572 1.1411995e-38 296 262
-0.027180174 0.67400002 -0.025998428 1.1688937e-38 297 262
-0.025921278 0.67199999 -0.025921278 1.2700203e-38 298 262
-0.024706218 0.671 -0.025882706 1.306898e-38 299 262
-0.023529733 0.671 -0.025882706 1.3069339e-38 300 262
-0.022353247 0.671 -0.025882706 1.3069339e-38 301 262
-0.021208318 0.67199999 -0.025921278 1.2976069e-38 302 262
-0.020000271 0.671 -0.025882706 1.2883874e-38 303 262
-0.018823786 0.671 -0.025882706 1.2790604e-38 304 262
-0.0176473 0.671 -0.025882706 1.2606216e-38 305 262
-0.016470812 0.671 -0.025882706 1.2513663e-38 306 262
-0.015294326 0.671 -0.025882706 1.223708e-38 307 262
-0.01413888 0.67199999 -0.025921278 1.1961573e-38 308 262
-0.012960639 0.67199999 -0.025921278 1.1961573e-38 309 262
-0.011782399 0.67199999 -0.025921278 1.1776826e-38 310 262
-0.01063572 0.67400002 -0.025998428 1.1776826e-38 311 262
-0.0094539737 0.67400002 -0.025998428 1.1684273e-38 312 262
-0.0082722269 0.67400002 -0.025998428 1.1684273e-38 313 262
-0.0071010003 0.67500001 -0.026037 1.1866868e-38 314 262
-0.0059174998 0.67500001 -0.026037 1.1774674e-38 315 262
-0.0047410131 0.676 -0.026075572 1.1498809e-38 316 262
-0.0035662798 0.67799997 -0.026152719 1.1406614e-38 317 262
-0.0023775198 0.67799997 -0.026152719 1.1223302e-38 318 262
-0.0011922666 0.68000001 -0.026229866 1.1131108e-38 319 262
0 0.68199998 -0.026307013 1.1130749e-38 320 262
0.0011975267 0.68300003 -0.026345588 1.0946361e-38 321 262
0.0023985601 0.68400002 -0.02638416 1.0946361e-38 322 262
0.00359784 0.68400002 -0.02638416 1.0946361e-38 323 262
0.0048181596 0.68699998 -0.026499879 1.0946361e-38 324 262
0.0060314666 0.68800002 -0.026538454 1.0946361e-38 325 262
0.0072587994 0.69 -0.026615599 1.0946361e-38 326 262
0.008480873 0.69099998 -0.026654173 1.0946361e-38 327 262
0.0097204801 0.69300002 -0.02673132 1.0853808e-38 328 262
0.010935539 0.69300002 -0.02673132 1.0853808e-38 329 262
0.012168133 0.69400001 -0.026769891 1.0670495e-38 330 262
0.013423519 0.69599998 -0.026847038 1.0670495e-38 331 262
0.01468592 0.69800001 -0.026924185 1.0395706e-38 332 262
0.015955333 0.69999999 -0.027001332 1.0395706e-38 333 262
0.017207211 0.70099998 -0.027039904 1.0027647e-38 334 262
0.018488899 0.70300001 -0.027117053 1.0027647e-38 335 262
0.019805651 0.70599997 -0.027232772 1.0027647e-38 336 262
0.021043506 0.70599997 -0.027232772 1.0119841e-38 337 262
0.022312919 0.70700002 -0.027271347 1.0120559e-38 338 262
0.023552528 0.70700002 -0.027271347 1.0212753e-38 339 262
-0.073136792 0.70700002 -0.028510952 1.2809393e-38 261 263
-0.071795486 0.70599997 -0.028470624 1.2336499e-38 262 263
-0.070557632 0.70599997 -0.028470624 9.6628259e-39 263 263
-0.069319785 0.70599997 -0.028470624 1.1683556e-38 264 263
-0.067889065 0.704 -0.028389972 1.195978e-38 265 263
-0.066654719 0.704 -0.028389972 1.1961573e-38 266 263
-0.065420374 0.704 -0.028389972 1.2237797e-38 267 263
-0.064094849 0.70300001 -0.028349647 1.2240308e-38 268 263
-0.062683418 0.70099998 -0.028268991 1.2425056e-38 269 263
-0.06145433 0.70099998 -0.028268991 1.2056996e-38 270 263
-0.060139328 0.69999999 -0.028228667 1.1503831e-38 271 263
-0.058911994 0.69999999 -0.028228667 1.1409484e-38 272 263
-0.05768466 0.69999999 -0.028228667 1.0948513e-38 273 263
-0.056457333 0.69999999 -0.028228667 9.4777102e-39 274 263
-0.0550722 0.69800001 -0.028148014 8.9245448e-39 275 263
-0.053848371 0.69800001 -0.028148014 6.7186992e-39 276 263
-0.052549154 0.69700003 -0.028107686 5.8889512e-39 277 263
-0.050664321 0.68800002 -0.027744746 4.33277e-39 278 263
-0.049386136 0.68699998 -0.027704418 4.7937426e-39 279 263
-0.048181597 0.68699998 -0.027704418 5.1610831e-39 280 263
-0.046908677 0.68599999 -0.027664091 5.2532774e-39 281 263
-0.045705888 0.68599999 -0.027664091 5.2525599e-39 282 263
-0.044503104 0.68599999 -0.027664091 5.0685302e-39 283 263
-0.043300316 0.68599999 -0.027664091 4.883783e-39 284 263
-0.042097531 0.68599999 -0.027664091 4.6993945e-39 285 263
-0.040894743 0.68599999 -0.027664091 4.240217e-39 286 263
-0.03957624 0.68400002 -0.027583439 4.1480228e-39 287 263
-0.038376961 0.68400002 -0.027583439 3.9632756e-39 288 263
-0.037177678 0.68400002 -0.027583439 3.8710814e-39 289 263
-0.035978399 0.68400002 -0.027583439 3.2285917e-39 290 263
-0.034728274 0.68300003 -0.027543113 3.4129801e-39 291 263
-0.03348165 0.68199998 -0.027502786 3.8725163e-39 292 263
-0.032285877 0.68199998 -0.027502786 4.2412932e-39 293 263
-0.031090107 0.68199998 -0.027502786 9.2032799e-39 294 263
-0.029806666 0.68000001 -0.027422134 9.8486423e-39 295 263
-0.028446076 0.676 -0.027260827 1.1411637e-38 296 263
-0.027059194 0.671 -0.027059194 1.1964802e-38 297 263
-0.025882706 0.671 -0.027059194 1.2609085e-38 298 263
-0.024706218 0.671 -0.027059194 1.2977862e-38 299 263
-0.023494666 0.67000002 -0.027018867 1.2978938e-38 300 263
-0.022319933 0.67000002 -0.027018867 1.2702356e-38 301 263
-0.021176759 0.671 -0.027059194 1.2976069e-38 302 263
-0.020000271 0.671 -0.027059194 1.279168e-38 303 263
-0.018823786 0.671 -0.027059194 1.2515097e-38 304 263
-0.0176473 0.671 -0.027059194 1.2422545e-38 305 263
-0.016470812 0.671 -0.027059194 1.223708e-38 306 263
-0.015294326 0.671 -0.027059194 1.2144886e-38 307 263
-0.01413888 0.67199999 -0.027099518 1.2052333e-38 308 263
-0.012960639 0.67199999 -0.027099518 1.1960138e-38 309 263
-0.011782399 0.67199999 -0.027099518 1.1593155e-38 310 263
-0.010604159 0.67199999 -0.027099518 1.1500961e-38 311 263
-0.0094539737 0.67400002 -0.027180174 1.1408767e-38 312 263
-0.0082722269 0.67400002 -0.027180174 1.1408767e-38 313 263
-0.0071010003 0.67500001 -0.027220501 1.1499885e-38 314 263
-0.0059174998 0.67500001 -0.027220501 1.1315496e-38 315 263
-0.0047410131 0.676 -0.027260827 1.1315496e-38 316 263
-0.0035662798 0.67799997 -0.027341479 1.1131108e-38 317 263
-0.0023775198 0.67799997 -0.027341479 1.1130749e-38 318 263
-0.0011905134 0.67900002 -0.027381808 1.1038555e-38 319 263
0 0.68000001 -0.027422134 1.0946361e-38 320 263
0.0011975267 0.68300003 -0.027543113 1.0853808e-38 321 263
0.0023985601 0.68400002 -0.027583439 1.0853808e-38 322 263
0.00359784 0.68400002 -0.027583439 1.0853808e-38 323 263
0.0048251734 0.68800002 -0.027744746 1.0853808e-38 324 263
0.0060489997 0.69 -0.027825398 1.0669778e-38 325 263
0.0072587994 0.69 -0.027825398 1.0853808e-38 326 263
0.008480873 0.69099998 -0.027865725 1.0853808e-38 327 263
0.0097204801 0.69300002 -0.027946379 1.0578301e-38 328 263
0.010935539 0.69300002 -0.027946379 1.0578301e-38 329 263
0.012168133 0.69400001 -0.027986705 1.0487183e-38 330 263
0.013423519 0.69599998 -0.028067358 1.0487183e-38 331 263
0.01466488 0.69700003 -0.028107686 1.0395706e-38 332 263
0.015955333 0.69999999 -0.028228667 1.0303512e-38 333 263
0.017207211 0.70099998 -0.028268991 1.0303153e-38 334 263
0.018488899 0.70300001 -0.028349647 1.0303153e-38 335 263
0.019805651 0.70599997 -0.028470624 1.0027647e-38 336 263
0.021043506 0.70599997 -0.028470624 1.0119841e-38 337 263
0.022344479 0.708 -0.02855128 1.0212394e-38 338 263
0.023652466 0.70999998 -0.028631933 1.0304588e-38 339 263
0.025107734 0.71600002 -0.028873893 1.0213112e-38 340 263
0.026289478 0.71399999 -0.028793238 1.0305306e-38 341 263
0.02754136 0.71399999 -0.028793238 9.847922e-39 342 263
-0.073136792 0.70700002 -0.029750559 1.3084902e-38 261 264
-0.071795486 0.70599997 -0.029708479 1.2428695e-38 262 264
-0.070557632 0.70599997 -0.029708479 9.6628259e-39 263 264
-0.069319785 0.70599997 -0.029708479 1.1774674e-38 264 264
-0.067889065 0.704 -0.029624319 1.1959062e-38 265 264
-0.066654719 0.704 -0.029624319 1.2328198e-38 266 264
-0.065327443 0.70300001 -0.029582238 1.2512586e-38 267 264
-0.064094849 0.70300001 -0.029582238 1.2332503e-38 268 264
-0.062683418 0.70099998 -0.029498078 1.251725e-38 269 264
-0.06145433 0.70099998 -0.029498078 1.2241743e-38 270 264
-0.060139328 0.69999999 -0.029455997 1.1872608e-38 271 264
-0.058911994 0.69999999 -0.029455997 1.1594949e-38 272 264
-0.057519849 0.69800001 -0.029371841 1.1133978e-38 273 264
-0.056296028 0.69800001 -0.029371841 1.03975e-38 274 264
-0.0550722 0.69800001 -0.029371841 9.9368877e-39 275 264
-0.053771228 0.69700003 -0.02932976 7.9143544e-39 276 264
-0.052549154 0.69700003 -0.02932976 6.9924121e-39 277 264
-0.051253434 0.69599998 -0.029287677 4.700112e-39 278 264
-0.049386136 0.68699998 -0.028908957 4.9763359e-39 279 264
-0.048181597 0.68699998 -0.028908957 4.7933866e-39 280 264
-0.046977058 0.68699998 -0.028908957 4.9781366e-39 281 264
-0.045772515 0.68699998 -0.028908957 5.0696064e-39 282 264
-0.044503104 0.68599999 -0.02886688 4.8855766e-39 283 264
-0.043300316 0.68599999 -0.02886688 4.7008295e-39 284 264
-0.042097531 0.68599999 -0.02886688 4.4242468e-39 285 264
-0.040894743 0.68599999 -0.02886688 4.1476641e-39 286 264
-0.039691959 0.68599999 -0.02886688 3.9629169e-39 287 264
-0.03848917 0.68599999 -0.02886688 3.4115452e-39 288 264
-0.037286382 0.68599999 -0.02886688 3.3189922e-39 289 264
-0.035978399 0.68400002 -0.02878272 3.1367562e-39 290 264
-0.034728274 0.68300003 -0.028740639 3.3215062e-39 291 264
-0.03348165 0.68199998 -0.02869856 4.33277e-39 292 264
-0.032285877 0.68199998 -0.02869856 4.7933866e-39 293 264
-0.031090107 0.68199998 -0.02869856 9.7546516e-39 294 264
-0.029762832 0.67900002 -0.028572321 1.0400014e-38 295 264
-0.02827776 0.67199999 -0.02827776 1.1687143e-38 296 264
-0.027059194 0.671 -0.028235679 1.1963726e-38 297 264
-0.025882706 0.671 -0.028235679 1.2425414e-38 298 264
-0.024706218 0.671 -0.028235679 1.3162968e-38 299 264
-0.023494666 0.67000002 -0.028193599 1.2980015e-38 300 264
-0.022319933 0.67000002 -0.028193599 1.2610879e-38 301 264
-0.021176759 0.671 -0.028235679 1.2700203e-38 302 264
-0.020000271 0.671 -0.028235679 1.2515815e-38 303 264
-0.018823786 0.671 -0.028235679 1.2239232e-38 304 264
-0.0176473 0.671 -0.028235679 1.2054844e-38 305 264
-0.016470812 0.671 -0.028235679 1.1961573e-38 306 264
-0.015294326 0.671 -0.028235679 1.1961573e-38 307 264
-0.01411784 0.671 -0.028235679 1.1776826e-38 308 264
-0.012960639 0.67199999 -0.02827776 1.1684273e-38 309 264
-0.011782399 0.67199999 -0.02827776 1.1500961e-38 310 264
-0.010604159 0.67199999 -0.02827776 1.1500961e-38 311 264
-0.0094539737 0.67400002 -0.02836192 1.1409484e-38 312 264
-0.0082722269 0.67400002 -0.02836192 1.1132902e-38 313 264
-0.0071010003 0.67500001 -0.028404001 1.1316214e-38 314 264
-0.0059174998 0.67500001 -0.028404001 1.1131825e-38 315 264
-0.0047410131 0.676 -0.028446076 1.1131467e-38 316 264
-0.0035662798 0.67799997 -0.028530238 1.0855243e-38 317 264
-0.0023775198 0.67799997 -0.028530238 1.0855243e-38 318 264
-0.0011905134 0.67900002 -0.028572321 1.076269e-38 319 264
0 0.68000001 -0.028614398 1.0670495e-38 320 264
0.0011975267 0.68300003 -0.028740639 1.0670495e-38 321 264
0.0023985601 0.68400002 -0.02878272 1.0670495e-38 322 264
0.00359784 0.68400002 -0.02878272 1.0670495e-38 323 264
0.0048391996 0.69 -0.029035198 1.0578301e-38 324 264
0.0060489997 0.69 -0.029035198 1.0670495e-38 325 264
0.0072693196 0.69099998 -0.029077278 1.0670495e-38 326 264
0.008480873 0.69099998 -0.029077278 1.0578301e-38 327 264
0.0097204801 0.69300002 -0.029161438 1.0578301e-38 328 264
0.010935539 0.69300002 -0.029161438 1.0670495e-38 329 264
0.012168133 0.69400001 -0.029203519 1.0487183e-38 330 264
0.013423519 0.69599998 -0.029287677 1.0487183e-38 331 264
0.01466488 0.69700003 -0.02932976 1.0394989e-38 332 264
0.015955333 0.69999999 -0.029455997 1.0394989e-38 333 264
0.017207211 0.70099998 -0.029498078 1.0395706e-38 334 264
0.018488899 0.70300001 -0.029582238 1.0395706e-38 335 264
0.019805651 0.70599997 -0.029708479 1.01202e-38 336 264
0.021043506 0.70599997 -0.029708479 1.0212394e-38 337 264
0.022344479 0.708 -0.02979264 1.0395706e-38 338 264
0.023652466 0.70999998 -0.029876797 1.0395706e-38 339 264
0.025037598 0.71399999 -0.030045118 1.0212753e-38 340 264
0.026289478 0.71399999 -0.030045118 1.0304947e-38 341 264
0.02754136 0.71399999 -0.030045118 1.0031593e-38 342 264
0.028793238 0.71399999 -0.030045118 1.0215981e-38 343 264
0.030423839 0.72299999 -0.030423839 1.0031955e-38 344 264
0.031691495 0.72299999 -0.030423839 1.0677324e-38 345 264
0.032959159 0.72299999 -0.030423839 1.3173465e-38 346 264
-0.073136792 0.70700002 -0.030990168 1.354516e-38 261 265
-0.071795486 0.70599997 -0.030946331 1.2614161e-38 262 265
-0.070557632 0.70599997 -0.030946331 9.6639007e-39 263 265
-0.069319785 0.70599997 -0.030946331 1.1867585e-38 264 265
-0.067889065 0.704 -0.030858666 1.2051974e-38 265 265
-0.066654719 0.704 -0.030858666 1.2144168e-38 266 265
-0.065327443 0.70300001 -0.030814834 1.2512586e-38 267 265
-0.064094849 0.70300001 -0.030814834 1.2240308e-38 268 265
-0.062683418 0.70099998 -0.030727165 1.251725e-38 269 265
-0.06145433 0.70099998 -0.030727165 1.2150267e-38 270 265
-0.060139328 0.69999999 -0.030683333 1.1873684e-38 271 265
-0.058743682 0.69800001 -0.030595668 1.1596384e-38 272 265
-0.057519849 0.69800001 -0.030595668 1.1319442e-38 273 265
-0.056296028 0.69800001 -0.030595668 1.085883e-38 274 265
-0.0550722 0.69800001 -0.030595668 1.0397859e-38 275 265
-0.053771228 0.69700003 -0.030551834 9.4773515e-39 276 265
-0.052549154 0.69700003 -0.030551834 8.4635737e-39 277 265
-0.051253434 0.69599998 -0.030507999 4.9770534e-39 278 265
-0.049458027 0.68800002 -0.030157333 4.6082765e-39 279 265
-0.048251733 0.68800002 -0.030157333 4.7008295e-39 280 265
-0.046977058 0.68699998 -0.030113498 4.7930237e-39 281 265
-0.045772515 0.68699998 -0.030113498 4.8852179e-39 282 265
-0.044567976 0.68699998 -0.030113498 4.7930237e-39 283 265
-0.043363437 0.68699998 -0.030113498 4.6079178e-39 284 265
-0.042158898 0.68699998 -0.030113498 4.4235293e-39 285 265
-0.040954359 0.68699998 -0.030113498 3.9618407e-39 286 265
-0.039691959 0.68599999 -0.030069664 3.7774522e-39 287 265
-0.03848917 0.68599999 -0.030069664 3.4101103e-39 288 265
-0.037286382 0.68599999 -0.030069664 3.4101103e-39 289 265
-0.035978399 0.68400002 -0.029982001 3.1360387e-39 290 265
-0.034728274 0.68300003 -0.029938167 3.597014e-39 291 265
-0.03348165 0.68199998 -0.029894331 4.79123e-39 292 265
-0.032285877 0.68199998 -0.029894331 5.6213396e-39 293 265
-0.031090107 0.68199998 -0.029894331 1.0214547e-38 294 265
-0.029762832 0.67900002 -0.029762832 1.0675159e-38 295 265
-0.028235679 0.671 -0.029412165 1.1686426e-38 296 265
-0.027059194 0.671 -0.029412165 1.2054844e-38 297 265
-0.025882706 0.671 -0.029412165 1.2425056e-38 298 265
-0.024706218 0.671 -0.029412165 1.3254804e-38 299 265
-0.023529733 0.671 -0.029412165 1.2981091e-38 300 265
-0.022353247 0.671 -0.029412165 1.2151702e-38 301 265
-0.021176759 0.671 -0.029412165 1.2515097e-38 302 265
-0.020000271 0.671 -0.029412165 1.233035e-38 303 265
-0.018823786 0.671 -0.029412165 1.223708e-38 304 265
-0.0176473 0.671 -0.029412165 1.2144886e-38 305 265
-0.016470812 0.671 -0.029412165 1.2052333e-38 306 265
-0.015294326 0.671 -0.029412165 1.1960138e-38 307 265
-0.01411784 0.671 -0.029412165 1.1684273e-38 308 265
-0.012960639 0.67199999 -0.029455997 1.1684273e-38 309 265
-0.011782399 0.67199999 -0.029455997 1.1409484e-38 310 265
-0.010604159 0.67199999 -0.029455997 1.131729e-38 311 265
-0.0094259195 0.67199999 -0.029455997 1.1132902e-38 312 265
-0.0082722269 0.67400002 -0.029543666 1.1132902e-38 313 265
-0.0071010003 0.67500001 -0.0295875 1.1131825e-38 314 265
-0.0059174998 0.67500001 -0.0295875 1.1039631e-38 315 265
-0.0047410131 0.676 -0.029631332 1.1038555e-38 316 265
-0.0035662798 0.67799997 -0.029718997 1.0946361e-38 317 265
-0.0023810267 0.67900002 -0.029762832 1.0853808e-38 318 265
-0.0011922666 0.68000001 -0.029806666 1.0853808e-38 319 265
0 0.68199998 -0.029894331 1.0669778e-38 320 265
0.00119928 0.68400002 -0.029982001 1.0853808e-38 321 265
0.0024055731 0.68599999 -0.030069664 1.0578301e-38 322 265
0.00360836 0.68599999 -0.030069664 1.0578301e-38 323 265
0.0048391996 0.69 -0.030244999 1.0394989e-38 324 265
0.0060489997 0.69 -0.030244999 1.0487183e-38 325 265
0.0072693196 0.69099998 -0.030288832 1.0487183e-38 326 265
0.0085054198 0.69300002 -0.0303765 1.0394989e-38 327 265
0.0097204801 0.69300002 -0.0303765 1.0395706e-38 328 265
0.01095132 0.69400001 -0.030420333 1.0395706e-38 329 265
0.0122032 0.69599998 -0.030507999 1.0487183e-38 330 265
0.013442807 0.69700003 -0.030551834 1.0487183e-38 331 265
0.01468592 0.69800001 -0.030595668 1.0395706e-38 332 265
0.015955333 0.69999999 -0.030683333 1.0395706e-38 333 265
0.017207211 0.70099998 -0.030727165 1.0395706e-38 334 265
0.018488899 0.70300001 -0.030814834 1.0395706e-38 335 265
0.019749546 0.704 -0.030858666 1.0212394e-38 336 265
0.021043506 0.70599997 -0.030946331 1.0212394e-38 337 265
0.022407599 0.70999998 -0.031121666 1.0395706e-38 338 265
0.023685781 0.71100003 -0.031165501 1.0395706e-38 339 265
0.025037598 0.71399999 -0.031296998 1.0304588e-38 340 265
0.026289478 0.71399999 -0.031296998 1.0488618e-38 341 265
0.02754136 0.71399999 -0.031296998 1.0122352e-38 342 265
0.028914221 0.71700001 -0.031428497 1.0398935e-38 343 265
0.0302976 0.72000003 -0.03156 1.0215264e-38 344 265
0.031647664 0.722 -0.031647664 1.0307458e-38 345 265
0.032959159 0.72299999 -0.031691495 1.2619922e-38 346 265
-0.071795486 0.70599997 -0.032184184 1.2892546e-38 262 266
-0.070557632 0.70599997 -0.032184184 9.7578956e-39 263 266
-0.069319785 0.70599997 -0.032184184 1.2142733e-38 264 266
-0.067889065 0.704 -0.032093015 1.2419675e-38 265 266
-0.066654719 0.704 -0.032093015 1.2328198e-38 266 266
-0.065327443 0.70300001 -0.032047424 1.2512586e-38 267 266
-0.064094849 0.70300001 -0.032047424 1.2331785e-38 268 266
-0.062683418 0.70099998 -0.031956252 1.2608368e-38 269 266
