# .PCD v.7 - Point Cloud Data file format
FIELDS x y z rgb imX imY
SIZE 4 4 4 4 4 4
TYPE F F F F F F
COUNT 1 1 1 1 1 1
WIDTH 831
HEIGHT 1
VIEWPOINT 0 0 0 1 0 0 0
POINTS 831
DATA ascii
-0.02551626 0.69300002 -0.02308614 1.3865008e-39 299 259
-0.024336265 0.69400001 -0.023119451 1.569813e-39 300 259
-0.023119451 0.69400001 -0.023119451 1.6620072e-39 301 259
-0.021902639 0.69400001 -0.023119451 1.5705305e-39 302 259
-0.020775247 0.69700003 -0.023219392 1.3865008e-39 303 259
-0.019553173 0.69700003 -0.023219392 1.3865008e-39 304 259
-0.018331099 0.69700003 -0.023219392 1.5705305e-39 305 259
-0.017133573 0.69800001 -0.023252707 1.3872182e-39 306 259
-0.015909746 0.69800001 -0.023252707 1.3872182e-39 307 259
-0.01468592 0.69800001 -0.023252707 1.386142e-39 308 259
-0.013462093 0.69800001 -0.023252707 1.386142e-39 309 259
-0.012238266 0.69800001 -0.023252707 1.386142e-39 310 259
-0.01101444 0.69800001 -0.023252707 1.5701717e-39 311 259
-0.0097906133 0.69800001 -0.023252707 1.4794124e-39 312 259
-0.0085667865 0.69800001 -0.023252707 1.3872182e-39 313 259
-0.0073639993 0.69999999 -0.023319334 1.6623674e-39 314 259
-0.0061366665 0.69999999 -0.023319334 1.6623674e-39 315 259
-0.0049093333 0.69999999 -0.023319334 1.6627247e-39 316 259
-0.0036872597 0.70099998 -0.023352645 1.6627247e-39 317 259
-0.0024581731 0.70099998 -0.023352645 1.6620072e-39 318 259
-0.0012325933 0.70300001 -0.023419274 1.6620072e-39 319 259
0 0.70300001 -0.023419274 1.6620072e-39 320 259
0.0012325933 0.70300001 -0.023419274 1.7542029e-39 321 259
0.0024651866 0.70300001 -0.023419274 1.7542015e-39 322 259
0.0037030398 0.704 -0.023452586 1.9382312e-39 323 259
0.0049514128 0.70599997 -0.023519212 1.9385899e-39 324 259
0.0061892662 0.70599997 -0.023519212 1.9385899e-39 325 259
0.0074376399 0.70700002 -0.023552528 1.9385899e-39 326 259
0.0087140659 0.70999998 -0.023652466 1.7545602e-39 327 259
0.0099589331 0.70999998 -0.023652466 1.9385899e-39 328 259
0.01121958 0.71100003 -0.023685781 2.0307842e-39 329 259
0.0124662 0.71100003 -0.023685781 2.213379e-39 330 259
0.013751393 0.713 -0.023752406 2.3059319e-39 331 259
0.015022559 0.71399999 -0.02378572 2.0307842e-39 332 259
0.016274439 0.71399999 -0.02378572 2.0307842e-39 333 259
0.017575413 0.71600002 -0.023852346 2.0304268e-39 334 259
0.0188308 0.71600002 -0.023852346 2.0304268e-39 335 259
0.020086186 0.71600002 -0.023852346 2.0304296e-39 336 259
0.021371379 0.71700001 -0.02388566 2.1226253e-39 337 259
0.022596961 0.71600002 -0.023852346 2.2151768e-39 338 259
0.023852346 0.71600002 -0.023852346 2.3073738e-39 339 259
0.0251428 0.71700001 -0.02388566 2.3073738e-39 340 259
0.026510401 0.72000003 -0.0239856 2.5836006e-39 341 259
0.027849946 0.722 -0.024052227 3.0416921e-39 342 259
0.029115854 0.722 -0.024052227 2.6729152e-39 343 259
0.030423839 0.72299999 -0.024085538 6.9953044e-39 344 259
0.031691495 0.72299999 -0.024085538 9.7611733e-39 345 259
0.032959159 0.72299999 -0.024085538 1.2899069e-38 346 259
-0.066260219 0.741 -0.025984399 1.3729921e-38 269 260
-0.064785667 0.73900002 -0.025914267 1.4283091e-38 270 260
-0.063489959 0.73900002 -0.025914267 1.1886006e-38 271 260
-0.062194239 0.73900002 -0.025914267 7.5578416e-39 272 260
-0.060898528 0.73900002 -0.025914267 3.5930708e-39 273 260
-0.059602812 0.73900002 -0.025914267 2.6786703e-39 274 260
-0.0583071 0.73900002 -0.025914267 2.6786703e-39 275 260
-0.056934237 0.73799998 -0.025879199 2.492484e-39 276 260
-0.055640277 0.73799998 -0.025879199 1.9393102e-39 277 260
-0.054346316 0.73799998 -0.025879199 1.6623674e-39 278 260
-0.052908584 0.736 -0.025809066 1.8471174e-39 279 260
-0.051618133 0.736 -0.025809066 2.8576736e-39 280 260
-0.050327681 0.736 -0.025809066 3.687793e-39 281 260
-0.048903972 0.73400003 -0.025738932 3.96437e-39 282 260
-0.044957221 0.69300002 -0.024301201 3.96437e-39 283 260
-0.043742158 0.69300002 -0.024301201 3.2289574e-39 284 260
-0.042527102 0.69300002 -0.024301201 3.044206e-39 285 260
-0.041312039 0.69300002 -0.024301201 2.582516e-39 286 260
-0.039981257 0.69099998 -0.024231065 2.3981261e-39 287 260
-0.038769703 0.69099998 -0.024231065 1.938234e-39 288 260
-0.03755815 0.69099998 -0.024231065 2.0304296e-39 289 260
-0.036346599 0.69099998 -0.024231065 1.6627247e-39 290 260
-0.035135046 0.69099998 -0.024231065 1.6627247e-39 291 260
-0.033923492 0.69099998 -0.024231065 1.5705305e-39 292 260
-0.032711938 0.69099998 -0.024231065 1.3865008e-39 293 260
-0.031500384 0.69099998 -0.024231065 1.569813e-39 294 260
-0.030288832 0.69099998 -0.024231065 1.569813e-39 295 260
-0.029161438 0.69300002 -0.024301201 1.569813e-39 296 260
-0.027946379 0.69300002 -0.024301201 1.6620072e-39 297 260
-0.02673132 0.69300002 -0.024301201 1.5705305e-39 298 260
-0.02551626 0.69300002 -0.024301201 1.5705305e-39 299 260
-0.024301201 0.69300002 -0.024301201 1.5701717e-39 300 260
-0.02308614 0.69300002 -0.024301201 1.5701717e-39 301 260
-0.021902639 0.69400001 -0.024336265 1.5705305e-39 302 260
-0.020745439 0.69599998 -0.0244064 1.3865008e-39 303 260
-0.019525118 0.69599998 -0.0244064 1.3872182e-39 304 260
-0.018331099 0.69700003 -0.024441468 1.295024e-39 305 260
-0.017109027 0.69700003 -0.024441468 1.3865008e-39 306 260
-0.015909746 0.69800001 -0.024476532 1.3865008e-39 307 260
-0.01468592 0.69800001 -0.024476532 1.386142e-39 308 260
-0.013462093 0.69800001 -0.024476532 1.2939478e-39 309 260
-0.012238266 0.69800001 -0.024476532 1.3865008e-39 310 260
-0.01101444 0.69800001 -0.024476532 1.3865008e-39 311 260
-0.0097906133 0.69800001 -0.024476532 1.569813e-39 312 260
-0.0085667865 0.69800001 -0.024476532 1.6620072e-39 313 260
-0.0073639993 0.69999999 -0.024546666 1.569813e-39 314 260
-0.0061366665 0.69999999 -0.024546666 1.6620072e-39 315 260
-0.0049093333 0.69999999 -0.024546666 1.8456782e-39 316 260
-0.0036872597 0.70099998 -0.024581732 1.8456782e-39 317 260
-0.0024581731 0.70099998 -0.024581732 1.662366e-39 318 260
-0.0012325933 0.70300001 -0.024651866 1.662366e-39 319 260
0 0.704 -0.024686933 1.8453195e-39 320 260
0.0012343467 0.704 -0.024686933 1.9375137e-39 321 260
0.0024686933 0.704 -0.024686933 1.7542029e-39 322 260
0.0037030398 0.704 -0.024686933 1.7542029e-39 323 260
0.0049514128 0.70599997 -0.024757065 1.9382312e-39 324 260
0.0061892662 0.70599997 -0.024757065 1.7542015e-39 325 260
0.0074376399 0.70700002 -0.024792133 1.9378725e-39 326 260
0.0087140659 0.70999998 -0.024897331 1.9378725e-39 327 260
0.0099729598 0.71100003 -0.024932399 2.0300667e-39 328 260
0.01121958 0.71100003 -0.024932399 2.0300667e-39 329 260
0.012501267 0.713 -0.025002534 2.3059319e-39 330 260
0.013751393 0.713 -0.025002534 2.3059319e-39 331 260
0.015022559 0.71399999 -0.025037598 2.1222609e-39 332 260
0.016320027 0.71600002 -0.025107734 2.1222609e-39 333 260
0.017575413 0.71600002 -0.025107734 2.0304296e-39 334 260
0.0188308 0.71600002 -0.025107734 2.0304296e-39 335 260
0.020086186 0.71600002 -0.025107734 1.8471174e-39 336 260
0.021371379 0.71700001 -0.0251428 2.0315086e-39 337 260
0.02262852 0.71700001 -0.0251428 2.490333e-39 338 260
0.02388566 0.71700001 -0.0251428 2.490333e-39 339 260
0.0251428 0.71700001 -0.0251428 2.7676317e-39 340 260
0.02639994 0.71700001 -0.0251428 2.3984891e-39 341 260
0.027657079 0.71700001 -0.0251428 4.3295568e-39 342 260
-0.064785667 0.73900002 -0.027209979 1.4099062e-38 270 261
-0.063489959 0.73900002 -0.027209979 1.20704e-38 271 261
-0.062194239 0.73900002 -0.027209979 8.8449805e-39 272 261
-0.060898528 0.73900002 -0.027209979 4.235199e-39 273 261
-0.059602812 0.73900002 -0.027209979 3.1374848e-39 274 261
-0.0583071 0.73900002 -0.027209979 3.0452892e-39 275 261
-0.056934237 0.73799998 -0.027173158 2.6761494e-39 276 261
-0.055640277 0.73799998 -0.027173158 2.2155313e-39 277 261
-0.05419904 0.736 -0.02709952 1.5716067e-39 278 261
-0.052908584 0.736 -0.02709952 1.6638023e-39 279 261
-0.051477864 0.73400003 -0.02702588 2.675083e-39 280 261
-0.050190922 0.73400003 -0.02702588 3.227898e-39 281 261
-0.048903972 0.73400003 -0.02702588 3.8732576e-39 282 261
-0.047617026 0.73400003 -0.02702588 3.7807019e-39 283 261
-0.043615919 0.69099998 -0.025442619 3.596298e-39 284 261
-0.042404365 0.69099998 -0.025442619 3.2271567e-39 285 261
-0.041192811 0.69099998 -0.025442619 2.8590987e-39 286 261
-0.039981257 0.69099998 -0.025442619 2.4903204e-39 287 261
-0.038769703 0.69099998 -0.025442619 2.0307842e-39 288 261
-0.03755815 0.69099998 -0.025442619 1.9385899e-39 289 261
-0.036346599 0.69099998 -0.025442619 1.7542015e-39 290 261
-0.035135046 0.69099998 -0.025442619 1.7542015e-39 291 261
-0.033923492 0.69099998 -0.025442619 1.5705305e-39 292 261
-0.032711938 0.69099998 -0.025442619 1.5705305e-39 293 261
-0.031500384 0.69099998 -0.025442619 1.569813e-39 294 261
-0.030288832 0.69099998 -0.025442619 1.6620072e-39 295 261
-0.029077278 0.69099998 -0.025442619 1.5705305e-39 296 261
-0.027946379 0.69300002 -0.02551626 1.5705305e-39 297 261
-0.02673132 0.69300002 -0.02551626 1.5705305e-39 298 261
-0.02551626 0.69300002 -0.02551626 1.5705305e-39 299 261
-0.024301201 0.69300002 -0.02551626 1.5705305e-39 300 261
-0.02308614 0.69300002 -0.02551626 1.5705305e-39 301 261
-0.021902639 0.69400001 -0.025553079 1.5705305e-39 302 261
-0.020745439 0.69599998 -0.025626717 1.5705305e-39 303 261
-0.019525118 0.69599998 -0.025626717 1.3865008e-39 304 261
-0.018331099 0.69700003 -0.025663542 1.3865008e-39 305 261
-0.017109027 0.69700003 -0.025663542 1.3865008e-39 306 261
-0.015909746 0.69800001 -0.025700359 1.3865008e-39 307 261
-0.01468592 0.69800001 -0.025700359 1.569813e-39 308 261
-0.013462093 0.69800001 -0.025700359 1.569813e-39 309 261
-0.012238266 0.69800001 -0.025700359 1.3865008e-39 310 261
-0.01101444 0.69800001 -0.025700359 1.3865008e-39 311 261
-0.0097906133 0.69800001 -0.025700359 1.569813e-39 312 261
-0.0085667865 0.69800001 -0.025700359 1.569813e-39 313 261
-0.0073429602 0.69800001 -0.025700359 1.569813e-39 314 261
-0.0061366665 0.69999999 -0.025773998 1.569813e-39 315 261
-0.0049093333 0.69999999 -0.025773998 1.569813e-39 316 261
-0.0036819996 0.69999999 -0.025773998 1.569813e-39 317 261
-0.0024581731 0.70099998 -0.025810819 1.7531253e-39 318 261
-0.0012343467 0.704 -0.02592128 1.7531253e-39 319 261
0 0.704 -0.02592128 1.5694543e-39 320 261
0.0012343467 0.704 -0.02592128 1.6620072e-39 321 261
0.0024686933 0.704 -0.02592128 1.7538469e-39 322 261
0.0037030398 0.704 -0.02592128 1.7538469e-39 323 261
0.0049514128 0.70599997 -0.025994917 1.7542029e-39 324 261
0.0061980332 0.70700002 -0.02603174 1.7542029e-39 325 261
0.0074691991 0.70999998 -0.026142199 1.9375137e-39 326 261
0.0087140659 0.70999998 -0.026142199 1.9375137e-39 327 261
0.0099729598 0.71100003 -0.026179021 1.9382312e-39 328 261
0.011251139 0.713 -0.026252659 1.9382312e-39 329 261
0.012501267 0.713 -0.026252659 2.213379e-39 330 261
0.01377068 0.71399999 -0.026289478 2.213379e-39 331 261
0.015022559 0.71399999 -0.026289478 2.029708e-39 332 261
0.016320027 0.71600002 -0.026363119 2.029708e-39 333 261
0.017575413 0.71600002 -0.026363119 1.9378781e-39 334 261
0.0188308 0.71600002 -0.026363119 2.0304324e-39 335 261
0.020114239 0.71700001 -0.02639994 2.0304324e-39 336 261
0.021371379 0.71700001 -0.02639994 2.1226281e-39 337 261
0.02262852 0.71700001 -0.02639994 2.2148237e-39 338 261
0.02388566 0.71700001 -0.02639994 2.3992164e-39 339 261
0.0251428 0.71700001 -0.02639994 2.7665471e-39 340 261
0.02639994 0.71700001 -0.02639994 3.1356884e-39 341 261
-0.063489959 0.73900002 -0.028505694 1.2346982e-38 271 262
-0.062194239 0.73900002 -0.028505694 9.4903471e-39 272 262
-0.060898528 0.73900002 -0.028505694 4.5117845e-39 273 262
-0.059602812 0.73900002 -0.028505694 3.5055443e-39 274 262
-0.0583071 0.73900002 -0.028505694 3.4133487e-39 275 262
-0.056934237 0.73799998 -0.028467119 2.5850327e-39 276 262
-0.055640277 0.73799998 -0.028467119 2.0318604e-39 277 262
-0.05419904 0.736 -0.028389972 1.7549189e-39 278 262
-0.052908584 0.736 -0.028389972 1.7549189e-39 279 262
-0.051477864 0.73400003 -0.028312827 2.490333e-39 280 262
-0.050190922 0.73400003 -0.028312827 3.1357024e-39 281 262
-0.048837345 0.73299998 -0.028274251 3.5959575e-39 282 262
-0.04755215 0.73299998 -0.028274251 3.6885118e-39 283 262
-0.043615919 0.69099998 -0.026654173 3.5966665e-39 284 262
-0.042404365 0.69099998 -0.026654173 3.2278854e-39 285 262
-0.041192811 0.69099998 -0.026654173 2.7679821e-39 286 262
-0.039981257 0.69099998 -0.026654173 2.6757864e-39 287 262
-0.038769703 0.69099998 -0.026654173 2.0322191e-39 288 262
-0.03755815 0.69099998 -0.026654173 1.9400249e-39 289 262
-0.036346599 0.69099998 -0.026654173 1.9385899e-39 290 262
-0.035135046 0.69099998 -0.026654173 1.7545602e-39 291 262
-0.033923492 0.69099998 -0.026654173 1.6630834e-39 292 262
-0.032711938 0.69099998 -0.026654173 1.5705305e-39 293 262
-0.031500384 0.69099998 -0.026654173 1.5705305e-39 294 262
-0.030288832 0.69099998 -0.026654173 1.5705305e-39 295 262
-0.029077278 0.69099998 -0.026654173 1.5705305e-39 296 262
-0.027865725 0.69099998 -0.026654173 1.6627247e-39 297 262
-0.02673132 0.69300002 -0.02673132 1.5705305e-39 298 262
-0.02551626 0.69300002 -0.02673132 1.5705305e-39 299 262
-0.024301201 0.69300002 -0.02673132 1.5705305e-39 300 262
-0.02308614 0.69300002 -0.02673132 1.5705305e-39 301 262
-0.021902639 0.69400001 -0.026769891 1.5708892e-39 302 262
-0.020745439 0.69599998 -0.026847038 1.5708892e-39 303 262
-0.019525118 0.69599998 -0.026847038 1.3865008e-39 304 262
-0.018331099 0.69700003 -0.026885614 1.3865008e-39 305 262
-0.017109027 0.69700003 -0.026885614 1.3865008e-39 306 262
-0.015886955 0.69700003 -0.026885614 1.3865008e-39 307 262
-0.01466488 0.69700003 -0.026885614 1.3865008e-39 308 262
-0.013462093 0.69800001 -0.026924185 1.3865008e-39 309 262
-0.012238266 0.69800001 -0.026924185 1.7531253e-39 310 262
-0.01101444 0.69800001 -0.026924185 1.7531253e-39 311 262
-0.0097906133 0.69800001 -0.026924185 1.7531253e-39 312 262
-0.0085667865 0.69800001 -0.026924185 1.7531253e-39 313 262
-0.0073429602 0.69800001 -0.026924185 1.7531253e-39 314 262
-0.006119133 0.69800001 -0.026924185 1.7531253e-39 315 262
-0.0049093333 0.69999999 -0.027001332 1.7531253e-39 316 262
-0.0036819996 0.69999999 -0.027001332 1.7531253e-39 317 262
-0.0024546667 0.69999999 -0.027001332 1.7531253e-39 318 262
-0.0012290865 0.70099998 -0.027039904 1.7531253e-39 319 262
0 0.704 -0.027155625 1.7531253e-39 320 262
0.0012343467 0.704 -0.027155625 1.7531253e-39 321 262
0.0024686933 0.704 -0.027155625 1.8453195e-39 322 262
0.0037135598 0.70599997 -0.027232772 1.8453195e-39 323 262
0.0049584266 0.70700002 -0.027271347 1.8449636e-39 324 262
0.0061980332 0.70700002 -0.027271347 1.9371592e-39 325 262
0.0074691991 0.70999998 -0.027387066 1.9367963e-39 326 262
0.0087140659 0.70999998 -0.027387066 2.120826e-39 327 262
0.0099729598 0.71100003 -0.027425639 2.0300667e-39 328 262
0.011251139 0.713 -0.027502786 1.9378725e-39 329 262
0.012501267 0.713 -0.027502786 2.1211847e-39 330 262
0.013751393 0.713 -0.027502786 2.1211847e-39 331 262
0.015022559 0.71399999 -0.02754136 2.120826e-39 332 262
0.016274439 0.71399999 -0.02754136 2.120826e-39 333 262
0.017575413 0.71600002 -0.027618507 1.9375151e-39 334 262
0.0188308 0.71600002 -0.027618507 2.0297108e-39 335 262
0.020114239 0.71700001 -0.027657079 2.0304268e-39 336 262
0.021371379 0.71700001 -0.027657079 2.1229812e-39 337 262
0.02262852 0.71700001 -0.027657079 2.3984919e-39 338 262
0.02388566 0.71700001 -0.027657079 2.4906889e-39 339 262
0.0251428 0.71700001 -0.027657079 2.8583952e-39 340 262
-0.063489959 0.73900002 -0.029801406 1.2439535e-38 271 263
-0.062194239 0.73900002 -0.029801406 1.0043518e-38 272 263
-0.060898528 0.73900002 -0.029801406 4.8805628e-39 273 263
-0.059602812 0.73900002 -0.029801406 3.5066163e-39 274 263
-0.0583071 0.73900002 -0.029801406 3.5066163e-39 275 263
-0.056934237 0.73799998 -0.029761078 3.044206e-39 276 263
-0.055640277 0.73799998 -0.029761078 2.4913966e-39 277 263
-0.05419904 0.736 -0.029680425 1.9385899e-39 278 263
-0.052908584 0.736 -0.029680425 1.7542015e-39 279 263
-0.051618133 0.736 -0.029680425 1.846767e-39 280 263
-0.050190922 0.73400003 -0.029599773 2.2151908e-39 281 263
-0.048837345 0.73299998 -0.029559445 3.1349877e-39 282 263
-0.04755215 0.73299998 -0.029559445 3.4112159e-39 283 263
-0.046266954 0.73299998 -0.029559445 3.4119193e-39 284 263
-0.042588469 0.69400001 -0.027986705 3.2278882e-39 285 263
-0.041312039 0.69300002 -0.027946379 2.8601749e-39 286 263
-0.039981257 0.69099998 -0.027865725 2.7679793e-39 287 263
-0.038769703 0.69099998 -0.027865725 2.1251308e-39 288 263
-0.03755815 0.69099998 -0.027865725 2.0329365e-39 289 263
-0.036346599 0.69099998 -0.027865725 2.1233371e-39 290 263
-0.035135046 0.69099998 -0.027865725 2.0311429e-39 291 263
-0.033923492 0.69099998 -0.027865725 1.7552777e-39 292 263
-0.032711938 0.69099998 -0.027865725 1.6630834e-39 293 263
-0.031500384 0.69099998 -0.027865725 1.7545602e-39 294 263
-0.030288832 0.69099998 -0.027865725 1.7545602e-39 295 263
-0.029077278 0.69099998 -0.027865725 1.7545602e-39 296 263
-0.027865725 0.69099998 -0.027865725 1.7545602e-39 297 263
-0.02673132 0.69300002 -0.027946379 1.662366e-39 298 263
-0.02551626 0.69300002 -0.027946379 1.662366e-39 299 263
-0.024301201 0.69300002 -0.027946379 1.662366e-39 300 263
-0.02308614 0.69300002 -0.027946379 1.662366e-39 301 263
-0.021902639 0.69400001 -0.027986705 1.662366e-39 302 263
-0.020745439 0.69599998 -0.028067358 1.662366e-39 303 263
-0.019525118 0.69599998 -0.028067358 1.5708892e-39 304 263
-0.018331099 0.69700003 -0.028107686 1.5708892e-39 305 263
-0.017109027 0.69700003 -0.028107686 1.6620072e-39 306 263
-0.015886955 0.69700003 -0.028107686 1.6620072e-39 307 263
-0.01466488 0.69700003 -0.028107686 1.6620072e-39 308 263
-0.013462093 0.69800001 -0.028148014 1.6620072e-39 309 263
-0.012238266 0.69800001 -0.028148014 1.8453195e-39 310 263
-0.01101444 0.69800001 -0.028148014 1.8453195e-39 311 263
-0.0097906133 0.69800001 -0.028148014 1.844602e-39 312 263
-0.0085667865 0.69800001 -0.028148014 1.844602e-39 313 263
-0.0073429602 0.69800001 -0.028148014 1.8449608e-39 314 263
-0.006119133 0.69800001 -0.028148014 1.937155e-39 315 263
-0.0049093333 0.69999999 -0.028228667 1.753484e-39 316 263
-0.0036819996 0.69999999 -0.028228667 1.753484e-39 317 263
-0.0024546667 0.69999999 -0.028228667 1.753484e-39 318 263
-0.0012273333 0.69999999 -0.028228667 1.753484e-39 319 263
0 0.704 -0.028389972 1.7531253e-39 320 263
0.0012325933 0.70300001 -0.028349647 1.7531253e-39 321 263
0.0024651866 0.70300001 -0.028349647 1.8453195e-39 322 263
0.0037135598 0.70599997 -0.028470624 1.8453195e-39 323 263
0.0049584266 0.70700002 -0.028510952 1.6620072e-39 324 263
0.0061980332 0.70700002 -0.028510952 1.6620072e-39 325 263
0.0074691991 0.70999998 -0.028631933 1.9375151e-39 326 263
0.0087140659 0.70999998 -0.028631933 1.9375151e-39 327 263
0.0099729598 0.71100003 -0.028672259 1.9375137e-39 328 263
0.011251139 0.713 -0.028752912 1.9375137e-39 329 263
0.012501267 0.713 -0.028752912 1.9367963e-39 330 263
0.013751393 0.713 -0.028752912 1.9367963e-39 331 263
0.015022559 0.71399999 -0.028793238 1.8453195e-39 332 263
0.016274439 0.71399999 -0.028793238 1.8453195e-39 333 263
0.017575413 0.71600002 -0.028873893 1.8453195e-39 334 263
0.0188308 0.71600002 -0.028873893 1.9375151e-39 335 263
0.020114239 0.71700001 -0.028914221 1.938234e-39 336 263
0.021430992 0.71899998 -0.028994869 1.938234e-39 337 263
0.022691639 0.71899998 -0.028994869 2.1219092e-39 338 263
0.024052227 0.722 -0.029115854 2.3981359e-39 339 263
0.025318133 0.722 -0.029115854 2.7658465e-39 340 263
0.026620859 0.72299999 -0.029156178 2.9502377e-39 341 263
-0.062194239 0.73900002 -0.03109712 1.0412658e-38 272 264
-0.060898528 0.73900002 -0.03109712 4.7887231e-39 273 264
-0.059602812 0.73900002 -0.03109712 3.0459969e-39 274 264
-0.0583071 0.73900002 -0.03109712 3.4144179e-39 275 264
-0.056934237 0.73799998 -0.031055039 3.1360387e-39 276 264
-0.055640277 0.73799998 -0.031055039 2.5832321e-39 277 264
-0.054346316 0.73799998 -0.031055039 1.9385899e-39 278 264
-0.052908584 0.736 -0.030970879 1.662366e-39 279 264
-0.051618133 0.736 -0.030970879 1.3857903e-39 280 264
-0.050327681 0.736 -0.030970879 1.6620171e-39 281 264
-0.048903972 0.73400003 -0.030886721 2.3977898e-39 282 264
-0.047617026 0.73400003 -0.030886721 2.7665723e-39 283 264
-0.046330083 0.73400003 -0.030886721 3.0438613e-39 284 264
-0.042588469 0.69400001 -0.029203519 3.0438613e-39 285 264
-0.041312039 0.69300002 -0.029161438 2.6772284e-39 286 264
-0.039981257 0.69099998 -0.029077278 2.4928371e-39 287 264
-0.038769703 0.69099998 -0.029077278 2.217325e-39 288 264
-0.03755815 0.69099998 -0.029077278 2.1251308e-39 289 264
-0.036346599 0.69099998 -0.029077278 2.0322191e-39 290 264
-0.035135046 0.69099998 -0.029077278 1.8478306e-39 291 264
-0.033923492 0.69099998 -0.029077278 1.7552777e-39 292 264
-0.032711938 0.69099998 -0.029077278 1.7552777e-39 293 264
-0.031500384 0.69099998 -0.029077278 1.6620072e-39 294 264
-0.030288832 0.69099998 -0.029077278 1.6620072e-39 295 264
-0.029077278 0.69099998 -0.029077278 1.5705305e-39 296 264
-0.027865725 0.69099998 -0.029077278 1.5705305e-39 297 264
-0.02673132 0.69300002 -0.029161438 1.662366e-39 298 264
-0.02551626 0.69300002 -0.029161438 1.662366e-39 299 264
-0.024301201 0.69300002 -0.029161438 1.6630834e-39 300 264
-0.02308614 0.69300002 -0.029161438 1.5705305e-39 301 264
-0.021902639 0.69400001 -0.029203519 1.8456782e-39 302 264
-0.020745439 0.69599998 -0.029287677 1.9378725e-39 303 264
-0.019553173 0.69700003 -0.02932976 1.662366e-39 304 264
-0.018331099 0.69700003 -0.02932976 1.662366e-39 305 264
-0.017109027 0.69700003 -0.02932976 1.6620072e-39 306 264
-0.015886955 0.69700003 -0.02932976 1.6620072e-39 307 264
-0.01466488 0.69700003 -0.02932976 1.6620072e-39 308 264
-0.013462093 0.69800001 -0.029371841 1.6620072e-39 309 264
-0.012238266 0.69800001 -0.029371841 1.6620072e-39 310 264
-0.01101444 0.69800001 -0.029371841 1.6620072e-39 311 264
-0.0097906133 0.69800001 -0.029371841 1.937155e-39 312 264
-0.0085667865 0.69800001 -0.029371841 1.937155e-39 313 264
-0.0073429602 0.69800001 -0.029371841 1.8453195e-39 314 264
-0.006119133 0.69800001 -0.029371841 1.8453195e-39 315 264
-0.0049093333 0.69999999 -0.029455997 1.753484e-39 316 264
-0.0036819996 0.69999999 -0.029455997 1.753484e-39 317 264
-0.0024546667 0.69999999 -0.029455997 1.753484e-39 318 264
-0.0012273333 0.69999999 -0.029455997 1.753484e-39 319 264
0 0.704 -0.029624319 1.569813e-39 320 264
0.0012325933 0.70300001 -0.029582238 1.569813e-39 321 264
0.0024651866 0.70300001 -0.029582238 1.6620072e-39 322 264
0.0037030398 0.704 -0.029624319 1.6620072e-39 323 264
0.0049584266 0.70700002 -0.029750559 1.6616513e-39 324 264
0.0062067998 0.708 -0.02979264 1.6616513e-39 325 264
0.0074691991 0.70999998 -0.029876797 1.6616513e-39 326 264
0.0087140659 0.70999998 -0.029876797 1.6616513e-39 327 264
0.0099729598 0.71100003 -0.029918881 1.6620072e-39 328 264
0.011251139 0.713 -0.030003037 1.6620072e-39 329 264
0.012501267 0.713 -0.030003037 1.844602e-39 330 264
0.013751393 0.713 -0.030003037 1.7524078e-39 331 264
0.015022559 0.71399999 -0.030045118 1.7520491e-39 332 264
0.016274439 0.71399999 -0.030045118 1.8442433e-39 333 264
0.017575413 0.71600002 -0.03012928 1.8449636e-39 334 264
0.018857099 0.71700001 -0.030171359 1.8449636e-39 335 264
0.020170346 0.71899998 -0.030255521 1.6620072e-39 336 264
0.021430992 0.71899998 -0.030255521 1.938234e-39 337 264
0.022691639 0.71899998 -0.030255521 1.7545658e-39 338 264
0.024052227 0.722 -0.030381758 1.9393158e-39 339 264
0.025353199 0.72299999 -0.030423839 2.3981388e-39 340 264
0.026620859 0.72299999 -0.030423839 1.5687382e-39 341 264
0.02788852 0.72299999 -0.030423839 5.163293e-39 342 264
-0.062194239 0.73900002 -0.032392833 1.105695e-38 272 265
-0.060898528 0.73900002 -0.032392833 4.603257e-39 273 265
-0.059602812 0.73900002 -0.032392833 2.6768612e-39 274 265
-0.0583071 0.73900002 -0.032392833 3.4144207e-39 275 265
-0.056934237 0.73799998 -0.032348998 2.8619699e-39 276 265
-0.055640277 0.73799998 -0.032348998 2.3088018e-39 277 265
-0.054346316 0.73799998 -0.032348998 1.8478306e-39 278 265
-0.052908584 0.736 -0.032261331 1.3868595e-39 279 265
-0.051618133 0.736 -0.032261331 1.2013948e-39 280 265
-0.050327681 0.736 -0.032261331 1.2939478e-39 281 265
-0.049037226 0.736 -0.032261331 2.0293604e-39 282 265
-0.047746774 0.736 -0.032261331 2.4903386e-39 283 265
-0.046456318 0.736 -0.032261331 2.7683506e-39 284 265
-0.042711195 0.69599998 -0.030507999 2.7683506e-39 285 265
-0.041312039 0.69300002 -0.0303765 2.5850355e-39 286 265
-0.04009698 0.69300002 -0.0303765 2.4002855e-39 287 265
-0.03888192 0.69300002 -0.0303765 2.1254965e-39 288 265
-0.03755815 0.69099998 -0.030288832 2.0333009e-39 289 265
-0.036346599 0.69099998 -0.030288832 2.0318618e-39 290 265
-0.035135046 0.69099998 -0.030288832 1.9396661e-39 291 265
-0.033923492 0.69099998 -0.030288832 1.9385899e-39 292 265
-0.032711938 0.69099998 -0.030288832 1.6620072e-39 293 265
-0.031500384 0.69099998 -0.030288832 1.6620072e-39 294 265
-0.030288832 0.69099998 -0.030288832 1.569813e-39 295 265
-0.029077278 0.69099998 -0.030288832 1.569813e-39 296 265
-0.027865725 0.69099998 -0.030288832 1.569813e-39 297 265
-0.02673132 0.69300002 -0.0303765 1.5701717e-39 298 265
-0.02551626 0.69300002 -0.0303765 1.5701717e-39 299 265
-0.024301201 0.69300002 -0.0303765 1.8456782e-39 300 265
-0.02308614 0.69300002 -0.0303765 1.8456782e-39 301 265
-0.021902639 0.69400001 -0.030420333 1.662366e-39 302 265
-0.020745439 0.69599998 -0.030507999 1.662366e-39 303 265
-0.019553173 0.69700003 -0.030551834 1.662366e-39 304 265
-0.018331099 0.69700003 -0.030551834 1.662366e-39 305 265
-0.017109027 0.69700003 -0.030551834 1.662366e-39 306 265
-0.015886955 0.69700003 -0.030551834 1.662366e-39 307 265
-0.01466488 0.69700003 -0.030551834 1.6620072e-39 308 265
-0.013442807 0.69700003 -0.030551834 1.6620072e-39 309 265
-0.012238266 0.69800001 -0.030595668 1.6620072e-39 310 265
-0.01101444 0.69800001 -0.030595668 1.6620072e-39 311 265
-0.0097906133 0.69800001 -0.030595668 1.662366e-39 312 265
-0.0085667865 0.69800001 -0.030595668 1.662366e-39 313 265
-0.0073429602 0.69800001 -0.030595668 1.6620072e-39 314 265
-0.006119133 0.69800001 -0.030595668 1.6620072e-39 315 265
-0.0049093333 0.69999999 -0.030683333 1.8453195e-39 316 265
-0.0036819996 0.69999999 -0.030683333 1.7531253e-39 317 265
-0.0024546667 0.69999999 -0.030683333 1.569813e-39 318 265
-0.0012273333 0.69999999 -0.030683333 1.569813e-39 319 265
0 0.70599997 -0.030946331 1.569813e-39 320 265
0.0012378532 0.70599997 -0.030946331 1.569813e-39 321 265
0.0024686933 0.704 -0.030858666 1.569813e-39 322 265
0.0037030398 0.704 -0.030858666 1.6620072e-39 323 265
0.0049584266 0.70700002 -0.030990168 1.6620072e-39 324 265
0.0062067998 0.708 -0.031034 1.6620072e-39 325 265
0.0074691991 0.70999998 -0.031121666 1.5701717e-39 326 265
0.0087140659 0.70999998 -0.031121666 1.5701717e-39 327 265
0.0099729598 0.71100003 -0.031165501 1.386142e-39 328 265
0.011251139 0.713 -0.031253166 1.5701717e-39 329 265
0.012501267 0.713 -0.031253166 1.7531253e-39 330 265
0.013751393 0.713 -0.031253166 1.7531253e-39 331 265
0.015022559 0.71399999 -0.031296998 1.7531253e-39 332 265
0.016320027 0.71600002 -0.031384666 1.8453195e-39 333 265
0.017575413 0.71600002 -0.031384666 1.6616513e-39 334 265
0.018857099 0.71700001 -0.031428497 1.6616513e-39 335 265
0.020114239 0.71700001 -0.031428497 1.6616541e-39 336 265
0.021430992 0.71899998 -0.031516165 1.7538497e-39 337 265
0.022723202 0.72000003 -0.03156 1.7545658e-39 338 265
0.024052227 0.722 -0.031647664 1.9393158e-39 339 265
0.025353199 0.72299999 -0.031691495 2.214458e-39 340 265
0.026620859 0.72299999 -0.031691495 1.7531253e-39 341 265
0.02788852 0.72299999 -0.031691495 3.1378562e-39 342 265
0.029317487 0.727 -0.03186683 7.9320289e-39 343 265
-0.060898528 0.73900002 -0.033688545 4.7894462e-39 273 266
-0.059602812 0.73900002 -0.033688545 2.4913966e-39 274 266
-0.0583071 0.73900002 -0.033688545 3.5058974e-39 275 266
-0.056934237 0.73799998 -0.033642959 2.9538026e-39 276 266
-0.055640277 0.73799998 -0.033642959 2.584667e-39 277 266
-0.054346316 0.73799998 -0.033642959 2.0307842e-39 278 266
-0.053052358 0.73799998 -0.033642959 1.7542015e-39 279 266
-0.051618133 0.736 -0.033551786 1.2928716e-39 280 266
-0.050327681 0.736 -0.033551786 1.4776188e-39 281 266
-0.049170475 0.73799998 -0.033642959 1.7538497e-39 282 266
-0.047876518 0.73799998 -0.033642959 2.3070235e-39 283 266
-0.046582557 0.73799998 -0.033642959 2.5836034e-39 284 266
-0.0452886 0.73799998 -0.033642959 2.675799e-39 285 266
-0.041371655 0.69400001 -0.031637147 2.492484e-39 286 266
-0.04009698 0.69300002 -0.031591557 2.4002883e-39 287 266
-0.03888192 0.69300002 -0.031591557 2.1247805e-39 288 266
-0.037666857 0.69300002 -0.031591557 2.0325848e-39 289 266
-0.036346599 0.69099998 -0.031500384 1.9396661e-39 290 266
-0.035135046 0.69099998 -0.031500384 1.7549189e-39 291 266
-0.033923492 0.69099998 -0.031500384 1.6627247e-39 292 266
-0.032711938 0.69099998 -0.031500384 1.5705305e-39 293 266
-0.031500384 0.69099998 -0.031500384 1.569813e-39 294 266
-0.030288832 0.69099998 -0.031500384 1.569813e-39 295 266
-0.029077278 0.69099998 -0.031500384 1.2943065e-39 296 266
-0.027865725 0.69099998 -0.031500384 1.2943065e-39 297 266
-0.02673132 0.69300002 -0.031591557 1.4776188e-39 298 266
-0.02551626 0.69300002 -0.031591557 1.5701717e-39 299 266
-0.024301201 0.69300002 -0.031591557 1.569813e-39 300 266
-0.02308614 0.69300002 -0.031591557 1.569813e-39 301 266
-0.021902639 0.69400001 -0.031637147 1.569813e-39 302 266
-0.020745439 0.69599998 -0.031728316 1.6620072e-39 303 266
-0.019553173 0.69700003 -0.03177391 1.569813e-39 304 266
-0.018331099 0.69700003 -0.03177391 1.569813e-39 305 266
-0.017109027 0.69700003 -0.03177391 1.5705305e-39 306 266
-0.015886955 0.69700003 -0.03177391 1.3865008e-39 307 266
-0.01466488 0.69700003 -0.03177391 1.7531253e-39 308 266
-0.013442807 0.69700003 -0.03177391 1.8453195e-39 309 266
-0.012238266 0.69800001 -0.031819493 1.569813e-39 310 266
-0.01101444 0.69800001 -0.031819493 1.6620072e-39 311 266
-0.0097906133 0.69800001 -0.031819493 1.5705305e-39 312 266
-0.0085667865 0.69800001 -0.031819493 1.3865008e-39 313 266
-0.0073429602 0.69800001 -0.031819493 1.3865008e-39 314 266
-0.006119133 0.69800001 -0.031819493 1.3865008e-39 315 266
-0.0049093333 0.69999999 -0.031910665 1.569813e-39 316 266
-0.0036819996 0.69999999 -0.031910665 1.569813e-39 317 266
-0.0024546667 0.69999999 -0.031910665 1.569813e-39 318 266
-0.0012290865 0.70099998 -0.031956252 1.569813e-39 319 266
0 0.704 -0.032093015 1.3865008e-39 320 266
0.0012343467 0.704 -0.032093015 1.3865008e-39 321 266
0.0024686933 0.704 -0.032093015 1.569813e-39 322 266
0.0037135598 0.70599997 -0.032184184 1.6620072e-39 323 266
0.0049584266 0.70700002 -0.032229774 1.6620072e-39 324 266
0.0062067998 0.708 -0.03227536 1.6620072e-39 325 266
0.0074691991 0.70999998 -0.032366529 1.6620072e-39 326 266
0.0087140659 0.70999998 -0.032366529 1.6620072e-39 327 266
0.0099729598 0.71100003 -0.032412119 1.5705305e-39 328 266
0.011251139 0.713 -0.032503292 1.5705305e-39 329 266
0.012501267 0.713 -0.032503292 1.8453195e-39 330 266
0.01377068 0.71399999 -0.032548878 1.8453195e-39 331 266
0.01506464 0.71600002 -0.032640055 1.6620072e-39 332 266
0.016320027 0.71600002 -0.032640055 1.6620072e-39 333 266
0.017575413 0.71600002 -0.032640055 1.8453195e-39 334 266
0.018857099 0.71700001 -0.032685637 1.8453195e-39 335 266
0.020114239 0.71700001 -0.032685637 1.7538469e-39 336 266
0.021430992 0.71899998 -0.032776814 1.9378781e-39 337 266
0.022723202 0.72000003 -0.0328224 1.7549217e-39 338 266
0.024052227 0.722 -0.032913569 1.939313e-39 339 266
0.025353199 0.72299999 -0.032959159 2.215174e-39 340 266
0.026620859 0.72299999 -0.032959159 1.9385899e-39 341 266
0.028042812 0.727 -0.033141505 2.5836006e-39 342 266
0.029317487 0.727 -0.033141505 6.1795903e-39 343 266
0.030592158 0.727 -0.033141505 1.1243156e-38 344 266
-0.059602812 0.73900002 -0.034984261 2.4939077e-39 274 267
-0.0583071 0.73900002 -0.034984261 3.323667e-39 275 267
-0.056934237 0.73799998 -0.034936916 2.6790178e-39 276 267
-0.055640277 0.73799998 -0.034936916 2.033654e-39 277 267
-0.054346316 0.73799998 -0.034936916 1.9400249e-39 278 267
-0.053052358 0.73799998 -0.034936916 1.3872182e-39 279 267
-0.051618133 0.736 -0.034842238 1.3854246e-39 280 267
-0.050327681 0.736 -0.034842238 1.4776188e-39 281 267
-0.049170475 0.73799998 -0.034936916 2.1211847e-39 282 267
-0.047876518 0.73799998 -0.034936916 2.5825188e-39 283 267
-0.046582557 0.73799998 -0.034936916 2.5839565e-39 284 267
-0.0452886 0.73799998 -0.034936916 2.5839565e-39 285 267
-0.041371655 0.69400001 -0.032853961 2.307371e-39 286 267
-0.040154841 0.69400001 -0.032853961 2.3995667e-39 287 267
-0.03888192 0.69300002 -0.03280662 2.2151768e-39 288 267
-0.037666857 0.69300002 -0.03280662 2.1229812e-39 289 267
-0.036346599 0.69099998 -0.032711938 1.8471174e-39 290 267
-0.035135046 0.69099998 -0.032711938 1.7549217e-39 291 267
-0.033923492 0.69099998 -0.032711938 1.6627247e-39 292 267
-0.032711938 0.69099998 -0.032711938 1.3865008e-39 293 267
-0.031500384 0.69099998 -0.032711938 1.569813e-39 294 267
-0.030288832 0.69099998 -0.032711938 1.4776188e-39 295 267
-0.029077278 0.69099998 -0.032711938 1.2943065e-39 296 267
-0.027865725 0.69099998 -0.032711938 1.2943065e-39 297 267
-0.02673132 0.69300002 -0.03280662 1.4776188e-39 298 267
-0.02551626 0.69300002 -0.03280662 1.4776188e-39 299 267
-0.024301201 0.69300002 -0.03280662 1.2943065e-39 300 267
-0.023119451 0.69400001 -0.032853961 1.3865008e-39 301 267
-0.021902639 0.69400001 -0.032853961 1.569813e-39 302 267
-0.020685827 0.69400001 -0.032853961 1.569813e-39 303 267
-0.019553173 0.69700003 -0.03299598 1.569813e-39 304 267
-0.018331099 0.69700003 -0.03299598 1.569813e-39 305 267
-0.017109027 0.69700003 -0.03299598 1.7531253e-39 306 267
-0.015886955 0.69700003 -0.03299598 1.7531253e-39 307 267
-0.01466488 0.69700003 -0.03299598 1.8453195e-39 308 267
-0.013442807 0.69700003 -0.03299598 1.7531253e-39 309 267
-0.012238266 0.69800001 -0.033043321 1.569813e-39 310 267
-0.01101444 0.69800001 -0.033043321 1.569813e-39 311 267
-0.0097906133 0.69800001 -0.033043321 1.569813e-39 312 267
-0.0085667865 0.69800001 -0.033043321 1.569813e-39 313 267
-0.0073429602 0.69800001 -0.033043321 1.386142e-39 314 267
-0.0061366665 0.69999999 -0.033137999 1.386142e-39 315 267
-0.0049093333 0.69999999 -0.033137999 1.569813e-39 316 267
-0.0036819996 0.69999999 -0.033137999 1.569813e-39 317 267
-0.0024581731 0.70099998 -0.03318534 1.5701717e-39 318 267
-0.0012290865 0.70099998 -0.03318534 1.5701717e-39 319 267
0 0.704 -0.03332736 1.3865008e-39 320 267
0.0012343467 0.704 -0.03332736 1.3865008e-39 321 267
0.0024686933 0.704 -0.03332736 1.5701717e-39 322 267
0.0037135598 0.70599997 -0.033422034 1.5701717e-39 323 267
0.0049584266 0.70700002 -0.033469379 1.662366e-39 324 267
0.0062067998 0.708 -0.033516716 1.662366e-39 325 267
0.0074691991 0.70999998 -0.033611398 1.5705305e-39 326 267
0.0087263398 0.71100003 -0.033658739 1.5705305e-39 327 267
0.010001013 0.713 -0.033753417 1.5705305e-39 328 267
0.011266919 0.71399999 -0.033800758 1.3865008e-39 329 267
0.012518799 0.71399999 -0.033800758 1.8453195e-39 330 267
0.01377068 0.71399999 -0.033800758 1.8453195e-39 331 267
0.01506464 0.71600002 -0.03389544 1.6620072e-39 332 267
0.016320027 0.71600002 -0.03389544 1.6620072e-39 333 267
0.017599959 0.71700001 -0.033942781 1.8449636e-39 334 267
0.018857099 0.71700001 -0.033942781 1.9371592e-39 335 267
0.020114239 0.71700001 -0.033942781 1.7545686e-39 336 267
0.021430992 0.71899998 -0.03403746 1.7545686e-39 337 267
0.022786319 0.722 -0.034179479 2.0304324e-39 338 267
0.024085538 0.72299999 -0.03422682 2.1226281e-39 339 267
0.025423333 0.72500002 -0.034321502 2.3977674e-39 340 267
0.026694499 0.72500002 -0.034321502 2.489963e-39 341 267
0.028042812 0.727 -0.03441618 2.029708e-39 342 267
0.029317487 0.727 -0.03441618 4.0583705e-39 343 267
0.030592158 0.727 -0.03441618 1.023008e-38 344 267
-0.059602812 0.73900002 -0.036279973 2.8623259e-39 274 268
-0.0583071 0.73900002 -0.036279973 3.5998853e-39 275 268
-0.056934237 0.73799998 -0.036230877 3.1381911e-39 276 268
-0.055640277 0.73799998 -0.036230877 2.584667e-39 277 268
-0.054346316 0.73799998 -0.036230877 2.1236958e-39 278 268
-0.053052358 0.73799998 -0.036230877 1.7552777e-39 279 268
-0.051618133 0.736 -0.036132693 1.2021123e-39 280 268
-0.050327681 0.736 -0.036132693 1.3868595e-39 281 268
-0.049037226 0.736 -0.036132693 1.9385899e-39 282 268
-0.047746774 0.736 -0.036132693 2.307371e-39 283 268
-0.046582557 0.73799998 -0.036230877 2.5836006e-39 284 268
-0.0452886 0.73799998 -0.036230877 2.3995695e-39 285 268
-0.041550495 0.69700003 -0.034218054 2.3073738e-39 286 268
-0.040328421 0.69700003 -0.034218054 2.2151768e-39 287 268
-0.03888192 0.69300002 -0.034021679 1.939313e-39 288 268
-0.037666857 0.69300002 -0.034021679 1.8471174e-39 289 268
-0.036346599 0.69099998 -0.033923492 1.5716067e-39 290 268
-0.035135046 0.69099998 -0.033923492 1.4794124e-39 291 268
-0.033923492 0.69099998 -0.033923492 1.3865008e-39 292 268
-0.032711938 0.69099998 -0.033923492 1.3865008e-39 293 268
-0.031500384 0.69099998 -0.033923492 1.569813e-39 294 268
-0.030288832 0.69099998 -0.033923492 1.4776188e-39 295 268
-0.029077278 0.69099998 -0.033923492 1.4776188e-39 296 268
-0.027946379 0.69300002 -0.034021679 1.4776188e-39 297 268
-0.02673132 0.69300002 -0.034021679 1.4776188e-39 298 268
-0.02551626 0.69300002 -0.034021679 1.4776188e-39 299 268
-0.024336265 0.69400001 -0.034070771 1.4772601e-39 300 268
-0.023119451 0.69400001 -0.034070771 1.4772601e-39 301 268
-0.021902639 0.69400001 -0.034070771 1.4772601e-39 302 268
-0.020685827 0.69400001 -0.034070771 1.5694543e-39 303 268
-0.019553173 0.69700003 -0.034218054 1.5694543e-39 304 268
-0.018331099 0.69700003 -0.034218054 1.4772601e-39 305 268
-0.017109027 0.69700003 -0.034218054 1.5694543e-39 306 268
-0.015909746 0.69800001 -0.034267146 1.5694543e-39 307 268
-0.01466488 0.69700003 -0.034218054 1.5694543e-39 308 268
-0.013442807 0.69700003 -0.034218054 1.5694543e-39 309 268
-0.012238266 0.69800001 -0.034267146 1.569813e-39 310 268
-0.01101444 0.69800001 -0.034267146 1.569813e-39 311 268
-0.0097906133 0.69800001 -0.034267146 1.5694543e-39 312 268
-0.0085913334 0.69999999 -0.034365334 1.4772601e-39 313 268
-0.0073639993 0.69999999 -0.034365334 1.386142e-39 314 268
-0.0061366665 0.69999999 -0.034365334 1.386142e-39 315 268
-0.0049093333 0.69999999 -0.034365334 1.569813e-39 316 268
-0.0036819996 0.69999999 -0.034365334 1.569813e-39 317 268
-0.0024581731 0.70099998 -0.034414422 1.4776188e-39 318 268
-0.0012290865 0.70099998 -0.034414422 1.4776188e-39 319 268
0 0.70300001 -0.034512613 1.7531253e-39 320 268
0.0012343467 0.704 -0.034561705 1.7531253e-39 321 268
0.0024686933 0.704 -0.034561705 1.753484e-39 322 268
0.0037135598 0.70599997 -0.034659892 1.753484e-39 323 268
0.0049654399 0.708 -0.034758076 1.8456782e-39 324 268
0.0062243328 0.70999998 -0.034856264 1.8456782e-39 325 268
0.0074691991 0.70999998 -0.034856264 1.8456782e-39 326 268
0.0087263398 0.71100003 -0.034905359 1.8456782e-39 327 268
0.010001013 0.713 -0.035003547 1.662366e-39 328 268
0.011266919 0.71399999 -0.035052639 1.662366e-39 329 268
0.012518799 0.71399999 -0.035052639 1.8453195e-39 330 268
0.013809253 0.71600002 -0.035150826 1.8453195e-39 331 268
0.01506464 0.71600002 -0.035150826 1.6620072e-39 332 268
0.016320027 0.71600002 -0.035150826 1.7542029e-39 333 268
0.017599959 0.71700001 -0.035199918 1.7549217e-39 334 268
0.018857099 0.71700001 -0.035199918 1.7549217e-39 335 268
0.020114239 0.71700001 -0.035199918 1.6623702e-39 336 268
0.021430992 0.71899998 -0.035298105 1.7545658e-39 337 268
0.022786319 0.722 -0.035445385 2.0304296e-39 338 268
0.024085538 0.72299999 -0.035494477 2.1226253e-39 339 268
0.025353199 0.72299999 -0.035494477 2.1229812e-39 340 268
0.026694499 0.72500002 -0.035592668 2.2151768e-39 341 268
0.028042812 0.727 -0.035690852 2.3970499e-39 342 268
0.029357811 0.72799999 -0.035739943 3.5955917e-39 343 268
0.030634239 0.72799999 -0.035739943 9.3996004e-39 344 268
-0.062194239 0.73900002 -0.037575684 1.2163667e-38 272 269
-0.060898528 0.73900002 -0.037575684 5.8947245e-39 273 269
-0.059602812 0.73900002 -0.037575684 2.8626958e-39 274 269
-0.0583071 0.73900002 -0.037575684 3.5080652e-39 275 269
-0.057011388 0.73900002 -0.037575684 3.3218691e-39 276 269
-0.055640277 0.73799998 -0.037524838 2.6765025e-39 277 269
-0.054346316 0.73799998 -0.037524838 2.2158901e-39 278 269
-0.053052358 0.73799998 -0.037524838 1.7549189e-39 279 269
-0.051758397 0.73799998 -0.037524838 1.2946653e-39 280 269
-0.050464436 0.73799998 -0.037524838 1.3868595e-39 281 269
-0.049037226 0.736 -0.037423145 2.0304268e-39 282 269
-0.047746774 0.736 -0.037423145 2.3995695e-39 283 269
-0.046456318 0.736 -0.037423145 2.3995695e-39 284 269
-0.042772565 0.69700003 -0.035440128 2.3073738e-39 285 269
-0.041490879 0.69599998 -0.035389278 2.3984891e-39 286 269
-0.040270556 0.69599998 -0.035389278 2.214458e-39 287 269
-0.03888192 0.69300002 -0.035236739 1.8471174e-39 288 269
-0.037666857 0.69300002 -0.035236739 1.8471174e-39 289 269
-0.036451802 0.69300002 -0.035236739 1.4790579e-39 290 269
-0.035135046 0.69099998 -0.035135046 1.4790579e-39 291 269
-0.033923492 0.69099998 -0.035135046 1.3865008e-39 292 269
-0.03280662 0.69300002 -0.035236739 1.2939478e-39 293 269
-0.031591557 0.69300002 -0.035236739 1.4776188e-39 294 269
-0.0303765 0.69300002 -0.035236739 1.4776188e-39 295 269
-0.029161438 0.69300002 -0.035236739 1.4772601e-39 296 269
-0.027946379 0.69300002 -0.035236739 1.4772601e-39 297 269
-0.02673132 0.69300002 -0.035236739 1.5690955e-39 298 269
-0.025553079 0.69400001 -0.035287585 1.5690955e-39 299 269
-0.024336265 0.69400001 -0.035287585 1.4776188e-39 300 269
-0.023119451 0.69400001 -0.035287585 1.4776188e-39 301 269
-0.021965759 0.69599998 -0.035389278 1.386142e-39 302 269
-0.020745439 0.69599998 -0.035389278 1.386142e-39 303 269
-0.019553173 0.69700003 -0.035440128 1.5694543e-39 304 269
-0.018331099 0.69700003 -0.035440128 1.4772601e-39 305 269
-0.017133573 0.69800001 -0.035490975 1.4772601e-39 306 269
-0.015909746 0.69800001 -0.035490975 1.5694543e-39 307 269
-0.01468592 0.69800001 -0.035490975 1.5694543e-39 308 269
-0.013462093 0.69800001 -0.035490975 1.5694543e-39 309 269
-0.012238266 0.69800001 -0.035490975 1.386142e-39 310 269
-0.01101444 0.69800001 -0.035490975 1.386142e-39 311 269
-0.0097906133 0.69800001 -0.035490975 1.5694543e-39 312 269
-0.0085913334 0.69999999 -0.035592664 1.4772601e-39 313 269
-0.0073639993 0.69999999 -0.035592664 1.5687368e-39 314 269
-0.0061366665 0.69999999 -0.035592664 1.7531253e-39 315 269
-0.0049093333 0.69999999 -0.035592664 1.569813e-39 316 269
-0.0036872597 0.70099998 -0.035643511 1.569813e-39 317 269
-0.0024581731 0.70099998 -0.035643511 1.3865008e-39 318 269
-0.0012325933 0.70300001 -0.035745207 1.3865008e-39 319 269
0 0.70300001 -0.035745207 1.5694543e-39 320 269
0.0012343467 0.704 -0.035796054 1.5694543e-39 321 269
0.0024757064 0.70599997 -0.035897743 1.753484e-39 322 269
0.0037188199 0.70700002 -0.035948593 1.753484e-39 323 269
0.0049654399 0.708 -0.03599944 1.8456782e-39 324 269
0.0062243328 0.70999998 -0.036101133 1.8456782e-39 325 269
0.0074691991 0.70999998 -0.036101133 1.937155e-39 326 269
0.0087263398 0.71100003 -0.036151983 1.937155e-39 327 269
0.010001013 0.713 -0.036253672 1.8453195e-39 328 269
0.011266919 0.71399999 -0.036304519 1.8453195e-39 329 269
0.012518799 0.71399999 -0.036304519 1.6620072e-39 330 269
0.013809253 0.71600002 -0.036406212 1.6620072e-39 331 269
0.01506464 0.71600002 -0.036406212 1.6620072e-39 332 269
0.016320027 0.71600002 -0.036406212 1.7542015e-39 333 269
0.017599959 0.71700001 -0.036457058 1.7542029e-39 334 269
0.018857099 0.71700001 -0.036457058 1.7542029e-39 335 269
0.020114239 0.71700001 -0.036457058 2.0297108e-39 336 269
0.021430992 0.71899998 -0.036558751 2.0297108e-39 337 269
0.022786319 0.722 -0.03671129 2.0304296e-39 338 269
0.024085538 0.72299999 -0.036762137 2.1226253e-39 339 269
0.025353199 0.72299999 -0.036762137 2.214458e-39 340 269
0.026620859 0.72299999 -0.036762137 2.3984891e-39 341 269
0.027965667 0.72500002 -0.036863834 2.7651108e-39 342 269
0.029317487 0.727 -0.036965527 3.778904e-39 343 269
0.030592158 0.727 -0.036965527 8.9386223e-39 344 269
-0.062194239 0.73900002 -0.0388714 1.2256586e-38 272 270
-0.060898528 0.73900002 -0.0388714 6.1720345e-39 273 270
-0.059602812 0.73900002 -0.0388714 3.1382065e-39 274 270
-0.0583071 0.73900002 -0.0388714 3.7835759e-39 275 270
-0.057011388 0.73900002 -0.0388714 3.4137018e-39 276 270
-0.055640277 0.73799998 -0.038818799 3.0445619e-39 277 270
-0.054346316 0.73799998 -0.038818799 2.4913966e-39 278 270
-0.053052358 0.73799998 -0.038818799 2.1229784e-39 279 270
-0.051758397 0.73799998 -0.038818799 1.3865008e-39 280 270
-0.050464436 0.73799998 -0.038818799 1.6630834e-39 281 270
-0.049170475 0.73799998 -0.038818799 1.9393102e-39 282 270
-0.047876518 0.73799998 -0.038818799 2.4002883e-39 283 270
-0.043994639 0.69700003 -0.036662199 2.3995667e-39 284 270
-0.042772565 0.69700003 -0.036662199 2.307371e-39 285 270
-0.041490879 0.69599998 -0.036609598 2.1226253e-39 286 270
-0.040270556 0.69599998 -0.036609598 2.0304296e-39 287 270
-0.03888192 0.69300002 -0.036451802 1.7545658e-39 288 270
-0.037666857 0.69300002 -0.036451802 1.7545658e-39 289 270
-0.036451802 0.69300002 -0.036451802 1.4790551e-39 290 270
-0.035236739 0.69300002 -0.036451802 1.3868595e-39 291 270
-0.034021679 0.69300002 -0.036451802 1.3865008e-39 292 270
-0.03280662 0.69300002 -0.036451802 1.2939478e-39 293 270
-0.031591557 0.69300002 -0.036451802 1.2939478e-39 294 270
-0.0303765 0.69300002 -0.036451802 1.2939478e-39 295 270
-0.029161438 0.69300002 -0.036451802 1.4772601e-39 296 270
-0.027946379 0.69300002 -0.036451802 1.4772601e-39 297 270
-0.026769891 0.69400001 -0.036504399 1.5690955e-39 298 270
-0.025553079 0.69400001 -0.036504399 1.5690955e-39 299 270
-0.024336265 0.69400001 -0.036504399 1.2943065e-39 300 270
-0.023119451 0.69400001 -0.036504399 1.2943065e-39 301 270
-0.021965759 0.69599998 -0.036609598 1.4776188e-39 302 270
-0.020745439 0.69599998 -0.036609598 1.569813e-39 303 270
-0.019553173 0.69700003 -0.036662199 1.2939478e-39 304 270
-0.018331099 0.69700003 -0.036662199 1.2939478e-39 305 270
-0.017133573 0.69800001 -0.0367148 1.2939478e-39 306 270
-0.015909746 0.69800001 -0.0367148 1.5705305e-39 307 270
-0.01468592 0.69800001 -0.0367148 1.3865008e-39 308 270
-0.013462093 0.69800001 -0.0367148 1.3865008e-39 309 270
-0.012238266 0.69800001 -0.0367148 1.569813e-39 310 270
-0.01101444 0.69800001 -0.0367148 1.569813e-39 311 270
-0.0098186666 0.69999999 -0.036819998 1.7531253e-39 312 270
-0.0085913334 0.69999999 -0.036819998 1.5690955e-39 313 270
-0.0073639993 0.69999999 -0.036819998 1.7524078e-39 314 270
-0.0061366665 0.69999999 -0.036819998 1.7524078e-39 315 270
-0.0049163462 0.70099998 -0.036872596 1.4776188e-39 316 270
-0.0036872597 0.70099998 -0.036872596 1.4776188e-39 317 270
-0.0024581731 0.70099998 -0.036872596 1.3868595e-39 318 270
-0.0012343467 0.704 -0.037030395 1.3868595e-39 319 270
0 0.704 -0.037030395 1.4776188e-39 320 270
0.0012378532 0.70599997 -0.037135597 1.4776188e-39 321 270
0.0024757064 0.70599997 -0.037135597 1.8456782e-39 322 270
0.0037188199 0.70700002 -0.037188202 1.9378725e-39 323 270
0.0049654399 0.708 -0.0372408 2.1211847e-39 324 270
0.0062243328 0.70999998 -0.037345998 2.1211847e-39 325 270
0.0074691991 0.70999998 -0.037345998 1.7542015e-39 326 270
0.0087263398 0.71100003 -0.037398599 1.7542015e-39 327 270
0.010001013 0.713 -0.037503798 1.6630834e-39 328 270
0.011266919 0.71399999 -0.037556399 1.6630834e-39 329 270
0.012518799 0.71399999 -0.037556399 1.7549189e-39 330 270
0.013809253 0.71600002 -0.037661601 1.6627247e-39 331 270
0.01506464 0.71600002 -0.037661601 1.6627247e-39 332 270
0.016342819 0.71700001 -0.037714198 1.6627247e-39 333 270
0.017599959 0.71700001 -0.037714198 1.7542015e-39 334 270
0.018857099 0.71700001 -0.037714198 1.9385899e-39 335 270
0.020114239 0.71700001 -0.037714198 2.029708e-39 336 270
0.021430992 0.71899998 -0.037819397 2.029708e-39 337 270
