# .PCD v.7 - Point Cloud Data file format
FIELDS x y z rgb imX imY
SIZE 4 4 4 4 4 4
TYPE F F F F F F
COUNT 1 1 1 1 1 1
WIDTH 826
HEIGHT 1
VIEWPOINT 0 0 0 1 0 0 0
POINTS 826
DATA ascii
-0.031272452 0.68599999 -0.019244585 8.2763588e-39 294 256
-0.030069664 0.68599999 -0.019244585 7.9075749e-39 295 256
-0.02886688 0.68599999 -0.019244585 7.7199382e-39 296 256
-0.027664091 0.68599999 -0.019244585 7.0745688e-39 297 256
-0.026461305 0.68599999 -0.019244585 6.9794977e-39 298 256
-0.025184879 0.68400002 -0.01918848 6.7039912e-39 299 256
-0.0239856 0.68400002 -0.01918848 6.7039912e-39 300 256
-0.022786319 0.68400002 -0.01918848 6.7958267e-39 301 256
-0.021650158 0.68599999 -0.019244585 7.1631687e-39 302 256
-0.020387759 0.68400002 -0.01918848 7.4386766e-39 303 256
-0.01918848 0.68400002 -0.01918848 7.9896882e-39 304 256
-0.0179892 0.68400002 -0.01918848 8.1733634e-39 305 256
-0.016789921 0.68400002 -0.01918848 8.3570316e-39 306 256
-0.01559064 0.68400002 -0.01918848 8.5414228e-39 307 256
-0.01443344 0.68599999 -0.019244585 8.6346904e-39 308 256
-0.013230653 0.68599999 -0.019244585 8.7268861e-39 309 256
-0.012027865 0.68599999 -0.019244585 9.002031e-39 310 256
-0.010825079 0.68599999 -0.019244585 9.0942252e-39 311 256
-0.0096222926 0.68599999 -0.019244585 9.093149e-39 312 256
-0.0083949603 0.68400002 -0.01918848 8.8169251e-39 313 256
-0.0071956799 0.68400002 -0.01918848 8.6325366e-39 314 256
-0.0059964 0.68400002 -0.01918848 8.7243721e-39 315 256
-0.0047971201 0.68400002 -0.01918848 8.7250896e-39 316 256
-0.00359784 0.68400002 -0.01918848 8.7250896e-39 317 256
-0.0023985601 0.68400002 -0.01918848 8.3570302e-39 318 256
-0.00119928 0.68400002 -0.01918848 8.2651947e-39 319 256
0 0.68599999 -0.019244585 7.6223462e-39 320 256
0.0012045399 0.68699998 -0.019272638 7.7141817e-39 321 256
0.0024090798 0.68699998 -0.019272638 7.5305107e-39 322 256
0.0036136196 0.68699998 -0.019272638 7.5305107e-39 323 256
0.0048181596 0.68699998 -0.019272638 7.5305107e-39 324 256
0.0060226996 0.68699998 -0.019272638 7.5305107e-39 325 256
0.0072272392 0.68699998 -0.019272638 7.3468397e-39 326 256
0.0084317802 0.68699998 -0.019272638 7.3468397e-39 327 256
0.0096363192 0.68699998 -0.019272638 7.3468397e-39 328 256
0.010840859 0.68699998 -0.019272638 7.3468397e-39 329 256
0.012045399 0.68699998 -0.019272638 7.1631687e-39 330 256
0.013269227 0.68800002 -0.019300694 7.0713332e-39 331 256
0.014538639 0.69099998 -0.019384852 6.7039912e-39 332 256
0.015750192 0.69099998 -0.019384852 6.6121557e-39 333 256
0.01701084 0.69300002 -0.01944096 6.3366492e-39 334 256
0.0182522 0.69400001 -0.019469013 6.1529782e-39 335 256
0.019525118 0.69599998 -0.019525118 6.1529782e-39 336 256
0.020745439 0.69599998 -0.019525118 6.1529782e-39 337 256
0.021965759 0.69599998 -0.019525118 5.9693073e-39 338 256
0.023252707 0.69800001 -0.019581227 6.2448137e-39 339 256
0.024546666 0.69999999 -0.019637333 6.5224726e-39 340 256
0.025884461 0.70300001 -0.019721493 6.8916097e-39 341 256
0.027117053 0.70300001 -0.019721493 7.0767198e-39 342 256
0.028389972 0.704 -0.019749546 7.1689168e-39 343 256
0.029624319 0.704 -0.019749546 7.9053861e-39 344 256
0.030946331 0.70599997 -0.019805651 1.0486864e-38 345 256
0.032184184 0.70599997 -0.019805651 1.3633737e-38 346 256
-0.055861197 0.708 -0.021103119 6.8091306e-39 275 257
-0.054542694 0.70700002 -0.021073313 7.9983202e-39 276 257
-0.053227689 0.70599997 -0.021043506 7.722092e-39 277 257
-0.051842559 0.704 -0.020983893 7.167842e-39 278 257
-0.050608214 0.704 -0.020983893 6.7990609e-39 279 257
-0.049163464 0.70099998 -0.020894472 6.3388016e-39 280 257
-0.047865998 0.69999999 -0.020864666 6.1544132e-39 281 257
-0.046505414 0.69800001 -0.020805053 6.2466088e-39 282 257
-0.045151837 0.69599998 -0.020745439 6.2466088e-39 283 257
-0.043805279 0.69400001 -0.020685827 6.2458899e-39 284 257
-0.042527102 0.69300002 -0.020656019 6.2458899e-39 285 257
-0.041133199 0.69 -0.020566599 6.6125145e-39 286 257
-0.039807681 0.68800002 -0.020506985 6.4284847e-39 287 257
-0.038545277 0.68699998 -0.020477179 6.4284959e-39 288 257
-0.037340738 0.68699998 -0.020477179 6.7972785e-39 289 257
-0.036136195 0.68699998 -0.020477179 6.9827669e-39 290 257
-0.034880809 0.68599999 -0.020447372 7.5359407e-39 291 257
-0.033678025 0.68599999 -0.020447372 7.5373869e-39 292 257
-0.032475237 0.68599999 -0.020447372 8.2749519e-39 293 257
-0.031272452 0.68599999 -0.020447372 8.278528e-39 294 257
-0.030069664 0.68599999 -0.020447372 7.7253556e-39 295 257
-0.02886688 0.68599999 -0.020447372 7.5369945e-39 296 257
-0.027664091 0.68599999 -0.020447372 6.7072338e-39 297 257
-0.02638416 0.68400002 -0.020387759 6.887665e-39 298 257
-0.025184879 0.68400002 -0.020387759 6.5203202e-39 299 257
-0.0239856 0.68400002 -0.020387759 6.5203202e-39 300 257
-0.022786319 0.68400002 -0.020387759 6.7039912e-39 301 257
-0.02158704 0.68400002 -0.020387759 7.0713332e-39 302 257
-0.020387759 0.68400002 -0.020387759 7.1631687e-39 303 257
-0.01918848 0.68400002 -0.020387759 7.9896882e-39 304 257
-0.0179892 0.68400002 -0.020387759 8.0815237e-39 305 257
-0.016789921 0.68400002 -0.020387759 8.2651947e-39 306 257
-0.01559064 0.68400002 -0.020387759 8.5407039e-39 307 257
-0.01439136 0.68400002 -0.020387759 8.3577518e-39 308 257
-0.01319208 0.68400002 -0.020387759 8.6343373e-39 309 257
-0.012027865 0.68599999 -0.020447372 8.6346904e-39 310 257
-0.01079352 0.68400002 -0.020387759 8.6346904e-39 311 257
-0.0095942402 0.68400002 -0.020387759 8.5407011e-39 312 257
-0.0083949603 0.68400002 -0.020387759 8.2651947e-39 313 257
-0.0071956799 0.68400002 -0.020387759 8.3570302e-39 314 257
-0.0059964 0.68400002 -0.020387759 8.5407011e-39 315 257
-0.0047971201 0.68400002 -0.020387759 8.2651947e-39 316 257
-0.0035925799 0.68300003 -0.020357953 8.0815237e-39 317 257
-0.0023950534 0.68300003 -0.020357953 7.9896882e-39 318 257
-0.00119928 0.68400002 -0.020387759 7.6223462e-39 319 257
0 0.68599999 -0.020447372 7.2550042e-39 320 257
0.0012027866 0.68599999 -0.020447372 7.3468397e-39 321 257
0.0024055731 0.68599999 -0.020447372 7.0713332e-39 322 257
0.00360836 0.68599999 -0.020447372 7.0713332e-39 323 257
0.0048181596 0.68699998 -0.020477179 7.0713332e-39 324 257
0.0060226996 0.68699998 -0.020477179 7.0713332e-39 325 257
0.0072272392 0.68699998 -0.020477179 6.9794977e-39 326 257
0.0084317802 0.68699998 -0.020477179 6.9794977e-39 327 257
0.0096363192 0.68699998 -0.020477179 6.9794977e-39 328 257
0.010840859 0.68699998 -0.020477179 6.9794977e-39 329 257
0.012045399 0.68699998 -0.020477179 6.8876622e-39 330 257
0.013269227 0.68800002 -0.020506985 6.8876622e-39 331 257
0.014538639 0.69099998 -0.020596405 6.4284847e-39 332 257
0.015750192 0.69099998 -0.020596405 6.4284847e-39 333 257
0.01701084 0.69300002 -0.020656019 6.1529782e-39 334 257
0.0182522 0.69400001 -0.020685827 6.1529782e-39 335 257
0.019469013 0.69400001 -0.020685827 5.8774718e-39 336 257
0.020745439 0.69599998 -0.020745439 5.9693073e-39 337 257
0.02199732 0.69700003 -0.020775247 5.9693073e-39 338 257
0.023319334 0.69999999 -0.020864666 6.245534e-39 339 257
0.024651866 0.70300001 -0.020954086 6.3409568e-39 340 257
0.025884461 0.70300001 -0.020954086 6.7093792e-39 341 257
0.027117053 0.70300001 -0.020954086 6.9859703e-39 342 257
0.028389972 0.704 -0.020983893 6.9859703e-39 343 257
0.029624319 0.704 -0.020983893 8.3678117e-39 344 257
0.030946331 0.70599997 -0.021043506 1.1041485e-38 345 257
0.032184184 0.70599997 -0.021043506 1.391033e-38 346 257
0.033422034 0.70599997 -0.021043506 1.4463504e-38 347 257
-0.055861197 0.708 -0.022344479 6.9016864e-39 275 258
-0.054542694 0.70700002 -0.022312919 7.9994048e-39 276 258
-0.053303085 0.70700002 -0.022312919 7.7224591e-39 277 258
-0.051989835 0.70599997 -0.022281358 7.0763695e-39 278 258
-0.050751984 0.70599997 -0.022281358 6.7072282e-39 279 258
-0.049373865 0.704 -0.022218239 6.4310001e-39 280 258
-0.047865998 0.69999999 -0.022091998 6.3388044e-39 281 258
-0.046438783 0.69700003 -0.02199732 6.3388044e-39 282 258
-0.045151837 0.69599998 -0.021965759 6.2466088e-39 283 258
-0.043805279 0.69400001 -0.021902639 6.2458899e-39 284 258
-0.042527102 0.69300002 -0.021871079 6.2458899e-39 285 258
-0.041192811 0.69099998 -0.021807959 6.6121557e-39 286 258
-0.039807681 0.68800002 -0.021713281 6.5203202e-39 287 258
-0.038545277 0.68699998 -0.021681719 6.3366534e-39 288 258
-0.037340738 0.68699998 -0.021681719 6.4288491e-39 289 258
-0.036136195 0.68699998 -0.021681719 6.7969253e-39 290 258
-0.034880809 0.68599999 -0.021650158 7.073871e-39 291 258
-0.033678025 0.68599999 -0.021650158 7.3508278e-39 292 258
-0.032475237 0.68599999 -0.021650158 7.9961972e-39 293 258
-0.031272452 0.68599999 -0.021650158 7.9061526e-39 294 258
-0.030069664 0.68599999 -0.021650158 7.6292069e-39 295 258
-0.02886688 0.68599999 -0.021650158 7.4426465e-39 296 258
-0.027664091 0.68599999 -0.021650158 6.6132459e-39 297 258
-0.02638416 0.68400002 -0.02158704 6.7958323e-39 298 258
-0.025184879 0.68400002 -0.02158704 6.6121571e-39 299 258
-0.0239856 0.68400002 -0.02158704 6.7039912e-39 300 258
-0.022786319 0.68400002 -0.02158704 6.7958267e-39 301 258
-0.02158704 0.68400002 -0.02158704 7.1631687e-39 302 258
-0.020387759 0.68400002 -0.02158704 7.3468425e-39 303 258
-0.01918848 0.68400002 -0.02158704 7.6234266e-39 304 258
-0.0179892 0.68400002 -0.02158704 7.7156222e-39 305 258
-0.016789921 0.68400002 -0.02158704 7.7156222e-39 306 258
-0.01559064 0.68400002 -0.02158704 7.3471984e-39 307 258
-0.01439136 0.68400002 -0.02158704 8.0815279e-39 308 258
-0.01319208 0.68400002 -0.02158704 8.0815279e-39 309 258
-0.0119928 0.68400002 -0.02158704 8.2651947e-39 310 258
-0.01077774 0.68300003 -0.02155548 8.1733592e-39 311 258
-0.0095802136 0.68300003 -0.02155548 8.1733592e-39 312 258
-0.0083826864 0.68300003 -0.02155548 8.0815237e-39 313 258
-0.0071851597 0.68300003 -0.02155548 7.8060172e-39 314 258
-0.0059876335 0.68300003 -0.02155548 7.8060172e-39 315 258
-0.0047901068 0.68300003 -0.02155548 8.0815237e-39 316 258
-0.0035925799 0.68300003 -0.02155548 7.8978527e-39 317 258
-0.0023950534 0.68300003 -0.02155548 7.8060172e-39 318 258
-0.0011975267 0.68300003 -0.02155548 7.7141817e-39 319 258
0 0.68400002 -0.02158704 7.1631687e-39 320 258
0.0012027866 0.68599999 -0.021650158 7.2550042e-39 321 258
0.0024055731 0.68599999 -0.021650158 6.9794977e-39 322 258
0.00360836 0.68599999 -0.021650158 6.9794977e-39 323 258
0.0048111463 0.68599999 -0.021650158 6.8876622e-39 324 258
0.0060226996 0.68699998 -0.021681719 6.8876622e-39 325 258
0.0072272392 0.68699998 -0.021681719 6.7958267e-39 326 258
0.0084195063 0.68599999 -0.021650158 6.8876622e-39 327 258
0.0096222926 0.68599999 -0.021650158 6.8876622e-39 328 258
0.010825079 0.68599999 -0.021650158 6.9794977e-39 329 258
0.012045399 0.68699998 -0.021681719 6.6121557e-39 330 258
0.013269227 0.68800002 -0.021713281 6.6121557e-39 331 258
0.014517599 0.69 -0.021776399 6.3366492e-39 332 258
0.015750192 0.69099998 -0.021807959 6.3366492e-39 333 258
0.01701084 0.69300002 -0.021871079 6.0611427e-39 334 258
0.0182522 0.69400001 -0.021902639 6.0611427e-39 335 258
0.019469013 0.69400001 -0.021902639 5.7856363e-39 336 258
0.020745439 0.69599998 -0.021965759 5.8774718e-39 337 258
0.021965759 0.69599998 -0.021965759 5.969666e-39 338 258
0.023252707 0.69800001 -0.02202888 6.3388072e-39 339 258
0.024651866 0.70300001 -0.02218668 6.4338741e-39 340 258
0.025884461 0.70300001 -0.02218668 6.8022979e-39 341 258
0.027117053 0.70300001 -0.02218668 6.9863234e-39 342 258
0.028389972 0.704 -0.022218239 6.5249851e-39 343 258
0.029624319 0.704 -0.022218239 8.8295032e-39 344 258
0.030946331 0.70599997 -0.022281358 1.1872319e-38 345 258
0.032184184 0.70599997 -0.022281358 1.391033e-38 346 258
-0.055861197 0.708 -0.023585839 7.1782705e-39 275 259
-0.054619838 0.708 -0.023585839 8.2734679e-39 276 259
-0.053303085 0.70700002 -0.023552528 8.2734679e-39 277 259
-0.05206348 0.70700002 -0.023552528 7.5359001e-39 278 259
-0.050751984 0.70599997 -0.023519212 7.1671176e-39 279 259
-0.049373865 0.704 -0.023452586 6.6153843e-39 280 259
-0.047865998 0.69999999 -0.023319334 6.4313546e-39 281 259
-0.046438783 0.69700003 -0.023219392 6.4302784e-39 282 259
-0.045151837 0.69599998 -0.023186078 6.5224726e-39 283 259
-0.043805279 0.69400001 -0.023119451 6.4295609e-39 284 259
-0.042527102 0.69300002 -0.02308614 6.3373667e-39 285 259
-0.041192811 0.69099998 -0.023019511 6.5203202e-39 286 259
-0.039807681 0.68800002 -0.022919573 6.4284847e-39 287 259
-0.038601387 0.68800002 -0.022919573 6.0611455e-39 288 259
-0.037340738 0.68699998 -0.022886258 6.1533412e-39 289 259
-0.036136195 0.68699998 -0.022886258 6.2451893e-39 290 259
-0.034880809 0.68599999 -0.022852944 6.4292204e-39 291 259
-0.033678025 0.68599999 -0.022852944 6.5221587e-39 292 259
-0.032475237 0.68599999 -0.022852944 6.8909398e-39 293 259
-0.031272452 0.68599999 -0.022852944 6.8920203e-39 294 259
-0.030069664 0.68599999 -0.022852944 6.6150732e-39 295 259
-0.02878272 0.68400002 -0.022786319 6.7058115e-39 296 259
-0.027583439 0.68400002 -0.022786319 6.1529965e-39 297 259
-0.02638416 0.68400002 -0.022786319 6.2448207e-39 298 259
-0.025184879 0.68400002 -0.022786319 6.0611455e-39 299 259
-0.0239856 0.68400002 -0.022786319 6.1529824e-39 300 259
-0.022786319 0.68400002 -0.022786319 6.2448207e-39 301 259
-0.02158704 0.68400002 -0.022786319 6.7961897e-39 302 259
-0.020387759 0.68400002 -0.022786319 7.2571678e-39 303 259
-0.01918848 0.68400002 -0.022786319 7.4419122e-39 304 259
-0.0179892 0.68400002 -0.022786319 7.3497166e-39 305 259
-0.016789921 0.68400002 -0.022786319 7.6234266e-39 306 259
-0.01559064 0.68400002 -0.022786319 7.3471984e-39 307 259
-0.01439136 0.68400002 -0.022786319 7.438678e-39 308 259
-0.01319208 0.68400002 -0.022786319 7.438678e-39 309 259
-0.0119928 0.68400002 -0.022786319 7.3468439e-39 310 259
-0.01077774 0.68300003 -0.022753006 7.255007e-39 311 259
-0.0095802136 0.68300003 -0.022753006 7.4386752e-39 312 259
-0.0083826864 0.68300003 -0.022753006 7.5305121e-39 313 259
-0.0071851597 0.68300003 -0.022753006 7.6223462e-39 314 259
-0.0059876335 0.68300003 -0.022753006 7.7141817e-39 315 259
-0.0047901068 0.68300003 -0.022753006 7.6223462e-39 316 259
-0.0035925799 0.68300003 -0.022753006 7.5305107e-39 317 259
-0.0023950534 0.68300003 -0.022753006 7.1631687e-39 318 259
-0.0011975267 0.68300003 -0.022753006 7.1631687e-39 319 259
0 0.68400002 -0.022786319 6.8876622e-39 320 259
0.00119928 0.68400002 -0.022786319 6.8876622e-39 321 259
0.0024055731 0.68599999 -0.022852944 6.6121557e-39 322 259
0.00360836 0.68599999 -0.022852944 6.6121557e-39 323 259
0.0048111463 0.68599999 -0.022852944 6.3366492e-39 324 259
0.0060226996 0.68699998 -0.022886258 6.3366492e-39 325 259
0.0072272392 0.68699998 -0.022886258 6.5203202e-39 326 259
0.0084195063 0.68599999 -0.022852944 6.5203202e-39 327 259
0.0096222926 0.68599999 -0.022852944 6.6121557e-39 328 259
0.010825079 0.68599999 -0.022852944 6.6121557e-39 329 259
0.012045399 0.68699998 -0.022886258 6.4284847e-39 330 259
0.013269227 0.68800002 -0.022919573 6.4284847e-39 331 259
0.014517599 0.69 -0.022986198 6.1529782e-39 332 259
0.015727401 0.69 -0.022986198 6.1529782e-39 333 259
0.01701084 0.69300002 -0.02308614 5.9693073e-39 334 259
0.0182522 0.69400001 -0.023119451 5.9693073e-39 335 259
0.019469013 0.69400001 -0.023119451 5.9693073e-39 336 259
0.020745439 0.69599998 -0.023186078 6.0615015e-39 337 259
0.021965759 0.69599998 -0.023186078 6.1544132e-39 338 259
0.023252707 0.69800001 -0.023252707 6.7072282e-39 339 259
0.024686933 0.704 -0.023452586 6.4345902e-39 340 259
0.02592128 0.704 -0.023452586 6.8037328e-39 341 259
0.027155625 0.704 -0.023452586 7.1681924e-39 342 259
0.028389972 0.704 -0.023452586 5.969666e-39 343 259
0.029624319 0.704 -0.023452586 9.4745068e-39 344 259
0.030858666 0.704 -0.023452586 1.3162331e-38 345 259
0.032093015 0.704 -0.023452586 1.4093642e-38 346 259
-0.056018997 0.70999998 -0.024897331 7.5488481e-39 275 260
-0.054619838 0.708 -0.024827199 8.0901501e-39 276 260
-0.053303085 0.70700002 -0.024792133 7.9057574e-39 277 260
-0.05206348 0.70700002 -0.024792133 7.1703546e-39 278 260
-0.050823875 0.70700002 -0.024792133 6.7097351e-39 279 260
-0.04951413 0.70599997 -0.024757065 6.524988e-39 280 260
-0.047934376 0.70099998 -0.024581732 6.2487612e-39 281 260
-0.046505414 0.69800001 -0.024476532 6.3395233e-39 282 260
-0.045151837 0.69599998 -0.0244064 6.2473277e-39 283 260
-0.043805279 0.69400001 -0.024336265 6.4299211e-39 284 260
-0.042527102 0.69300002 -0.024301201 6.2458899e-39 285 260
-0.041192811 0.69099998 -0.024231065 6.3366492e-39 286 260
-0.0399234 0.69 -0.024195999 6.3366492e-39 287 260
-0.038601387 0.68800002 -0.024125867 5.969666e-39 288 260
-0.037340738 0.68699998 -0.024090799 5.969666e-39 289 260
-0.036136195 0.68699998 -0.024090799 6.1533384e-39 290 260
-0.034880809 0.68599999 -0.024055731 6.245534e-39 291 260
-0.033678025 0.68599999 -0.024055731 6.5210503e-39 292 260
-0.032475237 0.68599999 -0.024055731 6.7972785e-39 293 260
-0.031272452 0.68599999 -0.024055731 6.888758e-39 294 260
-0.030069664 0.68599999 -0.024055731 6.796561e-39 295 260
-0.02878272 0.68400002 -0.0239856 6.6121641e-39 296 260
-0.027583439 0.68400002 -0.0239856 6.2448179e-39 297 260
-0.02638416 0.68400002 -0.0239856 6.1529782e-39 298 260
-0.025184879 0.68400002 -0.0239856 6.0611427e-39 299 260
-0.0239856 0.68400002 -0.0239856 6.4284847e-39 300 260
-0.022786319 0.68400002 -0.0239856 6.4284847e-39 301 260
-0.02158704 0.68400002 -0.0239856 6.7961897e-39 302 260
-0.020387759 0.68400002 -0.0239856 7.3493634e-39 303 260
-0.01918848 0.68400002 -0.0239856 7.5351938e-39 304 260
-0.017962901 0.68300003 -0.023950534 7.2589657e-39 305 260
-0.016765373 0.68300003 -0.023950534 7.5330316e-39 306 260
-0.015567848 0.68300003 -0.023950534 6.8876622e-39 307 260
-0.014370319 0.68300003 -0.023950534 7.1631687e-39 308 260
-0.013172794 0.68300003 -0.023950534 7.0713332e-39 309 260
-0.011975267 0.68300003 -0.023950534 7.2550042e-39 310 260
-0.01077774 0.68300003 -0.023950534 7.1631687e-39 311 260
-0.0095802136 0.68300003 -0.023950534 7.4386752e-39 312 260
-0.0083826864 0.68300003 -0.023950534 7.4386752e-39 313 260
-0.0071851597 0.68300003 -0.023950534 7.4386752e-39 314 260
-0.0059876335 0.68300003 -0.023950534 7.3468397e-39 315 260
-0.0047901068 0.68300003 -0.023950534 7.4386752e-39 316 260
-0.00358732 0.68199998 -0.023915464 7.2550042e-39 317 260
-0.0023915465 0.68199998 -0.023915464 7.1631687e-39 318 260
-0.0011957732 0.68199998 -0.023915464 7.0713332e-39 319 260
0 0.68300003 -0.023950534 6.6121557e-39 320 260
0.00119928 0.68400002 -0.0239856 6.6121557e-39 321 260
0.0023985601 0.68400002 -0.0239856 6.3366492e-39 322 260
0.00360836 0.68599999 -0.024055731 6.3366492e-39 323 260
0.0048111463 0.68599999 -0.024055731 6.1529782e-39 324 260
0.0060226996 0.68699998 -0.024090799 6.1529782e-39 325 260
0.0072272392 0.68699998 -0.024090799 6.4284847e-39 326 260
0.0084195063 0.68599999 -0.024055731 6.5203202e-39 327 260
0.0096222926 0.68599999 -0.024055731 6.5203202e-39 328 260
0.010840859 0.68699998 -0.024090799 6.6121557e-39 329 260
0.012045399 0.68699998 -0.024090799 6.3366492e-39 330 260
0.013269227 0.68800002 -0.024125867 6.4284847e-39 331 260
0.014517599 0.69 -0.024195999 5.9693073e-39 332 260
0.015727401 0.69 -0.024195999 6.2448137e-39 333 260
0.01701084 0.69300002 -0.024301201 5.9700247e-39 334 260
0.0182522 0.69400001 -0.024336265 5.785995e-39 335 260
0.019469013 0.69400001 -0.024336265 5.969666e-39 336 260
0.020745439 0.69599998 -0.0244064 5.969666e-39 337 260
0.021965759 0.69599998 -0.0244064 6.3388044e-39 338 260
0.023186078 0.69599998 -0.0244064 6.8919782e-39 339 260
0.024686933 0.704 -0.024686933 6.7115344e-39 340 260
0.02592128 0.704 -0.024686933 6.80373e-39 341 260
0.027155625 0.704 -0.024686933 7.0745618e-39 342 260
0.028389972 0.704 -0.024686933 5.9693073e-39 343 260
0.029624319 0.704 -0.024686933 9.9372856e-39 344 260
0.030858666 0.704 -0.024686933 1.4086089e-38 345 260
-0.054619838 0.708 -0.026068559 8.641156e-39 276 261
-0.053378478 0.708 -0.026068559 8.3645677e-39 277 261
-0.05206348 0.70700002 -0.02603174 7.7213633e-39 278 261
-0.050823875 0.70700002 -0.02603174 7.2603852e-39 279 261
-0.04951413 0.70599997 -0.025994917 6.6168192e-39 280 261
-0.048139516 0.704 -0.02592128 6.524625e-39 281 261
-0.046505414 0.69800001 -0.025700359 6.7068625e-39 282 261
-0.045151837 0.69599998 -0.025626717 6.6146669e-39 283 261
-0.043805279 0.69400001 -0.025553079 6.7972616e-39 284 261
-0.042527102 0.69300002 -0.02551626 6.6128732e-39 285 261
-0.041192811 0.69099998 -0.025442619 6.4284847e-39 286 261
-0.0399234 0.69 -0.025405798 6.3366492e-39 287 261
-0.038601387 0.68800002 -0.02533216 5.969666e-39 288 261
-0.037340738 0.68699998 -0.025295338 6.0618616e-39 289 261
-0.036136195 0.68699998 -0.025295338 5.9693129e-39 290 261
-0.034880809 0.68599999 -0.025258519 5.9693129e-39 291 261
-0.033678025 0.68599999 -0.025258519 5.9693199e-39 292 261
-0.032475237 0.68599999 -0.025258519 6.0611568e-39 293 261
-0.031272452 0.68599999 -0.025258519 6.1529965e-39 294 261
-0.030069664 0.68599999 -0.025258519 6.0611596e-39 295 261
-0.02878272 0.68400002 -0.025184879 6.0611512e-39 296 261
-0.027583439 0.68400002 -0.025184879 5.877476e-39 297 261
-0.02638416 0.68400002 -0.025184879 5.8774718e-39 298 261
-0.025184879 0.68400002 -0.025184879 5.7856363e-39 299 261
-0.023950534 0.68300003 -0.02514806 5.8774718e-39 300 261
-0.022753006 0.68300003 -0.02514806 6.2448193e-39 301 261
-0.02158704 0.68400002 -0.025184879 6.3384541e-39 302 261
-0.020387759 0.68400002 -0.025184879 6.7990735e-39 303 261
-0.01918848 0.68400002 -0.025184879 7.0752933e-39 304 261
-0.017962901 0.68300003 -0.02514806 7.0752933e-39 305 261
-0.016765373 0.68300003 -0.02514806 6.9816543e-39 306 261
-0.015567848 0.68300003 -0.02514806 6.7050674e-39 307 261
-0.014370319 0.68300003 -0.02514806 6.7039912e-39 308 261
-0.013172794 0.68300003 -0.02514806 6.5203202e-39 309 261
-0.011975267 0.68300003 -0.02514806 6.7039912e-39 310 261
-0.01077774 0.68300003 -0.02514806 6.6121557e-39 311 261
-0.0095802136 0.68300003 -0.02514806 6.7039912e-39 312 261
-0.0083704125 0.68199998 -0.025111238 6.9794977e-39 313 261
-0.00717464 0.68199998 -0.025111238 6.9794977e-39 314 261
-0.005978866 0.68199998 -0.025111238 6.8876622e-39 315 261
-0.004783093 0.68199998 -0.025111238 6.8876622e-39 316 261
-0.00358732 0.68199998 -0.025111238 6.8876622e-39 317 261
-0.0023915465 0.68199998 -0.025111238 6.6121557e-39 318 261
-0.0011957732 0.68199998 -0.025111238 6.3366492e-39 319 261
0 0.68300003 -0.02514806 6.3366492e-39 320 261
0.0011975267 0.68300003 -0.02514806 6.3366492e-39 321 261
0.0023985601 0.68400002 -0.025184879 6.0611427e-39 322 261
0.00360836 0.68599999 -0.025258519 6.0611427e-39 323 261
0.0048111463 0.68599999 -0.025258519 5.9693073e-39 324 261
0.0060226996 0.68699998 -0.025295338 5.9693073e-39 325 261
0.0072272392 0.68699998 -0.025295338 5.9693073e-39 326 261
0.0084195063 0.68599999 -0.025258519 5.9693073e-39 327 261
0.0096222926 0.68599999 -0.025258519 6.2448137e-39 328 261
0.010840859 0.68699998 -0.025295338 6.2448137e-39 329 261
0.012045399 0.68699998 -0.025295338 6.3366492e-39 330 261
0.013269227 0.68800002 -0.02533216 6.4284847e-39 331 261
0.014475521 0.68800002 -0.02533216 6.0618602e-39 332 261
0.015681813 0.68800002 -0.02533216 6.1540544e-39 333 261
0.01701084 0.69300002 -0.02551626 6.0625777e-39 334 261
0.0182522 0.69400001 -0.025553079 5.9703834e-39 335 261
0.019469013 0.69400001 -0.025553079 6.0615015e-39 336 261
0.020775247 0.69700003 -0.025663542 6.4299211e-39 337 261
0.02199732 0.69700003 -0.025663542 6.156211e-39 338 261
0.023219392 0.69700003 -0.025663542 6.7093848e-39 339 261
0.024897331 0.70999998 -0.026142199 6.8026538e-39 340 261
0.02603174 0.70700002 -0.02603174 6.8026538e-39 341 261
0.027232772 0.70599997 -0.025994917 6.9823676e-39 342 261
0.028470624 0.70599997 -0.025994917 6.7054261e-39 343 261
0.029708479 0.70599997 -0.025994917 1.1596081e-38 344 261
0.030946331 0.70599997 -0.025994917 1.5376102e-38 345 261
-0.054619838 0.708 -0.027309919 9.2872443e-39 276 262
-0.053378478 0.708 -0.027309919 8.1808967e-39 277 262
-0.05206348 0.70700002 -0.027271347 7.7224451e-39 278 262
-0.050823875 0.70700002 -0.027271347 7.1692728e-39 279 262
-0.04951413 0.70599997 -0.027232772 6.7093792e-39 280 262
-0.048139516 0.704 -0.027155625 6.524988e-39 281 262
-0.046505414 0.69800001 -0.026924185 6.6161116e-39 282 262
-0.045216713 0.69700003 -0.026885614 6.523916e-39 283 262
-0.043805279 0.69400001 -0.026769891 6.7976274e-39 284 262
-0.042527102 0.69300002 -0.02673132 6.5214006e-39 285 262
-0.041192811 0.69099998 -0.026654173 6.4284861e-39 286 262
-0.0399234 0.69 -0.026615599 6.4284861e-39 287 262
-0.038601387 0.68800002 -0.026538454 6.0611427e-39 288 262
-0.037340738 0.68699998 -0.026499879 6.0611427e-39 289 262
-0.036136195 0.68699998 -0.026499879 5.9693073e-39 290 262
-0.034880809 0.68599999 -0.026461305 5.9693073e-39 291 262
-0.033678025 0.68599999 -0.026461305 6.1529824e-39 292 262
-0.032475237 0.68599999 -0.026461305 5.9693087e-39 293 262
-0.031272452 0.68599999 -0.026461305 5.9693115e-39 294 262
-0.030069664 0.68599999 -0.026461305 6.1529852e-39 295 262
-0.02878272 0.68400002 -0.02638416 5.9693087e-39 296 262
-0.027583439 0.68400002 -0.02638416 5.7856363e-39 297 262
-0.02638416 0.68400002 -0.02638416 5.7856363e-39 298 262
-0.025184879 0.68400002 -0.02638416 5.9693073e-39 299 262
-0.023950534 0.68300003 -0.026345588 5.8774718e-39 300 262
-0.022753006 0.68300003 -0.026345588 6.1529782e-39 301 262
-0.02158704 0.68400002 -0.02638416 6.3366534e-39 302 262
-0.020387759 0.68400002 -0.02638416 6.7976302e-39 303 262
-0.01918848 0.68400002 -0.02638416 6.9820228e-39 304 262
-0.017962901 0.68300003 -0.026345588 6.8898272e-39 305 262
-0.016765373 0.68300003 -0.026345588 6.7961925e-39 306 262
-0.015567848 0.68300003 -0.026345588 6.6121599e-39 307 262
-0.014370319 0.68300003 -0.026345588 6.6121557e-39 308 262
-0.013172794 0.68300003 -0.026345588 6.5203202e-39 309 262
-0.011975267 0.68300003 -0.026345588 6.6121557e-39 310 262
-0.01077774 0.68300003 -0.026345588 6.5203202e-39 311 262
-0.009566186 0.68199998 -0.026307013 6.7039912e-39 312 262
-0.0083704125 0.68199998 -0.026307013 6.7958267e-39 313 262
-0.00717464 0.68199998 -0.026307013 6.7039912e-39 314 262
-0.005978866 0.68199998 -0.026307013 6.6121557e-39 315 262
-0.004783093 0.68199998 -0.026307013 6.7039912e-39 316 262
-0.00358732 0.68199998 -0.026307013 6.7039912e-39 317 262
-0.0023915465 0.68199998 -0.026307013 6.5203202e-39 318 262
-0.0011957732 0.68199998 -0.026307013 6.5203202e-39 319 262
0 0.68300003 -0.026345588 6.1529782e-39 320 262
0.0011975267 0.68300003 -0.026345588 6.1529782e-39 321 262
0.0023985601 0.68400002 -0.02638416 6.1529782e-39 322 262
0.00360836 0.68599999 -0.026461305 6.0611427e-39 323 262
0.0048111463 0.68599999 -0.026461305 5.9693073e-39 324 262
0.0060226996 0.68699998 -0.026499879 5.8774718e-39 325 262
0.0072272392 0.68699998 -0.026499879 5.7856363e-39 326 262
0.0084317802 0.68699998 -0.026499879 5.7856363e-39 327 262
0.0096363192 0.68699998 -0.026499879 5.9693073e-39 328 262
0.010840859 0.68699998 -0.026499879 6.0611427e-39 329 262
0.012045399 0.68699998 -0.026499879 6.1529782e-39 330 262
0.013269227 0.68800002 -0.026538454 6.4284847e-39 331 262
0.014475521 0.68800002 -0.026538454 6.1536957e-39 332 262
0.015681813 0.68800002 -0.026538454 6.4302784e-39 333 262
0.016961746 0.69099998 -0.026654173 6.0632951e-39 334 262
0.018225901 0.69300002 -0.02673132 5.9711009e-39 335 262
0.019469013 0.69400001 -0.026769891 6.0632951e-39 336 262
0.020685827 0.69400001 -0.026769891 6.3395205e-39 337 262
0.023652466 0.70999998 -0.027387066 6.709382e-39 339 262
0.024897331 0.70999998 -0.027387066 6.8015776e-39 340 262
0.026142199 0.70999998 -0.027387066 6.709382e-39 341 262
0.027387066 0.70999998 -0.027387066 6.9834438e-39 342 262
0.028631933 0.70999998 -0.027387066 8.2741686e-39 343 262
0.029876797 0.70999998 -0.027387066 1.2613825e-38 344 262
-0.056492399 0.71600002 -0.028873893 1.1423218e-38 275 263
-0.055237014 0.71600002 -0.028873893 1.0118807e-38 276 263
-0.053529263 0.70999998 -0.028631933 8.1826988e-39 277 263
-0.052284397 0.70999998 -0.028631933 7.9075539e-39 278 263
-0.050823875 0.70700002 -0.028510952 7.3547388e-39 279 263
-0.049584266 0.70700002 -0.028510952 7.0774401e-39 280 263
-0.048276275 0.70599997 -0.028470624 6.8930474e-39 281 263
-0.046638668 0.69999999 -0.028228667 6.8919782e-39 282 263
-0.045216713 0.69700003 -0.028107686 6.7997826e-39 283 263
-0.043931518 0.69599998 -0.028067358 6.8898244e-39 284 263
-0.042588469 0.69400001 -0.027986705 6.7976274e-39 285 263
-0.041312039 0.69300002 -0.027946379 6.7961897e-39 286 263
-0.0399234 0.69 -0.027825398 6.703994e-39 287 263
-0.038601387 0.68800002 -0.027744746 6.1533384e-39 288 263
-0.037340738 0.68699998 -0.027704418 6.245534e-39 289 263
-0.036136195 0.68699998 -0.027704418 6.0622189e-39 290 263
-0.034931656 0.68699998 -0.027704418 5.969666e-39 291 263
-0.033727121 0.68699998 -0.027704418 6.0611455e-39 292 263
-0.032475237 0.68599999 -0.027664091 5.9693073e-39 293 263
-0.031272452 0.68599999 -0.027664091 5.877476e-39 294 263
-0.030069664 0.68599999 -0.027664091 5.877476e-39 295 263
-0.02878272 0.68400002 -0.027583439 5.9693087e-39 296 263
-0.027583439 0.68400002 -0.027583439 5.7856363e-39 297 263
-0.02638416 0.68400002 -0.027583439 5.7856363e-39 298 263
-0.025184879 0.68400002 -0.027583439 5.8774718e-39 299 263
-0.023950534 0.68300003 -0.027543113 5.6938008e-39 300 263
-0.022753006 0.68300003 -0.027543113 5.6938008e-39 301 263
-0.02158704 0.68400002 -0.027583439 6.1529852e-39 302 263
-0.020387759 0.68400002 -0.027583439 6.336659e-39 303 263
-0.01918848 0.68400002 -0.027583439 6.6121697e-39 304 263
-0.017962901 0.68300003 -0.027543113 6.4284973e-39 305 263
-0.016765373 0.68300003 -0.027543113 6.5203244e-39 306 263
-0.015567848 0.68300003 -0.027543113 6.4284861e-39 307 263
-0.014370319 0.68300003 -0.027543113 6.5203202e-39 308 263
-0.013172794 0.68300003 -0.027543113 6.3366492e-39 309 263
-0.011975267 0.68300003 -0.027543113 6.3366492e-39 310 263
-0.01077774 0.68300003 -0.027543113 6.2448137e-39 311 263
-0.009566186 0.68199998 -0.027502786 6.3366492e-39 312 263
-0.0083704125 0.68199998 -0.027502786 6.3366492e-39 313 263
-0.00717464 0.68199998 -0.027502786 6.3366492e-39 314 263
-0.005978866 0.68199998 -0.027502786 6.2448137e-39 315 263
-0.004783093 0.68199998 -0.027502786 6.4284847e-39 316 263
-0.00358732 0.68199998 -0.027502786 6.4284847e-39 317 263
-0.0023915465 0.68199998 -0.027502786 6.2448137e-39 318 263
-0.0011957732 0.68199998 -0.027502786 6.2448137e-39 319 263
0 0.68300003 -0.027543113 6.0611427e-39 320 263
0.0011975267 0.68300003 -0.027543113 6.0611427e-39 321 263
0.0023985601 0.68400002 -0.027583439 6.0611427e-39 322 263
0.00360836 0.68599999 -0.027664091 6.1529782e-39 323 263
0.0048111463 0.68599999 -0.027664091 5.7856363e-39 324 263
0.0060226996 0.68699998 -0.027704418 5.7856363e-39 325 263
0.0072272392 0.68699998 -0.027704418 5.7856363e-39 326 263
0.0084317802 0.68699998 -0.027704418 5.7856363e-39 327 263
0.0096363192 0.68699998 -0.027704418 5.7856363e-39 328 263
0.010840859 0.68699998 -0.027704418 5.7856363e-39 329 263
0.012045399 0.68699998 -0.027704418 6.0611427e-39 330 263
0.013249939 0.68699998 -0.027704418 6.3366492e-39 331 263
0.014475521 0.68800002 -0.027744746 6.4299211e-39 332 263
0.015727401 0.69 -0.027825398 6.5221167e-39 333 263
0.016961746 0.69099998 -0.027865725 6.3395205e-39 334 263
0.018225901 0.69300002 -0.027946379 6.2473249e-39 335 263
0.024932399 0.71100003 -0.028672259 6.7086631e-39 340 263
0.026179021 0.71100003 -0.028672259 6.3395205e-39 341 263
0.027425639 0.71100003 -0.028672259 7.6288034e-39 342 263
0.028672259 0.71100003 -0.028672259 1.0763449e-38 343 263
-0.055237014 0.71600002 -0.03012928 1.1319867e-38 276 264
-0.053755447 0.713 -0.030003037 8.0930199e-39 277 264
-0.052505318 0.713 -0.030003037 8.1837736e-39 278 264
-0.051039528 0.70999998 -0.029876797 7.7227955e-39 279 264
-0.049654398 0.708 -0.02979264 7.1707077e-39 280 264
-0.048344657 0.70700002 -0.029750559 6.8944809e-39 281 264
-0.046905171 0.704 -0.029624319 6.9852458e-39 282 264
-0.045281585 0.69800001 -0.029371841 6.7086603e-39 283 264
-0.04405776 0.69800001 -0.029371841 6.7997826e-39 284 264
-0.042711195 0.69599998 -0.029287677 6.7072282e-39 285 264
-0.041312039 0.69300002 -0.029161438 6.6135963e-39 286 264
-0.039981257 0.69099998 -0.029077278 6.5214006e-39 287 264
-0.038601387 0.68800002 -0.028951041 6.4299239e-39 288 264
-0.037395094 0.68800002 -0.028951041 6.1533384e-39 289 264
-0.036136195 0.68699998 -0.028908957 6.0622189e-39 290 264
-0.034931656 0.68699998 -0.028908957 5.969666e-39 291 264
-0.033727121 0.68699998 -0.028908957 5.969666e-39 292 264
-0.032475237 0.68599999 -0.02886688 5.7856363e-39 293 264
-0.031272452 0.68599999 -0.02886688 5.7856363e-39 294 264
-0.030069664 0.68599999 -0.02886688 5.7856363e-39 295 264
-0.02878272 0.68400002 -0.02878272 5.7856363e-39 296 264
-0.027583439 0.68400002 -0.02878272 5.6019653e-39 297 264
-0.02638416 0.68400002 -0.02878272 5.6019653e-39 298 264
-0.025184879 0.68400002 -0.02878272 5.6019653e-39 299 264
-0.023950534 0.68300003 -0.028740639 5.5101298e-39 300 264
-0.022753006 0.68300003 -0.028740639 5.6019653e-39 301 264
-0.02158704 0.68400002 -0.02878272 5.7856363e-39 302 264
-0.020387759 0.68400002 -0.02878272 5.8774732e-39 303 264
-0.01918848 0.68400002 -0.02878272 6.1529852e-39 304 264
-0.0179892 0.68400002 -0.02878272 6.0611484e-39 305 264
-0.016789921 0.68400002 -0.02878272 6.2448179e-39 306 264
-0.015567848 0.68300003 -0.028740639 6.152981e-39 307 264
-0.014370319 0.68300003 -0.028740639 5.9693073e-39 308 264
-0.013172794 0.68300003 -0.028740639 5.9693073e-39 309 264
-0.011975267 0.68300003 -0.028740639 6.0611427e-39 310 264
-0.01077774 0.68300003 -0.028740639 6.1529782e-39 311 264
-0.009566186 0.68199998 -0.02869856 6.1529782e-39 312 264
-0.0083704125 0.68199998 -0.02869856 6.0611427e-39 313 264
-0.00717464 0.68199998 -0.02869856 6.1529782e-39 314 264
-0.005978866 0.68199998 -0.02869856 6.0611427e-39 315 264
-0.004783093 0.68199998 -0.02869856 6.0611427e-39 316 264
-0.00358732 0.68199998 -0.02869856 6.0611427e-39 317 264
-0.0023915465 0.68199998 -0.02869856 5.9693073e-39 318 264
-0.0011957732 0.68199998 -0.02869856 5.9693073e-39 319 264
0 0.68300003 -0.028740639 5.7856363e-39 320 264
0.0011975267 0.68300003 -0.028740639 5.6938008e-39 321 264
0.0023985601 0.68400002 -0.02878272 5.6019653e-39 322 264
0.00360836 0.68599999 -0.02886688 5.6938008e-39 323 264
0.0048181596 0.68699998 -0.028908957 5.6019653e-39 324 264
0.0060226996 0.68699998 -0.028908957 5.6938008e-39 325 264
0.0072272392 0.68699998 -0.028908957 5.6938008e-39 326 264
0.0084317802 0.68699998 -0.028908957 5.6019653e-39 327 264
0.0096363192 0.68699998 -0.028908957 5.7856363e-39 328 264
0.010840859 0.68699998 -0.028908957 5.8774718e-39 329 264
0.012045399 0.68699998 -0.028908957 5.9693073e-39 330 264
0.013249939 0.68699998 -0.028908957 6.2455368e-39 331 264
0.014454478 0.68699998 -0.028908957 6.4310001e-39 332 264
0.015681813 0.68800002 -0.028951041 6.6150326e-39 333 264
0.01701084 0.69300002 -0.029161438 6.2491241e-39 334 264
0.018304799 0.69599998 -0.029287677 6.1569285e-39 335 264
0.024932399 0.71100003 -0.029918881 6.7075813e-39 340 264
0.026179021 0.71100003 -0.029918881 5.6938008e-39 341 264
0.027425639 0.71100003 -0.029918881 8.6397113e-39 342 264
-0.049654398 0.708 -0.031034 7.1725084e-39 280 265
-0.048344657 0.70700002 -0.030990168 6.9881171e-39 281 265
-0.047038425 0.70599997 -0.030946331 6.9859703e-39 282 265
-0.045476202 0.70099998 -0.030727165 6.8937747e-39 283 265
-0.044183996 0.69999999 -0.030683333 6.8923411e-39 284 265
-0.042833932 0.69800001 -0.030595668 6.6161144e-39 285 265
-0.041550495 0.69700003 -0.030551834 6.6150382e-39 286 265
-0.04009698 0.69300002 -0.0303765 6.3384513e-39 287 265
-0.038713597 0.69 -0.030244999 6.2462557e-39 288 265
-0.037395094 0.68800002 -0.030157333 6.15406e-39 289 265
-0.0361888 0.68800002 -0.030157333 6.0618644e-39 290 265
-0.034931656 0.68699998 -0.030113498 5.9696688e-39 291 265
-0.033727121 0.68699998 -0.030113498 5.7856363e-39 292 265
-0.032522578 0.68699998 -0.030113498 5.7856363e-39 293 265
-0.031272452 0.68599999 -0.030069664 5.6938008e-39 294 265
-0.030069664 0.68599999 -0.030069664 5.6019653e-39 295 265
-0.02878272 0.68400002 -0.029982001 5.7856363e-39 296 265
-0.027583439 0.68400002 -0.029982001 5.7856363e-39 297 265
-0.02638416 0.68400002 -0.029982001 5.5101298e-39 298 265
-0.025184879 0.68400002 -0.029982001 5.5101298e-39 299 265
-0.023950534 0.68300003 -0.029938167 5.5101298e-39 300 265
-0.022753006 0.68300003 -0.029938167 5.6019653e-39 301 265
-0.02158704 0.68400002 -0.029982001 5.8774718e-39 302 265
-0.020387759 0.68400002 -0.029982001 5.8774718e-39 303 265
-0.01918848 0.68400002 -0.029982001 5.9693073e-39 304 265
-0.0179892 0.68400002 -0.029982001 5.7856363e-39 305 265
-0.016789921 0.68400002 -0.029982001 6.1529782e-39 306 265
-0.015567848 0.68300003 -0.029938167 6.2448151e-39 307 265
-0.014370319 0.68300003 -0.029938167 5.7856363e-39 308 265
-0.013172794 0.68300003 -0.029938167 5.7856363e-39 309 265
-0.011975267 0.68300003 -0.029938167 5.9693073e-39 310 265
-0.01077774 0.68300003 -0.029938167 5.9693073e-39 311 265
-0.0095802136 0.68300003 -0.029938167 5.8774718e-39 312 265
-0.0083826864 0.68300003 -0.029938167 5.8774718e-39 313 265
-0.00717464 0.68199998 -0.029894331 6.0611427e-39 314 265
-0.005978866 0.68199998 -0.029894331 6.0611427e-39 315 265
-0.0047901068 0.68300003 -0.029938167 6.0611427e-39 316 265
-0.0035925799 0.68300003 -0.029938167 6.1529782e-39 317 265
-0.0023950534 0.68300003 -0.029938167 5.7856363e-39 318 265
-0.0011975267 0.68300003 -0.029938167 5.6938008e-39 319 265
0 0.68300003 -0.029938167 5.6938008e-39 320 265
0.00119928 0.68400002 -0.029982001 5.6938008e-39 321 265
0.0024090798 0.68699998 -0.030113498 5.6019653e-39 322 265
0.0036136196 0.68699998 -0.030113498 5.6019653e-39 323 265
0.0048181596 0.68699998 -0.030113498 5.6938008e-39 324 265
0.0060226996 0.68699998 -0.030113498 5.6019653e-39 325 265
0.0072272392 0.68699998 -0.030113498 5.6938008e-39 326 265
0.0084317802 0.68699998 -0.030113498 5.6019653e-39 327 265
0.0096363192 0.68699998 -0.030113498 5.7856363e-39 328 265
0.010840859 0.68699998 -0.030113498 5.8774718e-39 329 265
0.012045399 0.68699998 -0.030113498 6.0618616e-39 330 265
0.013249939 0.68699998 -0.030113498 6.4310029e-39 331 265
0.014454478 0.68699998 -0.030113498 6.2484081e-39 332 265
0.015681813 0.68800002 -0.030157333 6.6168305e-39 333 265
0.024932399 0.71100003 -0.031165501 7.0749219e-39 340 265
0.026179021 0.71100003 -0.031165501 5.7856363e-39 341 265
0.027425639 0.71100003 -0.031165501 9.2886792e-39 342 265
-0.048413038 0.708 -0.03227536 7.6309656e-39 281 266
-0.047038425 0.70599997 -0.032184184 7.5387699e-39 282 266
-0.045476202 0.70099998 -0.031956252 7.2621844e-39 283 266
-0.044247117 0.70099998 -0.031956252 7.1678392e-39 284 266
-0.042833932 0.69800001 -0.031819493 6.8916125e-39 285 266
-0.041550495 0.69700003 -0.03177391 6.7068681e-39 286 266
-0.040270556 0.69599998 -0.031728316 6.6143123e-39 287 266
-0.03888192 0.69300002 -0.031591557 6.5221167e-39 288 266
-0.037503798 0.69 -0.031454802 6.4299211e-39 289 266
-0.0361888 0.68800002 -0.031363625 6.1536957e-39 290 266
-0.03498251 0.68800002 -0.031363625 6.0615015e-39 291 266
-0.033727121 0.68699998 -0.031318039 5.969666e-39 292 266
-0.032522578 0.68699998 -0.031318039 5.969666e-39 293 266
-0.031272452 0.68599999 -0.031272452 5.6938008e-39 294 266
-0.030069664 0.68599999 -0.031272452 5.6938008e-39 295 266
-0.02878272 0.68400002 -0.03118128 5.7856363e-39 296 266
-0.027583439 0.68400002 -0.03118128 5.7856363e-39 297 266
-0.02638416 0.68400002 -0.03118128 5.5101298e-39 298 266
-0.025184879 0.68400002 -0.03118128 5.5101298e-39 299 266
-0.023950534 0.68300003 -0.031135695 5.5101298e-39 300 266
-0.022753006 0.68300003 -0.031135695 5.5101298e-39 301 266
-0.02158704 0.68400002 -0.03118128 5.2346233e-39 302 266
-0.020387759 0.68400002 -0.03118128 5.3264588e-39 303 266
-0.01918848 0.68400002 -0.03118128 5.6019653e-39 304 266
-0.0179892 0.68400002 -0.03118128 5.5101298e-39 305 266
-0.016789921 0.68400002 -0.03118128 5.7856363e-39 306 266
-0.01559064 0.68400002 -0.03118128 5.7856363e-39 307 266
-0.014370319 0.68300003 -0.031135695 5.7856363e-39 308 266
-0.013172794 0.68300003 -0.031135695 5.7856363e-39 309 266
-0.011975267 0.68300003 -0.031135695 5.7856363e-39 310 266
-0.01077774 0.68300003 -0.031135695 5.7856363e-39 311 266
-0.0095802136 0.68300003 -0.031135695 5.7856363e-39 312 266
-0.0083826864 0.68300003 -0.031135695 5.6938008e-39 313 266
-0.0071851597 0.68300003 -0.031135695 6.0611427e-39 314 266
-0.0059876335 0.68300003 -0.031135695 6.0611427e-39 315 266
-0.0047901068 0.68300003 -0.031135695 5.8774718e-39 316 266
-0.0035925799 0.68300003 -0.031135695 5.8774718e-39 317 266
-0.0023950534 0.68300003 -0.031135695 5.6938008e-39 318 266
-0.0011975267 0.68300003 -0.031135695 5.6019653e-39 319 266
0 0.68300003 -0.031135695 5.6019653e-39 320 266
0.0012027866 0.68599999 -0.031272452 5.6019653e-39 321 266
0.0024090798 0.68699998 -0.031318039 5.4182943e-39 322 266
0.0036188802 0.68800002 -0.031363625 5.4182943e-39 323 266
0.0048251734 0.68800002 -0.031363625 5.4182943e-39 324 266
0.0060314666 0.68800002 -0.031363625 5.5101298e-39 325 266
0.0072272392 0.68699998 -0.031318039 5.6938008e-39 326 266
0.0084317802 0.68699998 -0.031318039 5.7856363e-39 327 266
0.0096363192 0.68699998 -0.031318039 5.8774718e-39 328 266
0.010840859 0.68699998 -0.031318039 6.0611427e-39 329 266
0.012045399 0.68699998 -0.031318039 5.9714638e-39 330 266
0.013269227 0.68800002 -0.031363625 6.2484109e-39 331 266
0.014475521 0.68800002 -0.031363625 6.5249908e-39 332 266
-0.048413038 0.708 -0.033516716 7.4483722e-39 281 267
-0.047038425 0.70599997 -0.033422034 7.3554675e-39 282 267
-0.045670826 0.704 -0.03332736 7.1714364e-39 283 267
-0.044247117 0.70099998 -0.03318534 7.0774457e-39 284 267
-0.043018032 0.70099998 -0.03318534 6.7086631e-39 285 267
-0.041729331 0.69999999 -0.033137999 6.6150326e-39 286 267
-0.040386278 0.69800001 -0.033043321 6.6150326e-39 287 267
-0.039106347 0.69700003 -0.03299598 6.2473277e-39 288 267
-0.03755815 0.69099998 -0.032711938 6.2473277e-39 289 267
-0.036293998 0.69 -0.032664597 6.0629406e-39 290 267
-0.035084199 0.69 -0.032664597 5.970745e-39 291 267
-0.033776212 0.68800002 -0.032569919 5.8792682e-39 292 267
-0.032522578 0.68699998 -0.032522578 5.6952371e-39 293 267
-0.031318039 0.68699998 -0.032522578 5.7863537e-39 294 267
-0.030069664 0.68599999 -0.032475237 5.6941595e-39 295 267
-0.02886688 0.68599999 -0.032475237 5.6019653e-39 296 267
-0.027583439 0.68400002 -0.032380559 5.4182943e-39 297 267
-0.02638416 0.68400002 -0.032380559 5.5101298e-39 298 267
-0.025184879 0.68400002 -0.032380559 5.6019653e-39 299 267
-0.0239856 0.68400002 -0.032380559 5.2346233e-39 300 267
-0.022786319 0.68400002 -0.032380559 5.2346233e-39 301 267
-0.021650158 0.68599999 -0.032475237 5.3264588e-39 302 267
-0.020447372 0.68599999 -0.032475237 5.3264588e-39 303 267
-0.01918848 0.68400002 -0.032380559 5.7856363e-39 304 267
-0.0179892 0.68400002 -0.032380559 5.7856363e-39 305 267
-0.016789921 0.68400002 -0.032380559 5.7856363e-39 306 267
-0.01559064 0.68400002 -0.032380559 5.6019653e-39 307 267
-0.014370319 0.68300003 -0.032333218 5.7856363e-39 308 267
-0.013172794 0.68300003 -0.032333218 5.7856363e-39 309 267
-0.011975267 0.68300003 -0.032333218 5.7856363e-39 310 267
-0.01077774 0.68300003 -0.032333218 5.6938008e-39 311 267
-0.0095802136 0.68300003 -0.032333218 5.9693073e-39 312 267
-0.0083826864 0.68300003 -0.032333218 5.8774718e-39 313 267
-0.0071851597 0.68300003 -0.032333218 6.0611427e-39 314 267
-0.0059876335 0.68300003 -0.032333218 6.0611427e-39 315 267
-0.0047901068 0.68300003 -0.032333218 5.7856363e-39 316 267
-0.00359784 0.68400002 -0.032380559 5.7856363e-39 317 267
-0.0023985601 0.68400002 -0.032380559 5.6938008e-39 318 267
-0.00119928 0.68400002 -0.032380559 5.6938008e-39 319 267
0 0.68400002 -0.032380559 5.5101298e-39 320 267
0.0012027866 0.68599999 -0.032475237 5.5101298e-39 321 267
0.0024090798 0.68699998 -0.032522578 5.4182943e-39 322 267
0.0036188802 0.68800002 -0.032569919 5.4182943e-39 323 267
0.0048251734 0.68800002 -0.032569919 5.5101298e-39 324 267
0.0060314666 0.68800002 -0.032569919 5.5101298e-39 325 267
0.0072377604 0.68800002 -0.032569919 5.5101298e-39 326 267
0.0084440531 0.68800002 -0.032569919 5.6019653e-39 327 267
0.0096503468 0.68800002 -0.032569919 5.8774718e-39 328 267
0.010840859 0.68699998 -0.032522578 6.0615015e-39 329 267
0.012045399 0.68699998 -0.032522578 6.0640126e-39 330 267
0.013269227 0.68800002 -0.032569919 6.5249908e-39 331 267
-0.04951413 0.70599997 -0.034659892 8.089057e-39 280 268
-0.047038425 0.70599997 -0.034659892 7.7228095e-39 282 268
-0.045670826 0.704 -0.034561705 7.6306124e-39 283 268
-0.044247117 0.70099998 -0.034414422 7.4451464e-39 284 268
-0.043018032 0.70099998 -0.034414422 6.984527e-39 285 268
-0.041729331 0.69999999 -0.034365334 6.7990609e-39 286 268
-0.040386278 0.69800001 -0.034267146 6.7068653e-39 287 268
-0.039106347 0.69700003 -0.034218054 6.4310001e-39 288 268
-0.037666857 0.69300002 -0.034021679 6.3388044e-39 289 268
-0.036346599 0.69099998 -0.033923492 6.4299211e-39 290 268
-0.035135046 0.69099998 -0.033923492 6.2458899e-39 291 268
-0.0338744 0.69 -0.0338744 6.1544132e-39 292 268
-0.032569919 0.68800002 -0.033776212 6.1544132e-39 293 268
-0.031318039 0.68699998 -0.033727121 5.878548e-39 294 268
-0.030113498 0.68699998 -0.033727121 5.7863537e-39 295 268
-0.02886688 0.68599999 -0.033678025 5.6938008e-39 296 268
-0.027583439 0.68400002 -0.033579841 5.6019653e-39 297 268
-0.02638416 0.68400002 -0.033579841 5.6019653e-39 298 268
-0.025184879 0.68400002 -0.033579841 5.4182943e-39 299 268
-0.0239856 0.68400002 -0.033579841 5.3264588e-39 300 268
-0.022786319 0.68400002 -0.033579841 5.3264588e-39 301 268
-0.021650158 0.68599999 -0.033678025 5.3264588e-39 302 268
-0.020447372 0.68599999 -0.033678025 5.4182943e-39 303 268
-0.019244585 0.68599999 -0.033678025 5.6019653e-39 304 268
-0.018041799 0.68599999 -0.033678025 5.6019653e-39 305 268
-0.016789921 0.68400002 -0.033579841 5.7856363e-39 306 268
-0.01559064 0.68400002 -0.033579841 5.7856363e-39 307 268
-0.01439136 0.68400002 -0.033579841 5.7856363e-39 308 268
-0.01319208 0.68400002 -0.033579841 5.7856363e-39 309 268
-0.0119928 0.68400002 -0.033579841 5.7856363e-39 310 268
-0.01079352 0.68400002 -0.033579841 5.6938008e-39 311 268
-0.0095942402 0.68400002 -0.033579841 5.7856363e-39 312 268
-0.0083949603 0.68400002 -0.033579841 5.7856363e-39 313 268
-0.0071956799 0.68400002 -0.033579841 5.9693073e-39 314 268
-0.0059964 0.68400002 -0.033579841 5.9693073e-39 315 268
-0.0047971201 0.68400002 -0.033579841 5.9693073e-39 316 268
-0.00360836 0.68599999 -0.033678025 6.0611427e-39 317 268
-0.0024055731 0.68599999 -0.033678025 5.6019653e-39 318 268
-0.0012027866 0.68599999 -0.033678025 5.6019653e-39 319 268
0 0.68599999 -0.033678025 5.5101298e-39 320 268
0.0012045399 0.68699998 -0.033727121 5.5101298e-39 321 268
0.0024090798 0.68699998 -0.033727121 5.2346233e-39 322 268
0.0036188802 0.68800002 -0.033776212 5.2346233e-39 323 268
0.0048251734 0.68800002 -0.033776212 5.4182943e-39 324 268
0.0060314666 0.68800002 -0.033776212 5.4182943e-39 325 268
0.0072377604 0.68800002 -0.033776212 5.4182943e-39 326 268
0.0084440531 0.68800002 -0.033776212 5.6019653e-39 327 268
0.0096503468 0.68800002 -0.033776212 5.969666e-39 328 268
0.010856641 0.68800002 -0.033776212 6.1544132e-39 329 268
-0.045670826 0.704 -0.035796054 7.7228123e-39 283 269
-0.04437336 0.70300001 -0.035745207 7.2618369e-39 284 269
-0.043018032 0.70099998 -0.035643511 7.0774457e-39 285 269
-0.041729331 0.69999999 -0.035592664 6.8912593e-39 286 269
-0.040386278 0.69800001 -0.035490975 6.7990637e-39 287 269
-0.039106347 0.69700003 -0.035440128 6.7065122e-39 288 269
-0.037829921 0.69599998 -0.035389278 6.6143151e-39 289 269
-0.036451802 0.69300002 -0.035236739 6.5221195e-39 290 269
-0.035135046 0.69099998 -0.035135046 6.4299239e-39 291 269
-0.033923492 0.69099998 -0.035135046 6.0632965e-39 292 269
