# .PCD v.7 - Point Cloud Data file format
FIELDS x y z rgb imX imY
SIZE 4 4 4 4 4 4
TYPE F F F F F F
COUNT 1 1 1 1 1 1
WIDTH 830
HEIGHT 1
VIEWPOINT 0 0 0 1 0 0 0
POINTS 830
DATA ascii
0.030930554 0.76700002 -0.022861714 1.4292137e-38 343 257
0.03227536 0.76700002 -0.022861714 1.3832963e-38 344 257
0.033620168 0.76700002 -0.022861714 1.3740408e-38 345 257
0.030178372 0.662 -0.019732011 1.4752395e-38 346 257
0.031528439 0.66600001 -0.019851239 1.4936786e-38 347 257
0.032696161 0.66600001 -0.019851239 1.3922266e-38 348 257
0.033660494 0.662 -0.019732011 1.1986158e-38 349 257
0.034821201 0.662 -0.019732011 8.4870622e-39 350 257
0.03619932 0.66600001 -0.019851239 5.9055846e-39 351 257
0.037423145 0.667 -0.019881045 1.8615928e-39 352 257
0.038592618 0.667 -0.019881045 2.2300166e-39 353 257
0.039762091 0.667 -0.019881045 3.1516281e-39 354 257
0.040992931 0.66799998 -0.019910853 3.8891946e-39 355 257
0.042290401 0.67000002 -0.019970467 5.0841364e-39 356 257
0.043530006 0.671 -0.020000271 5.2685291e-39 357 257
0.044773117 0.67199999 -0.020030079 5.7291401e-39 358 257
0.046088122 0.67400002 -0.020089693 6.0975639e-39 359 257
0.047410134 0.676 -0.020149305 7.7516748e-39 360 257
0.048739154 0.67799997 -0.020208918 8.4895986e-39 361 257
0.050001562 0.67900002 -0.020238725 1.0972742e-38 362 257
0.051267464 0.68000001 -0.020268533 1.3646415e-38 363 257
0.052614026 0.68199998 -0.020328145 1.7238785e-38 364 257
0.053809796 0.68199998 -0.020328145 1.7699763e-38 365 257
-0.077383369 0.67900002 -0.021429239 1.2170915e-38 255 258
-0.076080635 0.67799997 -0.021397678 9.7799647e-39 256 258
-0.074670963 0.676 -0.021334561 9.0423996e-39 257 258
-0.073376998 0.67500001 -0.021303 7.5705262e-39 258 258
-0.07208655 0.67400002 -0.021271439 7.0177111e-39 259 258
-0.070904799 0.67400002 -0.021271439 6.0042949e-39 260 258
-0.069516152 0.67199999 -0.021208318 5.2667298e-39 261 258
-0.068236224 0.671 -0.021176759 2.8779447e-39 262 258
-0.066959806 0.67000002 -0.0211452 2.1403797e-39 263 258
-0.065490507 0.667 -0.021050518 5.7846722e-40 264 258
-0.064224601 0.66600001 -0.02101896 8.5505551e-40 265 258
-0.062867515 0.66399997 -0.020955838 1.9610359e-39 266 258
-0.061517447 0.662 -0.020892721 3.6201985e-39 267 258
-0.060265575 0.66100001 -0.02086116 6.6583033e-39 268 258
-0.059106622 0.66100001 -0.02086116 8.6866071e-39 269 258
-0.057772331 0.65899998 -0.020798039 1.2362888e-38 270 258
-0.056530971 0.65799999 -0.02076648 1.3008258e-38 271 258
-0.055377278 0.65799999 -0.02076648 1.420067e-38 272 258
-0.054223582 0.65799999 -0.02076648 1.4753844e-38 273 258
-0.061780453 0.76599997 -0.024174958 1.5303775e-38 274 258
-0.060437392 0.76599997 -0.024174958 1.5027187e-38 275 258
-0.059094343 0.76599997 -0.024174958 1.4748074e-38 276 258
-0.057751291 0.76599997 -0.024174958 1.4102704e-38 277 258
-0.056481879 0.76700002 -0.024206521 1.3278341e-38 278 258
-0.055137072 0.76700002 -0.024206521 1.309395e-38 279 258
-0.053932533 0.76899999 -0.024269639 1.3093594e-38 280 258
-0.052584216 0.76899999 -0.024269639 1.318579e-38 281 258
-0.05136916 0.77100003 -0.02433276 1.318579e-38 282 258
-0.050017338 0.77100003 -0.02433276 1.318579e-38 283 258
-0.04885488 0.77399999 -0.02442744 1.3460938e-38 284 258
-0.047436431 0.773 -0.024395877 1.3460938e-38 285 258
-0.046081103 0.773 -0.024395877 1.3185071e-38 286 258
-0.044725779 0.773 -0.024395877 1.3185071e-38 287 258
-0.043426558 0.77399999 -0.02442744 1.3093594e-38 288 258
-0.042069476 0.77399999 -0.02442744 1.3093594e-38 289 258
-0.040712398 0.77399999 -0.02442744 1.3093594e-38 290 258
-0.039457016 0.77600002 -0.024490559 1.3093594e-38 291 258
-0.038096428 0.77600002 -0.024490559 1.3093594e-38 292 258
-0.036830518 0.778 -0.024553679 1.3001398e-38 293 258
-0.035557598 0.77999997 -0.024616797 1.3001398e-38 294 258
-0.034189999 0.77999997 -0.024616797 1.3001398e-38 295 258
-0.032822397 0.77999997 -0.024616797 1.3001398e-38 296 258
-0.031454798 0.77999997 -0.024616797 1.3001398e-38 297 258
-0.030087199 0.77999997 -0.024616797 1.3001398e-38 298 258
-0.028719598 0.77999997 -0.024616797 1.3001398e-38 299 258
-0.027351998 0.77999997 -0.024616797 1.3276188e-38 300 258
-0.026017714 0.78100002 -0.024648361 1.3368742e-38 301 258
-0.024648361 0.78100002 -0.024648361 1.309395e-38 302 258
-0.023279008 0.78100002 -0.024648361 1.309395e-38 303 258
-0.021909652 0.78100002 -0.024648361 1.3001752e-38 304 258
-0.020540299 0.78100002 -0.024648361 1.3001752e-38 305 258
-0.019170946 0.78100002 -0.024648361 1.3001398e-38 306 258
-0.017801592 0.78100002 -0.024648361 1.3001398e-38 307 258
-0.016432239 0.78100002 -0.024648361 1.3093597e-38 308 258
-0.015062887 0.78100002 -0.024648361 1.3001401e-38 309 258
-0.013693534 0.78100002 -0.024648361 1.3093597e-38 310 258
-0.01232418 0.78100002 -0.024648361 1.3185793e-38 311 258
-0.010982879 0.78299999 -0.024711479 1.318579e-38 312 258
-0.0096100196 0.78299999 -0.024711479 1.318579e-38 313 258
-0.0082161194 0.78100002 -0.024648361 1.3185427e-38 314 258
-0.0068467669 0.78100002 -0.024648361 1.3185427e-38 315 258
-0.0054774131 0.78100002 -0.024648361 1.3369458e-38 316 258
-0.0041185799 0.78299999 -0.024711479 1.3369458e-38 317 258
-0.0027457199 0.78299999 -0.024711479 1.3369458e-38 318 258
-0.0013728599 0.78299999 -0.024711479 1.3369458e-38 319 258
0 0.78299999 -0.024711479 1.3369461e-38 320 258
0.0013728599 0.78299999 -0.024711479 1.3461656e-38 321 258
0.0027457199 0.78299999 -0.024711479 1.3553852e-38 322 258
0.0041080597 0.78100002 -0.024648361 1.3646048e-38 323 258
0.0054774131 0.78100002 -0.024648361 1.3646765e-38 324 258
0.0068467669 0.78100002 -0.024648361 1.3646765e-38 325 258
0.0082161194 0.78100002 -0.024648361 1.3738598e-38 326 258
0.0095731998 0.77999997 -0.024616797 1.3738598e-38 327 258
0.010940799 0.77999997 -0.024616797 1.3555648e-38 328 258
0.012276839 0.778 -0.024553679 1.3555648e-38 329 258
0.013605867 0.77600002 -0.024490559 1.3923711e-38 330 258
0.014966453 0.77600002 -0.024490559 1.4015906e-38 331 258
0.016284959 0.77399999 -0.02442744 1.4199937e-38 332 258
0.01764204 0.77399999 -0.02442744 1.4292135e-38 333 258
0.018999118 0.77399999 -0.02442744 1.438397e-38 334 258
0.0203299 0.773 -0.024395877 1.438397e-38 335 258
0.021629119 0.77100003 -0.02433276 1.4383614e-38 336 258
0.022921326 0.76899999 -0.024269639 1.447581e-38 337 258
0.024269639 0.76899999 -0.024269639 1.4384336e-38 338 258
0.025551327 0.76700002 -0.024206521 1.3923358e-38 339 258
0.026896132 0.76700002 -0.024206521 1.3187593e-38 340 258
0.02824094 0.76700002 -0.024206521 1.3002843e-38 341 258
0.025265532 0.65499997 -0.020671798 1.2727335e-38 342 258
0.026413966 0.65499997 -0.020671798 1.2358193e-38 343 258
0.027562398 0.65499997 -0.020671798 1.1070701e-38 344 258
0.028973831 0.66100001 -0.02086116 1.0517887e-38 345 258
0.030178372 0.662 -0.020892721 9.5944986e-39 346 258
0.031339079 0.662 -0.020892721 7.8427802e-39 347 258
0.032499783 0.662 -0.020892721 5.2645466e-39 348 258
0.033660494 0.662 -0.020892721 4.6191772e-39 349 258
0.034821201 0.662 -0.020892721 3.5182401e-39 350 258
0.03619932 0.66600001 -0.02101896 3.5182401e-39 351 258
0.037423145 0.667 -0.021050518 3.6108056e-39 352 258
0.038592618 0.667 -0.021050518 3.8873925e-39 353 258
0.039762091 0.667 -0.021050518 4.3483707e-39 354 258
0.040992931 0.66799998 -0.021082079 4.6249576e-39 355 258
0.042353518 0.671 -0.021176759 5.1763293e-39 356 258
0.043530006 0.671 -0.021176759 5.3610807e-39 357 258
0.044773117 0.67199999 -0.021208318 6.0046452e-39 358 258
0.046088122 0.67400002 -0.021271439 6.3737878e-39 359 258
0.047550395 0.67799997 -0.021397678 7.9364192e-39 360 258
0.048811045 0.67900002 -0.021429239 8.5817886e-39 361 258
0.050001562 0.67900002 -0.021429239 1.2263113e-38 362 258
0.051267464 0.68000001 -0.0214608 1.5028983e-38 363 258
0.052614026 0.68199998 -0.021523919 1.7792678e-38 364 258
0.053809796 0.68199998 -0.021523919 1.7516451e-38 365 258
-0.076080635 0.67799997 -0.022586439 1.0516085e-38 256 259
-0.074670963 0.676 -0.022519812 9.7785199e-39 257 259
-0.073376998 0.67500001 -0.022486499 8.8591e-39 258 259
-0.07208655 0.67400002 -0.022453187 8.1215349e-39 259 259
-0.070694394 0.67199999 -0.022386558 7.1095522e-39 260 259
-0.069516152 0.67199999 -0.022386558 6.5567372e-39 261 259
-0.068236224 0.671 -0.022353247 5.7284339e-39 262 259
-0.066959806 0.67000002 -0.022319933 5.1752601e-39 263 259
-0.065490507 0.667 -0.022219993 3.1527366e-39 264 259
-0.064224601 0.66600001 -0.02218668 1.9541934e-39 265 259
-0.062867515 0.66399997 -0.022120051 2.5290635e-41 266 259
-0.061610378 0.66299999 -0.02208674 2.5290635e-41 267 259
-0.060356744 0.662 -0.022053426 3.1764634e-41 268 259
-0.059106622 0.66100001 -0.022020113 2.6132423e-39 269 259
-0.057947662 0.66100001 -0.022020113 8.4039064e-39 270 259
-0.056530971 0.65799999 -0.021920172 1.0063426e-38 271 259
-0.055293117 0.65700001 -0.021886859 1.3097578e-38 272 259
-0.053976361 0.65499997 -0.021820232 1.4480512e-38 273 259
-0.052827932 0.65499997 -0.021820232 1.5584321e-38 274 259
-0.051679496 0.65499997 -0.021820232 1.5215898e-38 275 259
-0.050453916 0.65399998 -0.021786919 1.5030053e-38 276 259
-0.049307238 0.65399998 -0.021786919 1.4292488e-38 277 259
-0.048086919 0.653 -0.021753605 1.373967e-38 278 259
-0.046941992 0.653 -0.021753605 1.3370887e-38 279 259
-0.045726933 0.65200001 -0.021720294 1.3278694e-38 280 259
-0.044583756 0.65200001 -0.021720294 1.3278694e-38 281 259
-0.05136916 0.77100003 -0.02568458 1.3736443e-38 282 259
-0.050017338 0.77100003 -0.02568458 1.3736443e-38 283 259
-0.040964879 0.64899999 -0.021620352 1.3368736e-38 284 259
-0.039826967 0.64899999 -0.021620352 1.3460932e-38 285 259
-0.038689051 0.64899999 -0.021620352 1.3460935e-38 286 259
-0.044725779 0.773 -0.025751207 1.3368739e-38 287 259
-0.043426558 0.77399999 -0.025784519 1.3185427e-38 288 259
-0.042069476 0.77399999 -0.025784519 1.3185427e-38 289 259
-0.040712398 0.77399999 -0.025784519 1.309395e-38 290 259
-0.039457016 0.77600002 -0.025851147 1.309395e-38 291 259
-0.038096428 0.77600002 -0.025851147 1.3092875e-38 292 259
-0.036830518 0.778 -0.025917772 1.3092875e-38 293 259
-0.035557598 0.77999997 -0.025984399 1.3001398e-38 294 259
-0.034189999 0.77999997 -0.025984399 1.3001398e-38 295 259
-0.032822397 0.77999997 -0.025984399 1.3093594e-38 296 259
-0.031454798 0.77999997 -0.025984399 1.3093594e-38 297 259
-0.030087199 0.77999997 -0.025984399 1.3093594e-38 298 259
-0.028719598 0.77999997 -0.025984399 1.3093594e-38 299 259
-0.027351998 0.77999997 -0.025984399 1.3092875e-38 300 259
-0.026017714 0.78100002 -0.026017714 1.3185071e-38 301 259
-0.024648361 0.78100002 -0.026017714 1.3093231e-38 302 259
-0.023279008 0.78100002 -0.026017714 1.3185427e-38 303 259
-0.021965759 0.78299999 -0.026084339 1.309395e-38 304 259
-0.020540299 0.78100002 -0.026017714 1.3001396e-38 305 259
-0.019170946 0.78100002 -0.026017714 1.3093594e-38 306 259
-0.017801592 0.78100002 -0.026017714 1.3001398e-38 307 259
-0.016432239 0.78100002 -0.026017714 1.3185071e-38 308 259
-0.015062887 0.78100002 -0.026017714 1.3185071e-38 309 259
-0.013693534 0.78100002 -0.026017714 1.318579e-38 310 259
-0.01232418 0.78100002 -0.026017714 1.318579e-38 311 259
-0.010982879 0.78299999 -0.026084339 1.3186146e-38 312 259
-0.0095854728 0.78100002 -0.026017714 1.3186146e-38 313 259
-0.0082161194 0.78100002 -0.026017714 1.3369461e-38 314 259
-0.0068467669 0.78100002 -0.026017714 1.3369461e-38 315 259
-0.0054774131 0.78100002 -0.026017714 1.3369461e-38 316 259
-0.0041080597 0.78100002 -0.026017714 1.3461656e-38 317 259
-0.0027457199 0.78299999 -0.026084339 1.3278341e-38 318 259
-0.0013728599 0.78299999 -0.026084339 1.3278341e-38 319 259
0 0.78299999 -0.026084339 1.3461656e-38 320 259
0.0013728599 0.78299999 -0.026084339 1.3461656e-38 321 259
0.0027457199 0.78299999 -0.026084339 1.3737164e-38 322 259
0.0041185799 0.78299999 -0.026084339 1.382936e-38 323 259
0.0054774131 0.78100002 -0.026017714 1.3646765e-38 324 259
0.0068467669 0.78100002 -0.026017714 1.3646765e-38 325 259
0.0082161194 0.78100002 -0.026017714 1.3738601e-38 326 259
0.0095731998 0.77999997 -0.025984399 1.3830796e-38 327 259
0.010940799 0.77999997 -0.025984399 1.3555651e-38 328 259
0.012276839 0.778 -0.025917772 1.3647847e-38 329 259
0.013605867 0.77600002 -0.025851147 1.3648569e-38 330 259
0.014966453 0.77600002 -0.025851147 1.3740764e-38 331 259
0.016284959 0.77399999 -0.025784519 1.4016625e-38 332 259
0.01764204 0.77399999 -0.025784519 1.4016625e-38 333 259
0.018999118 0.77399999 -0.025784519 1.4016622e-38 334 259
0.0203299 0.773 -0.025751207 1.4016622e-38 335 259
0.021629119 0.77100003 -0.02568458 1.3924076e-38 336 259
0.022921326 0.76899999 -0.025617953 1.3924076e-38 337 259
0.024269639 0.76899999 -0.025617953 1.3648213e-38 338 259
0.025551327 0.76700002 -0.025551327 1.3371626e-38 339 259
0.026896132 0.76700002 -0.025551327 1.3002846e-38 340 259
0.024117097 0.65499997 -0.021820232 1.2357477e-38 341 259
0.025265532 0.65499997 -0.021820232 1.1345846e-38 342 259
0.026413966 0.65499997 -0.021820232 1.0884509e-38 343 259
0.027562398 0.65499997 -0.021820232 9.0456394e-39 344 259
0.028973831 0.66100001 -0.022020113 7.5705107e-39 345 259
0.030132787 0.66100001 -0.022020113 5.2670802e-39 346 259
0.031339079 0.662 -0.022053426 3.0547452e-39 347 259
0.032499783 0.662 -0.022053426 1.8594544e-39 348 259
0.033711337 0.66299999 -0.02208674 2.3207927e-39 349 259
0.034873798 0.66299999 -0.02208674 3.4271402e-39 350 259
0.03619932 0.66600001 -0.02218668 3.9799539e-39 351 259
0.037423145 0.667 -0.022219993 3.8891918e-39 352 259
0.038592618 0.667 -0.022219993 4.1657773e-39 353 259
0.039762091 0.667 -0.022219993 4.5331179e-39 354 259
0.040992931 0.66799998 -0.022253305 4.7175091e-39 355 259
0.042353518 0.671 -0.022353247 5.1766852e-39 356 259
0.043594878 0.67199999 -0.022386558 5.4532735e-39 357 259
0.044906374 0.67400002 -0.022453187 6.0975611e-39 358 259
0.046224877 0.676 -0.022519812 6.4667023e-39 359 259
0.047620531 0.67900002 -0.022619752 8.397033e-39 360 259
0.048882935 0.68000001 -0.022653066 9.2267951e-39 361 259
0.050075196 0.68000001 -0.022653066 1.392119e-38 362 259
0.051418249 0.68199998 -0.022719691 1.6226081e-38 363 259
0.052691177 0.68300003 -0.022753006 1.7884876e-38 364 259
-0.074670963 0.676 -0.023705067 1.0697232e-38 257 260
-0.073376998 0.67500001 -0.023669999 9.2278797e-39 258 260
-0.07208655 0.67400002 -0.023634933 8.6747059e-39 259 260
-0.070694394 0.67199999 -0.023564799 7.1120718e-39 260 260
-0.069516152 0.67199999 -0.023564799 6.558898e-39 261 260
-0.068236224 0.671 -0.023529733 5.1802963e-39 262 260
-0.066959806 0.67000002 -0.023494666 4.8118726e-39 263 260
-0.065588683 0.66799998 -0.023424532 3.7094879e-39 264 260
-0.064224601 0.66600001 -0.023354398 3.432901e-39 265 260
-0.062867515 0.66399997 -0.023284266 3.2478035e-39 266 260
-0.061610378 0.66299999 -0.0232492 2.6024341e-39 267 260
-0.060356744 0.662 -0.023214132 1.6797771e-39 268 260
-0.059106622 0.66100001 -0.023179067 1.1266033e-39 269 260
-0.057947662 0.66100001 -0.023179067 2.3499775e-41 270 260
-0.056530971 0.65799999 -0.023073865 2.3499775e-41 271 260
-0.055293117 0.65700001 -0.023038799 3.0682831e-41 272 260
-0.053976361 0.65499997 -0.022968665 1.1420723e-39 273 260
-0.052827932 0.65499997 -0.022968665 5.5541207e-39 274 260
-0.051600594 0.65399998 -0.022933599 7.3980319e-39 275 260
-0.050453916 0.65399998 -0.022933599 1.1260505e-38 276 260
-0.049307238 0.65399998 -0.022933599 1.2735637e-38 277 260
-0.048086919 0.653 -0.022898532 1.4938601e-38 278 260
-0.046941992 0.653 -0.022898532 1.5122992e-38 279 260
-0.045726933 0.65200001 -0.022863466 1.5862703e-38 280 260
-0.044446997 0.64999998 -0.022793332 1.5954898e-38 281 260
-0.04330733 0.64999998 -0.022793332 1.6870375e-38 282 260
-0.042102791 0.64899999 -0.022758266 1.6040613e-38 283 260
-0.040964879 0.64899999 -0.022758266 1.419994e-38 284 260
-0.039826967 0.64899999 -0.022758266 1.3646768e-38 285 260
-0.038689051 0.64899999 -0.022758266 1.3278707e-38 286 260
-0.037551139 0.64899999 -0.022758266 1.3186511e-38 287 260
-0.036413226 0.64899999 -0.022758266 1.3185793e-38 288 260
-0.03527531 0.64899999 -0.022758266 1.3093597e-38 289 260
-0.0408176 0.77600002 -0.027211733 1.2910285e-38 290 260
-0.039457016 0.77600002 -0.027211733 1.2725533e-38 291 260
-0.038194612 0.778 -0.027281865 1.2724814e-38 292 260
-0.036830518 0.778 -0.027281865 1.2908846e-38 293 260
-0.035557598 0.77999997 -0.027351998 1.2908848e-38 294 260
-0.034189999 0.77999997 -0.027351998 1.3001045e-38 295 260
-0.032822397 0.77999997 -0.027351998 1.2910285e-38 296 260
-0.031454798 0.77999997 -0.027351998 1.2910285e-38 297 260
-0.030087199 0.77999997 -0.027351998 1.3093594e-38 298 260
-0.028719598 0.77999997 -0.027351998 1.3093594e-38 299 260
-0.027351998 0.77999997 -0.027351998 1.3185071e-38 300 260
-0.025984399 0.77999997 -0.027351998 1.3185071e-38 301 260
-0.024648361 0.78100002 -0.027387068 1.3185074e-38 302 260
-0.023279008 0.78100002 -0.027387068 1.3185074e-38 303 260
-0.021965759 0.78299999 -0.027457198 1.3092878e-38 304 260
-0.020540299 0.78100002 -0.027387068 1.3185074e-38 305 260
-0.019170946 0.78100002 -0.027387068 1.3092522e-38 306 260
-0.017801592 0.78100002 -0.027387068 1.3185076e-38 307 260
-0.016432239 0.78100002 -0.027387068 1.3185076e-38 308 260
-0.015062887 0.78100002 -0.027387068 1.3185076e-38 309 260
-0.013693534 0.78100002 -0.027387068 1.3369461e-38 310 260
-0.01232418 0.78100002 -0.027387068 1.3369461e-38 311 260
-0.010954826 0.78100002 -0.027387068 1.3369458e-38 312 260
-0.0095854728 0.78100002 -0.027387068 1.3369458e-38 313 260
-0.0082161194 0.78100002 -0.027387068 1.3185427e-38 314 260
-0.0068467669 0.78100002 -0.027387068 1.3369458e-38 315 260
-0.0054774131 0.78100002 -0.027387068 1.3369458e-38 316 260
-0.0041080597 0.78100002 -0.027387068 1.3461654e-38 317 260
-0.0027457199 0.78299999 -0.027457198 1.3277985e-38 318 260
-0.0013728599 0.78299999 -0.027457198 1.3277985e-38 319 260
0 0.78299999 -0.027457198 1.3461656e-38 320 260
0.0013728599 0.78299999 -0.027457198 1.3461656e-38 321 260
0.0027457199 0.78299999 -0.027457198 1.3737164e-38 322 260
0.0041185799 0.78299999 -0.027457198 1.382936e-38 323 260
0.0054914397 0.78299999 -0.027457198 1.3646765e-38 324 260
0.0068467669 0.78100002 -0.027387068 1.3739319e-38 325 260
0.0082161194 0.78100002 -0.027387068 1.3739319e-38 326 260
0.0095731998 0.77999997 -0.027351998 1.3831515e-38 327 260
0.010940799 0.77999997 -0.027351998 1.3923355e-38 328 260
0.012276839 0.778 -0.027281865 1.3923355e-38 329 260
0.013570799 0.77399999 -0.027141599 1.410667e-38 330 260
0.014927879 0.77399999 -0.027141599 1.4014474e-38 331 260
0.016284959 0.77399999 -0.027141599 1.3186158e-38 332 260
0.017619247 0.773 -0.027106533 1.2817736e-38 333 260
0.016004426 0.65200001 -0.022863466 1.199229e-38 334 260
0.017147599 0.65200001 -0.022863466 1.199229e-38 335 260
0.018290773 0.65200001 -0.022863466 1.1623156e-38 336 260
0.019433947 0.65200001 -0.022863466 1.0793395e-38 337 260
0.02057712 0.65200001 -0.022863466 9.69029e-39 338 260
0.021720294 0.65200001 -0.022863466 9.2293118e-39 339 260
0.022863466 0.65200001 -0.022863466 8.7647506e-39 340 260
0.024080278 0.65399998 -0.022933599 6.9211967e-39 341 260
0.025226958 0.65399998 -0.022933599 4.2536569e-39 342 260
0.026413966 0.65499997 -0.022968665 3.239505e-39 343 260
0.027646558 0.65700001 -0.023038799 1.9541738e-39 344 260
0.028886165 0.65899998 -0.023108931 2.2307607e-39 345 260
0.030132787 0.66100001 -0.023179067 2.9665278e-39 346 260
0.031291738 0.66100001 -0.023179067 3.6118972e-39 347 260
0.032499783 0.662 -0.023214132 4.7124869e-39 348 260
0.033711337 0.66299999 -0.0232492 4.6202912e-39 349 260
0.034873798 0.66299999 -0.0232492 4.0717866e-39 350 260
0.03619932 0.66600001 -0.023354398 4.0717866e-39 351 260
0.037423145 0.667 -0.023389466 4.4398474e-39 352 260
0.038592618 0.667 -0.023389466 4.6238786e-39 353 260
0.039821707 0.66799998 -0.023424532 4.6253135e-39 354 260
0.041115668 0.67000002 -0.023494666 4.9015402e-39 355 260
0.042416636 0.67199999 -0.023564799 5.4521945e-39 356 260
0.043724626 0.67400002 -0.023634933 5.8213357e-39 357 260
0.044972997 0.67500001 -0.023669999 6.2819425e-39 358 260
0.046361636 0.67799997 -0.023775198 6.927312e-39 359 260
0.047620531 0.67900002 -0.023810266 9.1338666e-39 360 260
0.049026705 0.68199998 -0.023915464 1.0516801e-38 361 260
0.050222475 0.68199998 -0.023915464 1.5948768e-38 362 260
-0.074670963 0.676 -0.024890319 1.1433353e-38 257 261
-0.073485702 0.676 -0.024890319 9.8710841e-39 258 261
-0.072193496 0.67500001 -0.0248535 9.4101073e-39 259 261
-0.070904799 0.67400002 -0.024816679 8.0315043e-39 260 261
-0.069516152 0.67199999 -0.024743039 7.5705262e-39 261 261
-0.068236224 0.671 -0.024706218 7.0177223e-39 262 261
-0.066959806 0.67000002 -0.024669399 6.5571029e-39 263 261
-0.065588683 0.66799998 -0.02459576 5.6383892e-39 264 261
-0.064321034 0.667 -0.024558939 5.3614436e-39 265 261
-0.063056879 0.66600001 -0.02452212 4.2594218e-39 266 261
-0.061610378 0.66299999 -0.024411658 4.1672248e-39 267 261
-0.060356744 0.662 -0.024374841 3.5218722e-39 268 261
-0.059106622 0.66100001 -0.02433802 2.8765028e-39 269 261
-0.057947662 0.66100001 -0.02433802 1.7719671e-39 270 261
-0.056616884 0.65899998 -0.024264378 1.3113477e-39 271 261
-0.055377278 0.65799999 -0.02422756 2.6378042e-41 272 261
-0.053976361 0.65499997 -0.024117097 2.6378042e-41 273 261
-0.052827932 0.65499997 -0.024117097 3.9659829e-40 274 261
-0.051600594 0.65399998 -0.024080278 2.2405109e-39 275 261
-0.050453916 0.65399998 -0.024080278 5.3665051e-39 276 261
-0.049231846 0.653 -0.024043459 6.6572439e-39 277 261
-0.048086919 0.653 -0.024043459 9.0478297e-39 278 261
-0.046870105 0.65200001 -0.024006641 1.0154177e-38 279 261
-0.045726933 0.65200001 -0.024006641 1.2088815e-38 280 261
-0.044446997 0.64999998 -0.023932999 1.2918935e-38 281 261
-0.04330733 0.64999998 -0.023932999 1.4020592e-38 282 261
-0.042102791 0.64899999 -0.023896178 1.4204984e-38 283 261
-0.040964879 0.64899999 -0.023896178 1.4020239e-38 284 261
-0.039888334 0.64999998 -0.023932999 1.3467065e-38 285 261
-0.038748663 0.64999998 -0.023932999 1.3099358e-38 286 261
-0.037551139 0.64899999 -0.023896178 1.3099358e-38 287 261
-0.036413226 0.64899999 -0.023896178 1.3923355e-38 288 261
-0.03527531 0.64899999 -0.023896178 1.4015909e-38 289 261
-0.034189999 0.64999998 -0.023932999 1.4015553e-38 290 261
-0.039660398 0.77999997 -0.028719598 1.4015553e-38 291 261
-0.038292799 0.77999997 -0.028719598 1.4105951e-38 292 261
-0.036925197 0.77999997 -0.028719598 1.4105951e-38 293 261
-0.035557598 0.77999997 -0.028719598 1.4013758e-38 294 261
-0.034189999 0.77999997 -0.028719598 1.3736811e-38 295 261
-0.032822397 0.77999997 -0.028719598 1.3370187e-38 296 261
-0.031454798 0.77999997 -0.028719598 1.3370187e-38 297 261
-0.030087199 0.77999997 -0.028719598 1.3736445e-38 298 261
-0.028719598 0.77999997 -0.028719598 1.364425e-38 299 261
-0.027351998 0.77999997 -0.028719598 1.3644247e-38 300 261
-0.025984399 0.77999997 -0.028719598 1.3552051e-38 301 261
-0.024648361 0.78100002 -0.028756421 1.3369461e-38 302 261
-0.023279008 0.78100002 -0.028756421 1.3369461e-38 303 261
-0.021965759 0.78299999 -0.028830061 1.3369108e-38 304 261
-0.0205929 0.78299999 -0.028830061 1.3369108e-38 305 261
-0.019170946 0.78100002 -0.028756421 1.3369108e-38 306 261
-0.017801592 0.78100002 -0.028756421 1.3369108e-38 307 261
-0.016432239 0.78100002 -0.028756421 1.3461303e-38 308 261
-0.015062887 0.78100002 -0.028756421 1.3369108e-38 309 261
-0.013693534 0.78100002 -0.028756421 1.3369105e-38 310 261
-0.01232418 0.78100002 -0.028756421 1.3369105e-38 311 261
-0.010954826 0.78100002 -0.028756421 1.3461654e-38 312 261
-0.0095854728 0.78100002 -0.028756421 1.3461654e-38 313 261
-0.0082161194 0.78100002 -0.028756421 1.3460935e-38 314 261
-0.0068467669 0.78100002 -0.028756421 1.3460935e-38 315 261
-0.0054774131 0.78100002 -0.028756421 1.3369105e-38 316 261
-0.0041080597 0.78100002 -0.028756421 1.3369105e-38 317 261
-0.0027457199 0.78299999 -0.028830061 1.3093241e-38 318 261
-0.0013728599 0.78299999 -0.028830061 1.3093241e-38 319 261
0 0.78299999 -0.028830061 1.3093241e-38 320 261
0.0013728599 0.78299999 -0.028830061 1.3370187e-38 321 261
0.0027457199 0.78299999 -0.028830061 1.3464175e-38 322 261
0.0041185799 0.78299999 -0.028830061 1.355637e-38 323 261
0.0054914397 0.78299999 -0.028830061 1.3648563e-38 324 261
0.0068642995 0.78299999 -0.028830061 1.3648563e-38 325 261
0.0082161194 0.78100002 -0.028756421 1.3556373e-38 326 261
0.0095731998 0.77999997 -0.028719598 1.3371623e-38 327 261
0.010940799 0.77999997 -0.028719598 1.3003568e-38 328 261
0.012308398 0.77999997 -0.028719598 1.2542591e-38 329 261
0.013570799 0.77399999 -0.028498679 1.2267093e-38 330 261
0.014927879 0.77399999 -0.028498679 1.2174897e-38 331 261
0.016284959 0.77399999 -0.028498679 1.1806836e-38 332 261
0.014815666 0.64999998 -0.023932999 1.1346218e-38 333 261
0.015955333 0.64999998 -0.023932999 1.0334941e-38 334 261
0.017147599 0.65200001 -0.024006641 9.6895711e-39 335 261
0.018290773 0.65200001 -0.024006641 8.584311e-39 336 261
0.019433947 0.65200001 -0.024006641 7.9389415e-39 337 261
0.02057712 0.65200001 -0.024006641 6.7443654e-39 338 261
0.021720294 0.65200001 -0.024006641 6.098996e-39 339 261
0.022863466 0.65200001 -0.024006641 4.7160742e-39 340 261
0.024080278 0.65399998 -0.024080278 3.7022824e-39 341 261
0.025226958 0.65399998 -0.024080278 2.7814205e-39 342 261
0.026413966 0.65499997 -0.024117097 2.6888647e-39 343 261
0.027646558 0.65700001 -0.024190739 2.414803e-39 344 261
0.028886165 0.65899998 -0.024264378 2.9679768e-39 345 261
0.030132787 0.66100001 -0.02433802 3.6111812e-39 346 261
0.031291738 0.66100001 -0.02433802 3.6111812e-39 347 261
0.032499783 0.662 -0.024374841 3.7955654e-39 348 261
0.033711337 0.66299999 -0.024411658 3.7955654e-39 349 261
0.035031598 0.66600001 -0.02452212 4.4384139e-39 350 261
0.03619932 0.66600001 -0.02452212 4.5306109e-39 351 261
0.037423145 0.667 -0.024558939 4.6238786e-39 352 261
0.038650475 0.66799998 -0.02459576 4.7160742e-39 353 261
0.039940935 0.67000002 -0.024669399 4.9008214e-39 354 261
0.041177034 0.671 -0.024706218 5.085214e-39 355 261
0.042416636 0.67199999 -0.024743039 5.6369417e-39 356 261
0.043724626 0.67400002 -0.024816679 5.9135286e-39 357 261
0.044972997 0.67500001 -0.0248535 7.4768858e-39 358 261
0.046361636 0.67799997 -0.024963958 7.7534727e-39 359 261
0.047620531 0.67900002 -0.025000781 1.0238406e-38 360 261
0.048811045 0.67900002 -0.025000781 1.1990123e-38 361 261
-0.073485702 0.676 -0.026075572 1.0054754e-38 258 262
-0.072193496 0.67500001 -0.026037 9.6859712e-39 259 262
-0.070904799 0.67400002 -0.025998428 8.3084499e-39 260 262
-0.069516152 0.67199999 -0.025921278 7.7552776e-39 261 262
-0.068337917 0.67199999 -0.025921278 7.0188041e-39 262 262
-0.06705974 0.671 -0.025882706 6.6500202e-39 263 262
-0.065588683 0.66799998 -0.025766984 5.5476369e-39 264 262
-0.064321034 0.667 -0.025728412 5.3632443e-39 265 262
-0.063056879 0.66600001 -0.02568984 4.2612197e-39 266 262
-0.061610378 0.66299999 -0.025574118 4.1690241e-39 267 262
-0.060356744 0.662 -0.025535546 3.7087676e-39 268 262
-0.059106622 0.66100001 -0.025496973 3.5240176e-39 269 262
-0.057947662 0.66100001 -0.025496973 3.7970144e-39 270 262
-0.056616884 0.65899998 -0.025419824 3.5204275e-39 271 262
-0.055377278 0.65799999 -0.025381252 3.4278843e-39 272 262
-0.053976361 0.65499997 -0.025265532 3.1509387e-39 273 262
-0.052827932 0.65499997 -0.025265532 1.3127967e-39 274 262
-0.051600594 0.65399998 -0.025226958 7.5926274e-40 275 262
-0.050453916 0.65399998 -0.025226958 2.458438e-41 276 262
-0.049231846 0.653 -0.025188386 2.3864113e-41 277 262
-0.048086919 0.653 -0.025188386 2.4943113e-41 278 262
-0.046870105 0.65200001 -0.025149813 2.7464049e-41 279 262
-0.045726933 0.65200001 -0.025149813 3.9947096e-40 280 262
-0.044583756 0.65200001 -0.025149813 1.7824068e-39 281 262
-0.04330733 0.64999998 -0.025072664 5.0924321e-39 282 262
-0.042167664 0.64999998 -0.025072664 6.6601166e-39 283 262
-0.041027997 0.64999998 -0.025072664 9.5102497e-39 284 262
-0.039888334 0.64999998 -0.025072664 1.0800989e-38 285 262
-0.038748663 0.64999998 -0.025072664 1.3099027e-38 286 262
-0.037608996 0.64999998 -0.025072664 1.3559645e-38 287 262
-0.036469329 0.64999998 -0.025072664 1.4387229e-38 288 262
-0.035329666 0.64999998 -0.025072664 1.5401021e-38 289 262
-0.034189999 0.64999998 -0.025072664 1.6045299e-38 290 262
-0.039660398 0.77999997 -0.030087199 1.6137495e-38 291 262
-0.038292799 0.77999997 -0.030087199 1.6320088e-38 292 262
-0.036925197 0.77999997 -0.030087199 1.6227892e-38 293 262
-0.035603184 0.78100002 -0.030125774 1.5491409e-38 294 262
-0.034189999 0.77999997 -0.030087199 1.484604e-38 295 262
-0.032822397 0.77999997 -0.030087199 1.4570173e-38 296 262
-0.031454798 0.77999997 -0.030087199 1.4570173e-38 297 262
-0.030087199 0.77999997 -0.030087199 1.5120102e-38 298 262
-0.028756421 0.78100002 -0.030125774 1.4566929e-38 299 262
-0.027387068 0.78100002 -0.030125774 1.3831528e-38 300 262
-0.026017714 0.78100002 -0.030125774 1.3647497e-38 301 262
-0.024648361 0.78100002 -0.030125774 1.3463468e-38 302 262
-0.023279008 0.78100002 -0.030125774 1.3371273e-38 303 262
-0.021965759 0.78299999 -0.03020292 1.318724e-38 304 262
-0.0205929 0.78299999 -0.03020292 1.318724e-38 305 262
-0.019220039 0.78299999 -0.03020292 1.3186888e-38 306 262
-0.017801592 0.78100002 -0.030125774 1.3186888e-38 307 262
-0.016432239 0.78100002 -0.030125774 1.3370201e-38 308 262
-0.015062887 0.78100002 -0.030125774 1.3370201e-38 309 262
-0.013693534 0.78100002 -0.030125774 1.3278354e-38 310 262
-0.01232418 0.78100002 -0.030125774 1.3278354e-38 311 262
-0.010954826 0.78100002 -0.030125774 1.3095395e-38 312 262
-0.0095854728 0.78100002 -0.030125774 1.318759e-38 313 262
-0.0082161194 0.78100002 -0.030125774 1.3370905e-38 314 262
-0.0056720334 0.64700001 -0.024956945 1.3002124e-38 315 262
-0.0045376266 0.64700001 -0.024956945 1.3184367e-38 316 262
-0.0034032199 0.64700001 -0.024956945 1.3092172e-38 317 262
-0.0027457199 0.78299999 -0.03020292 1.3000698e-38 318 262
-0.0013728599 0.78299999 -0.03020292 1.2908143e-38 319 262
0 0.78299999 -0.03020292 1.2909576e-38 320 262
0.0013728599 0.78299999 -0.03020292 1.3647499e-38 321 262
0.0027457199 0.78299999 -0.03020292 1.4018793e-38 322 262
0.0041291001 0.78500003 -0.030280067 1.4018793e-38 323 262
0.0054914397 0.78299999 -0.03020292 1.3650012e-38 324 262
0.0068642995 0.78299999 -0.03020292 1.3557815e-38 325 262
0.0082161194 0.78100002 -0.030125774 1.3555664e-38 326 262
0.0095854728 0.78100002 -0.030125774 1.2818099e-38 327 262
0.010954826 0.78100002 -0.030125774 1.1162901e-38 328 262
0.01020966 0.64700001 -0.024956945 1.0333138e-38 329 262
0.011344067 0.64700001 -0.024956945 9.5066218e-39 330 262
0.012478473 0.64700001 -0.024956945 8.8612524e-39 331 262
0.013654959 0.64899999 -0.025034092 7.7559964e-39 332 262
0.014792874 0.64899999 -0.025034092 7.0184314e-39 333 262
0.015955333 0.64999998 -0.025072664 5.3607247e-39 334 262
0.017147599 0.65200001 -0.025149813 4.1625403e-39 335 262
0.018290773 0.65200001 -0.025149813 2.2307635e-39 336 262
0.019433947 0.65200001 -0.025149813 1.7697867e-39 337 262
0.02057712 0.65200001 -0.025149813 1.4953634e-39 338 262
0.021720294 0.65200001 -0.025149813 1.7719503e-39 339 262
0.022898532 0.653 -0.025188386 2.4158778e-39 340 262
0.024117097 0.65499997 -0.025265532 2.8764972e-39 341 262
0.025265532 0.65499997 -0.025265532 4.0700013e-39 342 262
0.026413966 0.65499997 -0.025265532 3.9778057e-39 343 262
0.027688639 0.65799999 -0.025381252 3.427506e-39 344 262
0.028973831 0.66100001 -0.025496973 3.5197016e-39 345 262
0.030132787 0.66100001 -0.025496973 3.5196988e-39 346 262
0.031291738 0.66100001 -0.025496973 3.6122532e-39 347 262
0.032499783 0.662 -0.025535546 3.8877583e-39 348 262
0.033711337 0.66299999 -0.025574118 3.8877583e-39 349 262
0.035031598 0.66600001 -0.02568984 4.3472959e-39 350 262
0.036253672 0.667 -0.025728412 4.4398502e-39 351 262
0.037479252 0.66799998 -0.025766984 4.7164301e-39 352 262
0.038766202 0.67000002 -0.025844134 4.8086257e-39 353 262
0.039940935 0.67000002 -0.025844134 5.1766852e-39 354 262
0.041177034 0.671 -0.025882706 5.3610779e-39 355 262
0.042416636 0.67199999 -0.025921278 5.8216889e-39 356 262
0.043724626 0.67400002 -0.025998428 6.2823083e-39 357 262
0.044972997 0.67500001 -0.026037 7.7531069e-39 358 262
0.046361636 0.67799997 -0.026152719 8.1218881e-39 359 262
0.047620531 0.67900002 -0.026191294 1.1895773e-38 360 262
0.048811045 0.67900002 -0.026191294 1.364785e-38 361 262
-0.075333714 0.68199998 -0.027502786 1.3643884e-38 257 263
-0.073811822 0.67900002 -0.027381808 1.0607202e-38 258 263
-0.072300449 0.676 -0.027260827 9.9618322e-39 259 263
-0.071010001 0.67500001 -0.027220501 8.9512998e-39 260 263
-0.069723055 0.67400002 -0.027180174 8.398126e-39 261 263
-0.068337917 0.67199999 -0.027099518 7.5701758e-39 262 263
-0.06705974 0.671 -0.027059194 7.2017535e-39 263 263
-0.065785065 0.67000002 -0.027018867 6.191563e-39 264 263
-0.064417459 0.66799998 -0.026938211 5.9146174e-39 265 263
-0.063056879 0.66600001 -0.026857559 4.9047885e-39 266 263
-0.061703302 0.66399997 -0.026776904 4.8125914e-39 267 263
-0.060447913 0.66299999 -0.026736578 4.6271254e-39 268 263
-0.05919604 0.662 -0.026696252 4.3505371e-39 269 263
-0.057947662 0.66100001 -0.026655925 4.163999e-39 270 263
-0.056616884 0.65899998 -0.026575271 3.8874107e-39 271 263
-0.055461437 0.65899998 -0.026575271 3.794506e-39 272 263
-0.054141179 0.65700001 -0.026494619 3.6104749e-39 273 263
-0.052827932 0.65499997 -0.026413966 3.0605437e-39 274 263
-0.051600594 0.65399998 -0.02637364 2.8757938e-39 275 263
-0.050453916 0.65399998 -0.02637364 1.7755671e-39 276 263
-0.049307238 0.65399998 -0.02637364 1.4067831e-39 277 263
-0.048086919 0.653 -0.026333313 8.5577718e-40 278 263
-0.046941992 0.653 -0.026333313 7.6358155e-40 279 263
-0.045797065 0.653 -0.026333313 1.2037995e-40 280 263
-0.044583756 0.65200001 -0.026292987 1.2037995e-40 281 263
-0.04330733 0.64999998 -0.026212333 1.132734e-39 282 263
-0.042167664 0.64999998 -0.026212333 1.5937108e-39 283 263
-0.041027997 0.64999998 -0.026212333 2.6968129e-39 284 263
-0.039888334 0.64999998 -0.026212333 3.0659556e-39 285 263
-0.038748663 0.64999998 -0.026212333 4.7207882e-39 286 263
-0.037551139 0.64899999 -0.026172007 5.2739619e-39 287 263
-0.036413226 0.64899999 -0.026172007 6.0125836e-39 288 263
-0.03527531 0.64899999 -0.026172007 7.118571e-39 289 263
-0.034137398 0.64899999 -0.026172007 8.3145778e-39 290 263
-0.032999486 0.64899999 -0.026172007 8.775556e-39 291 263
-0.038341891 0.78100002 -0.031495128 1.0154162e-38 292 263
-0.036972538 0.78100002 -0.031495128 1.0706975e-38 293 263
-0.035603184 0.78100002 -0.031495128 1.1074317e-38 294 263
-0.034233831 0.78100002 -0.031495128 1.1350903e-38 295 263
-0.032822397 0.77999997 -0.031454798 1.2086664e-38 296 263
-0.031454798 0.77999997 -0.031454798 1.2455806e-38 297 263
-0.030087199 0.77999997 -0.031454798 1.328232e-38 298 263
-0.023785722 0.64600003 -0.026051028 1.3190124e-38 299 263
-0.022582933 0.64399999 -0.025970373 1.2914979e-38 300 263
-0.021453787 0.64399999 -0.025970373 1.309973e-38 301 263
-0.02032464 0.64399999 -0.025970373 1.3192289e-38 302 263
-0.019195493 0.64399999 -0.025970373 1.3284843e-38 303 263
-0.018066347 0.64399999 -0.025970373 1.3559983e-38 304 263
-0.016989801 0.64600003 -0.026051028 1.3467787e-38 305 263
-0.015857147 0.64600003 -0.026051028 1.4017721e-38 306 263
-0.014724494 0.64600003 -0.026051028 1.4017721e-38 307 263
-0.013612879 0.64700001 -0.026091354 1.374186e-38 308 263
-0.012478473 0.64700001 -0.026091354 1.3649664e-38 309 263
-0.0113616 0.648 -0.02613168 1.3281601e-38 310 263
-0.010225439 0.648 -0.02613168 1.2912818e-38 311 263
-0.0090892799 0.648 -0.02613168 1.2638026e-38 312 263
-0.0079531204 0.648 -0.02613168 1.3006809e-38 313 263
-0.0068169599 0.648 -0.02613168 1.3648584e-38 314 263
-0.0056720334 0.64700001 -0.026091354 1.3095412e-38 315 263
-0.0045376266 0.64700001 -0.026091354 1.2727354e-38 316 263
-0.0034032199 0.64700001 -0.026091354 1.2450768e-38 317 263
-0.0022653067 0.64600003 -0.026051028 1.2080909e-38 318 263
-0.0011326533 0.64600003 -0.026051028 1.1527736e-38 319 263
0 0.64600003 -0.026051028 1.116147e-38 320 263
0.0011326533 0.64600003 -0.026051028 1.1253665e-38 321 263
0.0022758266 0.64899999 -0.026172007 1.0795926e-38 322 263
0.0041291001 0.78500003 -0.031656433 1.0150556e-38 323 263
0.0054914397 0.78299999 -0.031575777 9.1382148e-39 324 263
0.0068642995 0.78299999 -0.031575777 8.7690722e-39 325 263
0.0082371598 0.78299999 -0.031575777 7.6641763e-39 326 263
0.0079776663 0.64999998 -0.026212333 6.8340569e-39 327 263
0.0091173323 0.64999998 -0.026212333 5.9149733e-39 328 263
0.01020966 0.64700001 -0.026091354 5.3617995e-39 329 263
0.011344067 0.64700001 -0.026091354 4.901543e-39 330 263
0.012478473 0.64700001 -0.026091354 4.3483707e-39 331 263
0.013654959 0.64899999 -0.026172007 3.8870422e-39 332 263
0.014792874 0.64899999 -0.026172007 3.7948466e-39 333 263
0.016004426 0.65200001 -0.026292987 3.1509247e-39 334 263
0.017147599 0.65200001 -0.026292987 2.9661747e-39 335 263
0.018290773 0.65200001 -0.026292987 2.9654614e-39 336 263
0.019463753 0.653 -0.026333313 2.8732658e-39 337 263
0.020608678 0.653 -0.026333313 2.4155219e-39 338 263
0.021753605 0.653 -0.026333313 2.6002719e-39 339 263
0.022898532 0.653 -0.026333313 2.9683299e-39 340 263
0.024117097 0.65499997 -0.026413966 3.0605255e-39 341 263
0.025265532 0.65499997 -0.026413966 3.2431189e-39 342 263
0.026494619 0.65700001 -0.026494619 3.42715e-39 343 263
0.027730718 0.65899998 -0.026575271 3.42715e-39 344 263
0.028973831 0.66100001 -0.026655925 3.42715e-39 345 263
0.030132787 0.66100001 -0.026655925 3.5196988e-39 346 263
0.031339079 0.662 -0.026696252 3.6122532e-39 347 263
0.032499783 0.662 -0.026696252 3.8877583e-39 348 263
0.033711337 0.66299999 -0.026736578 3.9799539e-39 349 263
0.035031598 0.66600001 -0.026857559 4.2558191e-39 350 263
0.036308024 0.66799998 -0.026938211 4.3480147e-39 351 263
0.037591465 0.67000002 -0.027018867 4.7157112e-39 352 263
0.038824059 0.671 -0.027059194 5.0841336e-39 353 263
0.040000543 0.671 -0.027059194 5.2688822e-39 354 263
0.041238401 0.67199999 -0.027099518 5.4532735e-39 355 263
0.042542879 0.67400002 -0.027180174 6.1893966e-39 356 263
0.043724626 0.67400002 -0.027180174 6.6500146e-39 357 263
0.044972997 0.67500001 -0.027220501 8.3052003e-39 358 263
0.046224877 0.676 -0.027260827 8.674343e-39 359 263
0.047410134 0.676 -0.027260827 1.3921557e-38 360 263
-0.075333714 0.68199998 -0.02869856 1.5117932e-38 257 264
-0.073920533 0.68000001 -0.028614398 1.1895775e-38 258 264
-0.072621316 0.67900002 -0.028572321 1.0789429e-38 259 264
-0.0713256 0.67799997 -0.028530238 9.4115549e-39 260 264
-0.069929942 0.676 -0.028446076 8.7661855e-39 261 264
-0.068541311 0.67400002 -0.02836192 7.6623715e-39 262 264
-0.067159683 0.67199999 -0.02827776 7.3857846e-39 263 264
-0.065883249 0.671 -0.028235679 6.4670681e-39 264 264
-0.064610332 0.67000002 -0.028193599 6.1908413e-39 265 264
-0.063151561 0.667 -0.028067358 5.456163e-39 266 264
-0.061889157 0.66600001 -0.028025279 5.1795775e-39 267 264
-0.060539093 0.66399997 -0.027941117 4.902992e-39 268 264
-0.059285458 0.66299999 -0.027899038 4.5342109e-39 269 264
-0.058035329 0.662 -0.027856959 4.4398628e-39 270 264
-0.056788713 0.66100001 -0.02781488 4.0714391e-39 271 264
-0.05562976 0.66100001 -0.02781488 4.2536821e-39 272 264
-0.054223582 0.65799999 -0.027688639 4.1611278e-39 273 264
-0.052989237 0.65700001 -0.027646558 3.7041111e-39 274 264
-0.051679496 0.65499997 -0.027562398 3.7963081e-39 275 264
-0.050531063 0.65499997 -0.027562398 3.1556106e-39 276 264
-0.049382631 0.65499997 -0.027562398 3.1556106e-39 277 264
-0.048160557 0.65399998 -0.027520318 3.2478091e-39 278 264
-0.047013879 0.65399998 -0.027520318 3.2478091e-39 279 264
-0.045797065 0.653 -0.027478239 2.6035327e-39 280 264
-0.044652138 0.653 -0.027478239 2.3269444e-39 281 264
-0.04330733 0.64999998 -0.027351998 1.2231276e-39 282 264
-0.042167664 0.64999998 -0.027351998 7.6250955e-40 283 264
-0.041027997 0.64999998 -0.027351998 2.6747985e-41 284 264
-0.039888334 0.64999998 -0.027351998 2.4947317e-41 285 264
-0.038748663 0.64999998 -0.027351998 2.495152e-41 286 264
-0.037551139 0.64899999 -0.027309919 2.4231253e-41 287 264
-0.036413226 0.64899999 -0.027309919 2.5664781e-41 288 264
-0.03527531 0.64899999 -0.027309919 2.6746584e-41 289 264
-0.034137398 0.64899999 -0.027309919 2.7818577e-41 290 264
-0.032999486 0.64899999 -0.027309919 2.9619246e-41 291 264
-0.03186157 0.64899999 -0.027309919 1.7770076e-39 292 264
-0.03067632 0.648 -0.02726784 2.7915197e-39 293 264
-0.029494572 0.64700001 -0.027225759 4.4463467e-39 294 264
-0.028316336 0.64600003 -0.02718368 5.1839117e-39 295 264
-0.02718368 0.64600003 -0.02718368 6.5632364e-39 296 264
-0.026051028 0.64600003 -0.02718368 7.3008014e-39 297 264
-0.024918374 0.64600003 -0.02718368 8.5872186e-39 298 264
-0.02371208 0.64399999 -0.027099518 8.9559998e-39 299 264
-0.022582933 0.64399999 -0.027099518 9.2329412e-39 300 264
-0.021453787 0.64399999 -0.027099518 9.8783106e-39 301 264
-0.02032464 0.64399999 -0.027099518 1.0889937e-38 302 264
-0.019195493 0.64399999 -0.027099518 1.1351276e-38 303 264
-0.018066347 0.64399999 -0.027099518 1.236326e-38 304 264
-0.0169372 0.64399999 -0.027099518 1.2455455e-38 305 264
-0.015857147 0.64600003 -0.02718368 1.3006461e-38 306 264
-0.014724494 0.64600003 -0.02718368 1.2914266e-38 307 264
-0.013612879 0.64700001 -0.027225759 1.2453286e-38 308 264
-0.012478473 0.64700001 -0.027225759 1.2176698e-38 309 264
-0.011344067 0.64700001 -0.027225759 1.1440578e-38 310 264
-0.01020966 0.64700001 -0.027225759 1.0979601e-38 311 264
-0.0090752533 0.64700001 -0.027225759 1.0061243e-38 312 264
-0.0079408465 0.64700001 -0.027225759 1.0521863e-38 313 264
-0.0068064397 0.64700001 -0.027225759 1.1438427e-38 314 264
-0.0056720334 0.64700001 -0.027225759 1.0885253e-38 315 264
-0.0045376266 0.64700001 -0.027225759 1.0241686e-38 316 264
-0.0034032199 0.64700001 -0.027225759 9.8725428e-39 317 264
-0.0022653067 0.64600003 -0.02718368 9.4115675e-39 318 264
-0.0011326533 0.64600003 -0.02718368 8.7661981e-39 319 264
0 0.64600003 -0.02718368 7.2946708e-39 320 264
0.0011326533 0.64600003 -0.02718368 6.741497e-39 321 264
0.0022758266 0.64899999 -0.027309919 5.2706983e-39 322 264
0.0034137398 0.64899999 -0.027309919 4.2565478e-39 323 264
0.0045586661 0.64999998 -0.027351998 2.9686984e-39 324 264
0.0056895665 0.64899999 -0.027309919 2.5077203e-39 325 264
0.0068274797 0.64899999 -0.027309919 1.6801274e-39 326 264
0.0079653924 0.64899999 -0.027309919 9.4256099e-40 327 264
0.0091173323 0.64999998 -0.027351998 7.5817394e-40 328 264
0.010256999 0.64999998 -0.027351998 7.5817394e-40 329 264
0.0113616 0.648 -0.02726784 9.4111765e-40 330 264
0.01249776 0.648 -0.02726784 1.3099002e-39 331 264
0.013675999 0.64999998 -0.027351998 1.9523955e-39 332 264
0.014815666 0.64999998 -0.027351998 2.5055693e-39 333 264
0.016004426 0.65200001 -0.02743616 2.6906822e-39 334 264
0.017173899 0.653 -0.027478239 2.9676293e-39 335 264
0.018318826 0.653 -0.027478239 3.4260809e-39 336 264
0.019463753 0.653 -0.027478239 3.4260809e-39 337 264
0.020608678 0.653 -0.027478239 2.9683327e-39 338 264
0.021753605 0.653 -0.027478239 2.9683327e-39 339 264
0.022898532 0.653 -0.027478239 3.1516422e-39 340 264
0.024117097 0.65499997 -0.027562398 3.1516422e-39 341 264
0.025342681 0.65700001 -0.027646558 3.2434749e-39 342 264
0.026494619 0.65700001 -0.027646558 3.427506e-39 343 264
0.02781488 0.66100001 -0.02781488 3.6115343e-39 344 264
0.028973831 0.66100001 -0.02781488 3.6115343e-39 345 264
0.030132787 0.66100001 -0.02781488 3.8870422e-39 346 264
0.031339079 0.662 -0.027856959 3.9792378e-39 347 264
0.032548878 0.66299999 -0.027899038 4.2551016e-39 348 264
0.033762183 0.66399997 -0.027941117 4.3472987e-39 349 264
0.035084199 0.667 -0.028067358 4.4398474e-39 350 264
0.036416732 0.67000002 -0.028193599 4.7160742e-39 351 264
0.037647571 0.671 -0.028235679 4.9000997e-39 352 264
0.03888192 0.67199999 -0.02827776 5.1766852e-39 353 264
0.040060159 0.67199999 -0.02827776 5.3610779e-39 354 264
0.041361131 0.67400002 -0.02836192 5.729859e-39 355 264
0.042606 0.67500001 -0.028404001 6.3737907e-39 356 264
0.043789499 0.67500001 -0.028404001 6.8344101e-39 357 264
0.044972997 0.67500001 -0.028404001 8.6743402e-39 358 264
0.046224877 0.676 -0.028446076 9.3197096e-39 359 264
0.047410134 0.676 -0.028446076 1.5304126e-38 360 264
-0.073920533 0.68000001 -0.029806666 1.3369461e-38 258 265
-0.072728261 0.68000001 -0.029806666 1.1525548e-38 259 265
-0.0713256 0.67799997 -0.029718997 9.6881348e-39 260 265
-0.069929942 0.676 -0.029631332 9.0427654e-39 261 265
-0.068643004 0.67500001 -0.0295875 7.8471201e-39 262 265
-0.067359567 0.67400002 -0.029543666 7.5705318e-39 263 265
-0.065883249 0.671 -0.029412165 6.3766745e-39 264 265
-0.064610332 0.67000002 -0.029368332 6.007892e-39 265 265
-0.063246235 0.66799998 -0.029280664 5.3650463e-39 266 265
-0.06198208 0.667 -0.029236831 5.1802963e-39 267 265
-0.060539093 0.66399997 -0.02910533 4.8115194e-39 268 265
-0.059285458 0.66299999 -0.029061496 4.5349325e-39 269 265
-0.058122993 0.66299999 -0.029061496 4.4405845e-39 270 265
-0.056874625 0.662 -0.029017664 4.163999e-39 271 265
-0.05562976 0.66100001 -0.028973831 4.254401e-39 272 265
-0.054305989 0.65899998 -0.028886165 4.1618466e-39 273 265
-0.05306989 0.65799999 -0.028842334 3.795941e-39 274 265
-0.051837299 0.65700001 -0.028798498 4.0721691e-39 275 265
-0.050685361 0.65700001 -0.028798498 3.2478035e-39 276 265
-0.049533416 0.65700001 -0.028798498 3.3399991e-39 277 265
-0.048234195 0.65499997 -0.028710833 3.0652101e-39 278 265
-0.047085766 0.65499997 -0.028710833 3.0652101e-39 279 265
-0.045867197 0.65399998 -0.028666999 2.8804657e-39 280 265
-0.044652138 0.653 -0.028623167 2.9726613e-39 281 265
-0.043507211 0.653 -0.028623167 2.3290968e-39 282 265
-0.042167664 0.64999998 -0.028491667 2.3290968e-39 283 265
-0.041027997 0.64999998 -0.028491667 1.9610359e-39 284 265
-0.039888334 0.64999998 -0.028491667 1.8684816e-39 285 265
-0.038748663 0.64999998 -0.028491667 1.8684844e-39 286 265
-0.037551139 0.64899999 -0.028447833 1.7762887e-39 287 265
-0.036413226 0.64899999 -0.028447833 2.3269444e-39 288 265
-0.03527531 0.64899999 -0.028447833 2.41914e-39 289 265
-0.034137398 0.64899999 -0.028447833 2.693929e-39 290 265
-0.032999486 0.64899999 -0.028447833 2.693929e-39 291 265
-0.03186157 0.64899999 -0.028447833 1.7755699e-39 292 265
-0.03067632 0.648 -0.028404001 1.959601e-39 293 265
-0.029494572 0.64700001 -0.028360168 1.5929765e-39 294 265
-0.028316336 0.64600003 -0.028316336 1.5929765e-39 295 265
-0.02718368 0.64600003 -0.028316336 1.5929765e-39 296 265
-0.026051028 0.64600003 -0.028316336 1.5929765e-39 297 265
-0.024918374 0.64600003 -0.028316336 1.2256359e-39 298 265
-0.02371208 0.64399999 -0.028228667 1.2256359e-39 299 265
-0.022582933 0.64399999 -0.028228667 8.5793938e-40 300 265
-0.021453787 0.64399999 -0.028228667 9.5049374e-40 301 265
-0.02032464 0.64399999 -0.028228667 9.4977488e-40 302 265
-0.019195493 0.64399999 -0.028228667 1.0419705e-39 303 265
-0.018066347 0.64399999 -0.028228667 1.5926233e-39 304 265
-0.0169372 0.64399999 -0.028228667 1.5004277e-39 305 265
-0.015857147 0.64600003 -0.028316336 1.7762915e-39 306 265
-0.014724494 0.64600003 -0.028316336 1.7762915e-39 307 265
-0.013612879 0.64700001 -0.028360168 1.500778e-39 308 265
-0.012478473 0.64700001 -0.028360168 1.500778e-39 309 265
-0.011344067 0.64700001 -0.028360168 1.2252674e-39 310 265
-0.01020966 0.64700001 -0.028360168 1.2252674e-39 311 265
-0.0090752533 0.64700001 -0.028360168 1.0405188e-39 312 265
-0.0079408465 0.64700001 -0.028360168 9.4832313e-40 313 265
-0.0068064397 0.64700001 -0.028360168 1.2231122e-39 314 265
-0.0056720334 0.64700001 -0.028360168 1.0387209e-39 315 265
-0.0045376266 0.64700001 -0.028360168 1.682291e-39 316 265
-0.0034032199 0.64700001 -0.028360168 1.7744867e-39 317 265
-0.0022653067 0.64600003 -0.028316336 1.9585164e-39 318 265
-0.0011326533 0.64600003 -0.028316336 2.1425475e-39 319 265
0 0.64700001 -0.028360168 2.326573e-39 320 265
0.0011344067 0.64700001 -0.028360168 2.2343774e-39 321 265
