# .PCD v.7 - Point Cloud Data file format
FIELDS x y z rgb imX imY
SIZE 4 4 4 4 4 4
TYPE F F F F F F
COUNT 1 1 1 1 1 1
WIDTH 834
HEIGHT 1
VIEWPOINT 0 0 0 1 0 0 0
POINTS 834
DATA ascii
0.032612 0.74400002 -0.044352323 1.466084e-38 345 274
0.033916477 0.74400002 -0.044352323 1.4750871e-38 346 274
0.035220962 0.74400002 -0.044352323 1.4105501e-38 347 274
0.036525439 0.74400002 -0.044352323 1.2816172e-38 348 274
0.037829921 0.74400002 -0.044352323 1.2816172e-38 349 274
0.039134398 0.74400002 -0.044352323 1.2268021e-38 350 274
0.040330172 0.74199998 -0.044233091 1.2268021e-38 351 274
0.041575037 0.741 -0.044173479 1.3001649e-38 352 274
0.042874258 0.741 -0.044173479 1.2817618e-38 353 274
0.044173479 0.741 -0.044173479 1.3460502e-38 354 274
0.0452886 0.73799998 -0.043994635 1.3644893e-38 355 274
0.046582557 0.73799998 -0.043994635 1.4744429e-38 356 274
-0.048590127 0.74900001 -0.045963634 1.3002025e-38 283 275
-0.047150634 0.74699998 -0.045840897 1.2268385e-38 284 275
-0.045840897 0.74699998 -0.045840897 1.2268385e-38 285 275
-0.044471547 0.74599999 -0.045779534 1.245205e-38 286 275
-0.04316356 0.74599999 -0.045779534 1.245205e-38 287 275
-0.04174336 0.74400002 -0.0456568 1.2452053e-38 288 275
-0.040438879 0.74400002 -0.0456568 1.2544249e-38 289 275
-0.039239597 0.74599999 -0.045779534 1.2268385e-38 290 275
-0.03793161 0.74599999 -0.045779534 1.1807407e-38 291 275
-0.036672719 0.74699998 -0.045840897 9.2252032e-39 292 275
-0.023733119 0.75199997 -0.04614773 4.4361326e-39 302 275
-0.022414612 0.75199997 -0.04614773 7.9395665e-39 303 275
-0.021096105 0.75199997 -0.04614773 1.0980208e-38 304 275
-0.0197776 0.75199997 -0.04614773 1.1901804e-38 305 275
-0.018459093 0.75199997 -0.04614773 1.2266963e-38 306 275
-0.017140586 0.75199997 -0.04614773 1.2266963e-38 307 275
-0.015822079 0.75199997 -0.04614773 1.1899621e-38 308 275
-0.014503572 0.75199997 -0.04614773 1.1991818e-38 309 275
-0.01315 0.75 -0.046024997 1.1349713e-38 310 275
-0.011835 0.75 -0.046024997 1.162594e-38 311 275
-0.010548052 0.75199997 -0.04614773 1.162559e-38 312 275
-0.0092295464 0.75199997 -0.04614773 1.1257167e-38 313 275
-0.0079110395 0.75199997 -0.04614773 1.1440111e-38 314 275
-0.0065925326 0.75199997 -0.04614773 1.1808892e-38 315 275
-0.0052740262 0.75199997 -0.04614773 1.3189673e-38 316 275
-0.0039555198 0.75199997 -0.04614773 1.3835042e-38 317 275
-0.0026370131 0.75199997 -0.04614773 1.4935284e-38 318 275
-0.001315 0.75 -0.046024997 1.4935284e-38 319 275
0 0.75 -0.046024997 1.3461578e-38 320 275
0.001315 0.75 -0.046024997 1.3000598e-38 321 275
0.0026264933 0.74900001 -0.045963634 1.3370454e-38 322 275
0.0039397399 0.74900001 -0.045963634 1.3647041e-38 323 275
0.0052529867 0.74900001 -0.045963634 1.383288e-38 324 275
0.0065662335 0.74900001 -0.045963634 1.4109468e-38 325 275
0.0078794798 0.74900001 -0.045963634 1.4657225e-38 326 275
0.0091927266 0.74900001 -0.045963634 1.4196605e-38 327 275
0.010505973 0.74900001 -0.045963634 1.4012559e-38 328 275
0.01181922 0.74900001 -0.045963634 1.3367189e-38 329 275
0.013132467 0.74900001 -0.045963634 1.3185337e-38 330 275
0.014465 0.75 -0.046024997 1.4291685e-38 331 275
0.01578 0.75 -0.046024997 1.4750167e-38 332 275
0.017072206 0.74900001 -0.045963634 1.4842364e-38 333 275
0.018336359 0.74699998 -0.045840897 1.4934186e-38 334 275
0.019619798 0.74599999 -0.045779534 1.3920035e-38 335 275
0.020927785 0.74599999 -0.045779534 1.2631817e-38 336 275
0.022235774 0.74599999 -0.045779534 1.3830359e-38 337 275
0.023575317 0.74699998 -0.045840897 1.4844881e-38 338 275
0.024851745 0.74599999 -0.045779534 1.4937077e-38 339 275
0.026159734 0.74599999 -0.045779534 1.5579199e-38 340 275
0.027467718 0.74599999 -0.045779534 1.4104429e-38 341 275
0.02869856 0.74400002 -0.0456568 1.3277184e-38 342 275
0.030003037 0.74400002 -0.0456568 1.3184987e-38 343 275
0.031307522 0.74400002 -0.0456568 1.2727253e-38 344 275
0.032524332 0.74199998 -0.045534063 1.3096394e-38 345 275
0.033825304 0.74199998 -0.045534063 1.4291332e-38 346 275
0.03512628 0.74199998 -0.045534063 1.41073e-38 347 275
0.036427252 0.74199998 -0.045534063 1.4196953e-38 348 275
0.037728224 0.74199998 -0.045534063 1.4196953e-38 349 275
0.0390292 0.74199998 -0.045534063 1.3461536e-38 350 275
0.04027582 0.741 -0.045472696 1.3184949e-38 351 275
0.041462827 0.73900002 -0.045349967 1.2726139e-38 352 275
0.042758539 0.73900002 -0.045349967 1.2726139e-38 353 275
0.044173479 0.741 -0.045472696 1.2633968e-38 354 275
0.045165867 0.736 -0.045165867 1.3002392e-38 355 275
0.046330083 0.73400003 -0.045043133 1.410265e-38 356 275
0.047617026 0.73400003 -0.045043133 1.4287041e-38 357 275
-0.049969997 0.75 -0.047339998 1.3740313e-38 282 276
-0.048590127 0.74900001 -0.047276881 1.3279335e-38 283 276
-0.047150634 0.74699998 -0.047150634 1.2729011e-38 284 276
-0.045840897 0.74699998 -0.047150634 1.2544621e-38 285 276
-0.044471547 0.74599999 -0.047087517 1.2636444e-38 286 276
-0.04316356 0.74599999 -0.047087517 1.2544249e-38 287 276
-0.04174336 0.74400002 -0.046961278 1.2544246e-38 288 276
-0.040438879 0.74400002 -0.046961278 1.2544246e-38 289 276
-0.039134398 0.74400002 -0.046961278 1.2360583e-38 290 276
-0.037829921 0.74400002 -0.046961278 1.2452779e-38 291 276
-0.036525439 0.74400002 -0.046961278 1.069927e-38 292 276
-0.023733119 0.75199997 -0.047466237 6.455101e-39 302 276
-0.022414612 0.75199997 -0.047466237 6.7316879e-39 303 276
-0.021096105 0.75199997 -0.047466237 8.5849387e-39 304 276
-0.0196987 0.74900001 -0.047276881 1.1166416e-38 305 276
-0.018385453 0.74900001 -0.047276881 1.217478e-38 306 276
-0.017072206 0.74900001 -0.047276881 1.217478e-38 307 276
-0.01575896 0.74900001 -0.047276881 1.1899621e-38 308 276
-0.014445714 0.74900001 -0.047276881 1.1899621e-38 309 276
-0.013132467 0.74900001 -0.047276881 1.1533016e-38 310 276
-0.01181922 0.74900001 -0.047276881 1.1717047e-38 311 276
-0.010505973 0.74900001 -0.047276881 1.1808536e-38 312 276
-0.0091927266 0.74900001 -0.047276881 1.1347917e-38 313 276
-0.0078794798 0.74900001 -0.047276881 1.1806005e-38 314 276
-0.0065662335 0.74900001 -0.047276881 1.2174429e-38 315 276
-0.0052529867 0.74900001 -0.047276881 1.2727955e-38 316 276
-0.0039397399 0.74900001 -0.047276881 1.2912347e-38 317 276
-0.0026264933 0.74900001 -0.047276881 1.3739963e-38 318 276
-0.0013132467 0.74900001 -0.047276881 1.3832158e-38 319 276
0 0.74699998 -0.047150634 1.3830356e-38 320 276
0.0013097399 0.74699998 -0.047150634 1.3461934e-38 321 276
0.0026159731 0.74599999 -0.047087517 1.3002381e-38 322 276
0.0039239596 0.74599999 -0.047087517 1.263324e-38 323 276
0.0052389596 0.74699998 -0.047150634 1.254394e-38 324 276
0.0065486995 0.74699998 -0.047150634 1.401907e-38 325 276
0.0078584393 0.74699998 -0.047150634 1.5670698e-38 326 276
0.0091681797 0.74699998 -0.047150634 1.5394111e-38 327 276
0.010477919 0.74699998 -0.047150634 1.5208622e-38 328 276
0.011771879 0.74599999 -0.047087517 1.4010438e-38 329 276
0.013079867 0.74599999 -0.047087517 1.3277187e-38 330 276
0.014387853 0.74599999 -0.047087517 1.4291337e-38 331 276
0.015695838 0.74599999 -0.047087517 1.4935279e-38 332 276
0.017003827 0.74599999 -0.047087517 1.5027833e-38 333 276
0.01826272 0.74400002 -0.046961278 1.4934186e-38 334 276
0.0195146 0.74199998 -0.046835039 1.4012231e-38 335 276
0.020815572 0.74199998 -0.046835039 1.3367921e-38 336 276
0.022176161 0.74400002 -0.046961278 1.3367921e-38 337 276
0.023480639 0.74400002 -0.046961278 1.2910182e-38 338 276
0.02478512 0.74400002 -0.046961278 1.3278606e-38 339 276
0.026089599 0.74400002 -0.046961278 1.3922189e-38 340 276
0.027394081 0.74400002 -0.046961278 1.3922189e-38 341 276
0.02869856 0.74400002 -0.046961278 1.3738158e-38 342 276
0.030003037 0.74400002 -0.046961278 1.3461931e-38 343 276
0.031223357 0.74199998 -0.046835039 1.2081516e-38 344 276
0.032524332 0.74199998 -0.046835039 1.2081516e-38 345 276
0.033779722 0.741 -0.046771921 1.392472e-38 346 276
0.035078939 0.741 -0.046771921 1.475484e-38 347 276
0.036279973 0.73900002 -0.046645679 1.5302622e-38 348 276
0.037575684 0.73900002 -0.046645679 1.5025676e-38 349 276
0.038818799 0.73799998 -0.046582557 1.4105133e-38 350 276
0.040112756 0.73799998 -0.046582557 1.3275372e-38 351 276
0.041406717 0.73799998 -0.046582557 1.2634293e-38 352 276
0.042700678 0.73799998 -0.046582557 1.2634293e-38 353 276
0.043994635 0.73799998 -0.046582557 1.2266963e-38 354 276
0.045165867 0.736 -0.046456318 1.2543548e-38 355 276
0.046266954 0.73299998 -0.046266954 1.3276113e-38 356 276
0.04755215 0.73299998 -0.046266954 1.3644896e-38 357 276
-0.051421758 0.75199997 -0.048784744 1.585329e-38 281 277
-0.049969997 0.75 -0.048655 1.3832155e-38 282 277
-0.048590127 0.74900001 -0.048590127 1.3647764e-38 283 277
-0.047150634 0.74699998 -0.048460379 1.2729736e-38 284 277
-0.045840897 0.74699998 -0.048460379 1.2545343e-38 285 277
-0.044471547 0.74599999 -0.048395503 1.2636444e-38 286 277
-0.043047838 0.74400002 -0.048265759 1.2636444e-38 287 277
-0.04174336 0.74400002 -0.048265759 1.2544246e-38 288 277
-0.040438879 0.74400002 -0.048265759 1.2544246e-38 289 277
-0.0390292 0.74199998 -0.048136011 1.2268382e-38 290 277
-0.037728224 0.74199998 -0.048136011 1.2360936e-38 291 277
-0.036525439 0.74400002 -0.048265759 1.2357709e-38 292 277
-0.020955838 0.74699998 -0.048460379 6.5544839e-39 304 277
-0.019646099 0.74699998 -0.048460379 9.5969383e-39 305 277
-0.018336359 0.74699998 -0.048460379 1.1808886e-38 306 277
-0.017026618 0.74699998 -0.048460379 1.1901441e-38 307 277
-0.015716879 0.74699998 -0.048460379 1.1990737e-38 308 277
-0.014407139 0.74699998 -0.048460379 1.2082933e-38 309 277
-0.013097399 0.74699998 -0.048460379 1.1899993e-38 310 277
-0.011787659 0.74699998 -0.048460379 1.2084385e-38 311 277
-0.010477919 0.74699998 -0.048460379 1.2176233e-38 312 277
-0.0091681797 0.74699998 -0.048460379 1.2544656e-38 313 277
-0.0078584393 0.74699998 -0.048460379 1.3278256e-38 314 277
-0.0065399334 0.74599999 -0.048395503 1.3370451e-38 315 277
-0.0052319462 0.74599999 -0.048395503 1.3553398e-38 316 277
-0.0039292197 0.74699998 -0.048460379 1.3184974e-38 317 277
-0.0026194798 0.74699998 -0.048460379 1.3832874e-38 318 277
-0.0013079866 0.74599999 -0.048395503 1.4478244e-38 319 277
0 0.74599999 -0.048395503 1.4934913e-38 320 277
0.0013079866 0.74599999 -0.048395503 1.475052e-38 321 277
0.00260896 0.74400002 -0.048265759 1.4381718e-38 322 277
0.0039029196 0.74199998 -0.048136011 1.3643794e-38 323 277
0.0052038929 0.74199998 -0.048136011 1.2634334e-38 324 277
0.0065048663 0.74199998 -0.048136011 1.3740682e-38 325 277
0.0078268806 0.74400002 -0.048265759 1.5118243e-38 326 277
0.0091313599 0.74400002 -0.048265759 1.4934212e-38 327 277
0.010407786 0.74199998 -0.048136011 1.447358e-38 328 277
0.01170876 0.74199998 -0.048136011 1.3367233e-38 329 277
0.013009733 0.74199998 -0.048136011 1.2632889e-38 330 277
0.014310705 0.74199998 -0.048136011 1.2909476e-38 331 277
0.015611678 0.74199998 -0.048136011 1.2268072e-38 332 277
0.016912652 0.74199998 -0.048136011 1.3190029e-38 333 277
0.018213626 0.74199998 -0.048136011 1.4291337e-38 334 277
0.0195146 0.74199998 -0.048136011 1.3738163e-38 335 277
0.020815572 0.74199998 -0.048136011 1.4011491e-38 336 277
0.022116546 0.74199998 -0.048136011 1.3826741e-38 337 277
0.023480639 0.74400002 -0.048265759 1.3185327e-38 338 277
0.02478512 0.74400002 -0.048265759 1.3461554e-38 339 277
0.026019465 0.74199998 -0.048136011 1.419842e-38 340 277
0.027320439 0.74199998 -0.048136011 1.4935985e-38 341 277
0.028621411 0.74199998 -0.048136011 1.530154e-38 342 277
0.029922385 0.74199998 -0.048136011 1.5117509e-38 343 277
0.03118128 0.741 -0.048071139 1.3643447e-38 344 277
0.032392833 0.73900002 -0.047941394 1.2721851e-38 345 277
0.033688545 0.73900002 -0.047941394 1.3464102e-38 346 277
0.034984261 0.73900002 -0.047941394 1.4201667e-38 347 277
0.036230877 0.73799998 -0.047876518 1.4842367e-38 348 277
0.037524838 0.73799998 -0.047876518 1.4473224e-38 349 277
0.038818799 0.73799998 -0.047876518 1.3460482e-38 350 277
0.040112756 0.73799998 -0.047876518 1.2999864e-38 351 277
0.041406717 0.73799998 -0.047876518 1.2450981e-38 352 277
0.042700678 0.73799998 -0.047876518 1.2358784e-38 353 277
0.043994635 0.73799998 -0.047876518 1.2083639e-38 354 277
0.045165867 0.736 -0.047746774 1.2083639e-38 355 277
0.046266954 0.73299998 -0.04755215 1.2357374e-38 356 277
0.04755215 0.73299998 -0.04755215 1.2818352e-38 357 277
-0.049969997 0.75 -0.049969997 1.3923272e-38 282 278
-0.048590127 0.74900001 -0.04990337 1.3739241e-38 283 278
-0.047150634 0.74699998 -0.049770117 1.3189268e-38 284 278
-0.045779534 0.74599999 -0.04970349 1.2820485e-38 285 278
-0.044352323 0.74400002 -0.04957024 1.2728993e-38 286 278
-0.043047838 0.74400002 -0.04957024 1.2636797e-38 287 278
-0.041631144 0.74199998 -0.049436983 1.2360934e-38 288 278
-0.04027582 0.741 -0.049370356 1.2360934e-38 289 278
-0.0388714 0.73900002 -0.049237106 1.2268735e-38 290 278
-0.037423145 0.736 -0.049037226 1.2176538e-38 291 278
-0.036132693 0.736 -0.049037226 1.2543174e-38 292 278
-0.020815572 0.74199998 -0.049436983 5.9065963e-39 304 278
-0.0195146 0.74199998 -0.049436983 7.5657575e-39 305 278
-0.018213626 0.74199998 -0.049436983 1.0519953e-38 306 278
-0.016912652 0.74199998 -0.049436983 1.1902887e-38 307 278
-0.015653761 0.74400002 -0.04957024 1.2082936e-38 308 278
-0.01434928 0.74400002 -0.04957024 1.2082936e-38 309 278
-0.0130448 0.74400002 -0.04957024 1.1899988e-38 310 278
-0.011740319 0.74400002 -0.04957024 1.2084738e-38 311 278
-0.01043584 0.74400002 -0.04957024 1.3372971e-38 312 278
-0.0091559067 0.74599999 -0.04970349 1.3742114e-38 313 278
-0.0078479191 0.74599999 -0.04970349 1.401653e-38 314 278
-0.0065223998 0.74400002 -0.04957024 1.4200921e-38 315 278
-0.0052179201 0.74400002 -0.04957024 1.4013656e-38 316 278
-0.0039134403 0.74400002 -0.04957024 1.3183895e-38 317 278
-0.00260896 0.74400002 -0.04957024 1.3281152e-38 318 278
-0.00130448 0.74400002 -0.04957024 1.4571891e-38 319 278
0 0.74400002 -0.04957024 1.5211871e-38 320 278
0.00130448 0.74400002 -0.04957024 1.502748e-38 321 278
0.0025984398 0.741 -0.049370356 1.4473209e-38 322 278
0.00388714 0.73900002 -0.049237106 1.3735644e-38 323 278
0.0051828534 0.73900002 -0.049237106 1.2541773e-38 324 278
0.0064785667 0.73900002 -0.049237106 1.3094946e-38 325 278
0.0077742799 0.73900002 -0.049237106 1.3647044e-38 326 278
0.0090699932 0.73900002 -0.049237106 1.3739241e-38 327 278
0.010365707 0.73900002 -0.049237106 1.4380646e-38 328 278
0.01166142 0.73900002 -0.049237106 1.4011505e-38 329 278
0.012939599 0.73799998 -0.049170475 1.3460835e-38 330 278
0.014233559 0.73799998 -0.049170475 1.336864e-38 331 278
0.015485439 0.736 -0.049037226 1.1896756e-38 332 278
0.016775893 0.736 -0.049037226 1.2542126e-38 333 278
0.018139986 0.73900002 -0.049237106 1.4568291e-38 334 278
0.019409399 0.73799998 -0.049170475 1.4753041e-38 335 278
0.020703359 0.73799998 -0.049170475 1.5025312e-38 336 278
0.021997318 0.73799998 -0.049170475 1.4379943e-38 337 278
0.023322839 0.73900002 -0.049237106 1.3369738e-38 338 278
0.024685178 0.741 -0.049370356 1.3369738e-38 339 278
0.025984399 0.741 -0.049370356 1.401512e-38 340 278
0.027283618 0.741 -0.049370356 1.4752685e-38 341 278
0.028582839 0.741 -0.049370356 1.5394114e-38 342 278
0.029801406 0.73900002 -0.049237106 1.5394114e-38 343 278
0.03109712 0.73900002 -0.049237106 1.392076e-38 344 278
0.032348998 0.73799998 -0.049170475 1.2722216e-38 345 278
0.033642959 0.73799998 -0.049170475 1.2818355e-38 346 278
0.034936916 0.73799998 -0.049170475 1.3187139e-38 347 278
0.036230877 0.73799998 -0.049170475 1.3646668e-38 348 278
0.037524838 0.73799998 -0.049170475 1.3277886e-38 349 278
0.038818799 0.73799998 -0.049170475 1.2725773e-38 350 278
0.040112756 0.73799998 -0.049170475 1.254138e-38 351 278
0.041406717 0.73799998 -0.049170475 1.2175469e-38 352 278
0.042700678 0.73799998 -0.049170475 1.1991078e-38 353 278
0.043994635 0.73799998 -0.049170475 1.1808128e-38 354 278
0.0452886 0.73799998 -0.049170475 1.1715933e-38 355 278
0.046266954 0.73299998 -0.048837345 1.1989299e-38 356 278
0.04755215 0.73299998 -0.048837345 1.2173331e-38 357 278
0.049037226 0.736 -0.049037226 1.3643094e-38 358 278
-0.047087517 0.74599999 -0.051011477 1.291377e-38 284 279
-0.0456568 0.74400002 -0.050874721 1.2729739e-38 285 279
-0.044233091 0.74199998 -0.050737958 1.2545328e-38 286 279
-0.042874258 0.741 -0.050669577 1.2453132e-38 287 279
-0.041575037 0.741 -0.050669577 1.2268735e-38 288 279
-0.040167112 0.73900002 -0.050532822 1.2268735e-38 289 279
-0.038713597 0.736 -0.050327681 1.2268735e-38 290 279
-0.037321456 0.73400003 -0.050190922 1.2176538e-38 291 279
-0.036034506 0.73400003 -0.050190922 1.1992877e-38 292 279
-0.034605537 0.73100001 -0.049985781 1.2269104e-38 293 279
-0.033323854 0.73100001 -0.049985781 1.1619797e-38 294 279
-0.032042164 0.73100001 -0.049985781 9.5914928e-39 295 279
-0.020787518 0.741 -0.050669577 7.2823435e-39 304 279
-0.019488299 0.741 -0.050669577 7.1901479e-39 305 279
-0.018189078 0.741 -0.050669577 8.5834912e-39 306 279
-0.016889861 0.741 -0.050669577 1.0980576e-38 307 279
-0.01559064 0.741 -0.050669577 1.2084382e-38 308 279
-0.01429142 0.741 -0.050669577 1.1899991e-38 309 279
-0.013009733 0.74199998 -0.050737958 1.2082936e-38 310 279
-0.01170876 0.74199998 -0.050737958 1.2452078e-38 311 279
-0.010407786 0.74199998 -0.050737958 1.4016177e-38 312 279
-0.009106813 0.74199998 -0.050737958 1.4200568e-38 313 279
-0.0078058392 0.74199998 -0.050737958 1.4384962e-38 314 279
-0.0065048663 0.74199998 -0.050737958 1.4292766e-38 315 279
-0.0052038929 0.74199998 -0.050737958 1.3920741e-38 316 279
-0.0039029196 0.74199998 -0.050737958 1.2998425e-38 317 279
-0.0026019465 0.74199998 -0.050737958 1.2267697e-38 318 279
-0.0012992199 0.741 -0.050669577 1.2544642e-38 319 279
0 0.741 -0.050669577 1.3186789e-38 320 279
0.0012992199 0.741 -0.050669577 1.3463016e-38 321 279
0.0025809065 0.736 -0.050327681 1.3462653e-38 322 279
0.0038713599 0.736 -0.050327681 1.3277903e-38 323 279
0.005161813 0.736 -0.050327681 1.2818352e-38 324 279
0.0064522666 0.736 -0.050327681 1.2634321e-38 325 279
0.0077427197 0.736 -0.050327681 1.1808524e-38 326 279
0.0090331733 0.736 -0.050327681 1.3007067e-38 327 279
0.010323626 0.736 -0.050327681 1.5668162e-38 328 279
0.01161408 0.736 -0.050327681 1.5575966e-38 329 279
0.012904533 0.736 -0.050327681 1.5669231e-38 330 279
0.014156413 0.73400003 -0.050190922 1.5208612e-38 331 279
0.01544336 0.73400003 -0.050190922 1.3182104e-38 332 279
0.016730307 0.73400003 -0.050190922 1.3366135e-38 333 279
0.018017253 0.73400003 -0.050190922 1.5028902e-38 334 279
0.019304199 0.73400003 -0.050190922 1.5213293e-38 335 279
0.020647252 0.736 -0.050327681 1.5578486e-38 336 279
0.021937706 0.736 -0.050327681 1.447214e-38 337 279
0.023228159 0.736 -0.050327681 1.3185693e-38 338 279
0.024518613 0.736 -0.050327681 1.2632519e-38 339 279
0.025879199 0.73799998 -0.050464436 1.2084385e-38 340 279
0.027173158 0.73799998 -0.050464436 1.2360971e-38 341 279
0.028467119 0.73799998 -0.050464436 1.3093874e-38 342 279
0.029761078 0.73799998 -0.050464436 1.2909482e-38 343 279
0.031055039 0.73799998 -0.050464436 1.2449924e-38 344 279
0.032261331 0.736 -0.050327681 1.2357727e-38 345 279
0.033551786 0.736 -0.050327681 1.2082567e-38 346 279
0.034842238 0.736 -0.050327681 1.2082567e-38 347 279
0.036132693 0.736 -0.050327681 1.2358784e-38 348 279
0.037423145 0.736 -0.050327681 1.2266588e-38 349 279
0.038713597 0.736 -0.050327681 1.2449535e-38 350 279
0.040004052 0.736 -0.050327681 1.2449535e-38 351 279
0.041294504 0.736 -0.050327681 1.1991072e-38 352 279
0.042584959 0.736 -0.050327681 1.1806681e-38 353 279
0.043994635 0.73799998 -0.050464436 1.1622653e-38 354 279
0.0452886 0.73799998 -0.050464436 1.1530097e-38 355 279
0.046456318 0.736 -0.050327681 1.0792184e-38 356 279
0.047746774 0.736 -0.050327681 1.0515239e-38 357 279
0.049037226 0.736 -0.050327681 1.2448502e-38 358 279
-0.047087517 0.74599999 -0.052319467 1.3188559e-38 284 280
-0.0456568 0.74400002 -0.052179199 1.2912332e-38 285 280
-0.044173479 0.741 -0.051968798 1.2729715e-38 286 280
-0.042874258 0.741 -0.051968798 1.2453129e-38 287 280
-0.041462827 0.73900002 -0.051828533 1.2360931e-38 288 280
-0.040112756 0.73799998 -0.051758397 1.2268735e-38 289 280
-0.038608398 0.73400003 -0.051477864 1.2176538e-38 290 280
-0.037270606 0.73299998 -0.051407732 1.2176538e-38 291 280
-0.035985414 0.73299998 -0.051407732 1.2084696e-38 292 280
-0.034605537 0.73100001 -0.051267464 1.19925e-38 293 280
-0.033278264 0.73000002 -0.051197331 1.2358418e-38 294 280
-0.031998333 0.73000002 -0.051197331 1.1343908e-38 295 280
-0.020787518 0.741 -0.051968798 7.189792e-39 304 280
-0.019488299 0.741 -0.051968798 6.4522269e-39 305 280
-0.018139986 0.73900002 -0.051828533 6.2778928e-39 306 280
-0.016844273 0.73900002 -0.051828533 9.0437617e-39 307 280
-0.01554856 0.73900002 -0.051828533 1.1715972e-38 308 280
-0.01429142 0.741 -0.051968798 1.2084753e-38 309 280
-0.0129922 0.741 -0.051968798 1.1716308e-38 310 280
-0.01169298 0.741 -0.051968798 1.1992536e-38 311 280
-0.010365707 0.73900002 -0.051828533 1.3002747e-38 312 280
-0.0090699932 0.73900002 -0.051828533 1.3740313e-38 313 280
-0.0077953199 0.741 -0.051968798 1.3557016e-38 314 280
-0.0064960998 0.741 -0.051968798 1.3464821e-38 315 280
-0.0051828534 0.73900002 -0.051828533 1.4012208e-38 316 280
-0.0038818798 0.73799998 -0.051758397 1.3643785e-38 317 280
-0.0025809065 0.736 -0.051618133 1.2909082e-38 318 280
-0.0012904532 0.736 -0.051618133 1.2632854e-38 319 280
0 0.736 -0.051618133 1.3092773e-38 320 280
0.0012904532 0.736 -0.051618133 1.3738142e-38 321 280
0.0025738934 0.73400003 -0.051477864 1.4198053e-38 322 280
0.0038555798 0.73299998 -0.051407732 1.4198053e-38 323 280
0.005140773 0.73299998 -0.051407732 1.4288445e-38 324 280
0.0064259665 0.73299998 -0.051407732 1.355088e-38 325 280
0.0077111595 0.73299998 -0.051407732 1.1438309e-38 326 280
0.0090086265 0.73400003 -0.051477864 1.2913798e-38 327 280
0.010281546 0.73299998 -0.051407732 1.5578496e-38 328 280
0.01153518 0.73100001 -0.051267464 1.5394465e-38 329 280
0.012816866 0.73100001 -0.051267464 1.5302625e-38 330 280
0.014137126 0.73299998 -0.051407732 1.4564701e-38 331 280
0.01538024 0.73100001 -0.051267464 1.2631814e-38 332 280
0.016661927 0.73100001 -0.051267464 1.2539617e-38 333 280
0.017943613 0.73100001 -0.051267464 1.3463006e-38 334 280
0.019277899 0.73299998 -0.051407732 1.4015821e-38 335 280
0.020563092 0.73299998 -0.051407732 1.42906e-38 336 280
0.021848286 0.73299998 -0.051407732 1.3829262e-38 337 280
0.023165042 0.73400003 -0.051477864 1.2726139e-38 338 280
0.024451986 0.73400003 -0.051477864 1.244991e-38 339 280
0.025809066 0.736 -0.051618133 1.2175116e-38 340 280
0.02709952 0.736 -0.051618133 1.2267313e-38 341 280
0.028389972 0.736 -0.051618133 1.2358418e-38 342 280
0.029680425 0.736 -0.051618133 1.2265864e-38 343 280
0.030970879 0.736 -0.051618133 1.1807412e-38 344 280
0.032261331 0.736 -0.051618133 1.1807412e-38 345 280
0.033551786 0.736 -0.051618133 1.1715232e-38 346 280
0.034842238 0.736 -0.051618133 1.1622678e-38 347 280
0.036132693 0.736 -0.051618133 1.1805614e-38 348 280
0.037423145 0.736 -0.051618133 1.1805614e-38 349 280
0.038713597 0.736 -0.051618133 1.1806311e-38 350 280
0.040004052 0.736 -0.051618133 1.1714115e-38 351 280
0.041294504 0.736 -0.051618133 1.1714118e-38 352 280
0.042584959 0.736 -0.051618133 1.1345337e-38 353 280
0.043994635 0.73799998 -0.051758397 1.0977283e-38 354 280
0.0452886 0.73799998 -0.051758397 1.0792532e-38 355 280
0.046582557 0.73799998 -0.051758397 1.0239728e-38 356 280
0.047876518 0.73799998 -0.051758397 9.8713041e-39 357 280
0.049237106 0.73900002 -0.051828533 1.2447059e-38 358 280
-0.045534063 0.74199998 -0.053339902 1.2911994e-38 285 281
-0.044173479 0.741 -0.053268019 1.2545343e-38 286 281
-0.042758539 0.73900002 -0.053124249 1.2545343e-38 287 281
-0.041406717 0.73799998 -0.053052358 1.2360931e-38 288 281
-0.039895348 0.73400003 -0.052764814 1.2360931e-38 289 281
-0.038555797 0.73299998 -0.052692924 1.2085423e-38 290 281
-0.037168913 0.73100001 -0.052549154 1.1993226e-38 291 281
-0.035838135 0.73000002 -0.052477267 1.190103e-38 292 281
-0.034558199 0.73000002 -0.052477267 1.190103e-38 293 281
-0.033278264 0.73000002 -0.052477267 1.2543896e-38 294 281
-0.031998333 0.73000002 -0.052477267 1.1898526e-38 295 281
-0.020787518 0.741 -0.053268019 7.3741902e-39 304 281
-0.019409399 0.73799998 -0.053052358 7.2819932e-39 305 281
-0.018115439 0.73799998 -0.053052358 4.7084189e-39 306 281
-0.016821479 0.73799998 -0.053052358 6.5523315e-39 307 281
-0.015527519 0.73799998 -0.053052358 1.0334838e-38 308 281
-0.014252847 0.73900002 -0.053124249 1.1348631e-38 309 281
-0.012957133 0.73900002 -0.053124249 1.1807422e-38 310 281
-0.01166142 0.73900002 -0.053124249 1.1715227e-38 311 281
-0.010253493 0.73100001 -0.052549154 1.1806703e-38 312 281
-0.0089718066 0.73100001 -0.052549154 1.1530116e-38 313 281
-0.00769012 0.73100001 -0.052549154 1.1441186e-38 314 281
-0.006408433 0.73100001 -0.052549154 1.263937e-38 315 281
-0.0051267464 0.73100001 -0.052549154 1.4565405e-38 316 281
-0.00384506 0.73100001 -0.052549154 1.4288816e-38 317 281
-0.0025633732 0.73100001 -0.052549154 1.3644147e-38 318 281
-0.0012816866 0.73100001 -0.052549154 1.3275725e-38 319 281
0 0.73100001 -0.052549154 1.3277536e-38 320 281
0.0012816866 0.73100001 -0.052549154 1.3922905e-38 321 281
0.0025598668 0.73000002 -0.052477267 1.5118228e-38 322 281
0.0038397999 0.73000002 -0.052477267 1.5118228e-38 323 281
0.0051197335 0.73000002 -0.052477267 1.5484838e-38 324 281
0.0063996664 0.73000002 -0.052477267 1.4286297e-38 325 281
0.00769012 0.73100001 -0.052549154 1.199039e-38 326 281
0.0089595336 0.73000002 -0.052477267 1.2359174e-38 327 281
0.010239467 0.73000002 -0.052477267 1.3094946e-38 328 281
0.011519399 0.73000002 -0.052477267 1.3279338e-38 329 281
0.012799333 0.73000002 -0.052477267 1.3277173e-38 330 281
0.014098554 0.73100001 -0.052549154 1.3000227e-38 331 281
0.01538024 0.73100001 -0.052549154 1.2357362e-38 332 281
0.016639132 0.73000002 -0.052477267 1.263359e-38 333 281
0.017919067 0.73000002 -0.052477267 1.2083286e-38 334 281
0.019225299 0.73100001 -0.052549154 1.1807059e-38 335 281
0.020506985 0.73100001 -0.052549154 1.1990369e-38 336 281
0.021788673 0.73100001 -0.052549154 1.1990369e-38 337 281
0.023133477 0.73299998 -0.052692924 1.1807407e-38 338 281
0.024418673 0.73299998 -0.052692924 1.1807407e-38 339 281
0.025703866 0.73299998 -0.052692924 1.1992147e-38 340 281
0.026989058 0.73299998 -0.052692924 1.1715561e-38 341 281
0.028312827 0.73400003 -0.052764814 1.1531525e-38 342 281
0.029599773 0.73400003 -0.052764814 1.143897e-38 343 281
0.030886721 0.73400003 -0.052764814 1.1713762e-38 344 281
0.032261331 0.736 -0.052908584 1.1529371e-38 345 281
0.033551786 0.736 -0.052908584 1.1437901e-38 346 281
0.034842238 0.736 -0.052908584 1.1161314e-38 347 281
0.036132693 0.736 -0.052908584 1.0701055e-38 348 281
0.037423145 0.736 -0.052908584 1.0424828e-38 349 281
0.038713597 0.736 -0.052908584 1.0331908e-38 350 281
0.040004052 0.736 -0.052908584 1.0239711e-38 351 281
0.041294504 0.736 -0.052908584 1.0055686e-38 352 281
0.042584959 0.736 -0.052908584 9.7794588e-39 353 281
0.043994635 0.73799998 -0.053052358 9.8709482e-39 354 281
0.0452886 0.73799998 -0.053052358 1.0054979e-38 355 281
0.046645679 0.73900002 -0.053124249 1.0236506e-38 356 281
0.047941394 0.73900002 -0.053124249 1.0697484e-38 357 281
-0.044054255 0.73900002 -0.054419957 1.2637896e-38 286 282
-0.042700678 0.73799998 -0.054346316 1.254534e-38 287 282
-0.041182294 0.73400003 -0.054051761 1.2361652e-38 288 282
-0.039840993 0.73299998 -0.053978115 1.2269457e-38 289 282
-0.038398001 0.73000002 -0.053757198 1.1993229e-38 290 282
-0.037118066 0.73000002 -0.053757198 1.1993229e-38 291 282
-0.035838135 0.73000002 -0.053757198 1.1993229e-38 292 282
-0.034558199 0.73000002 -0.053757198 1.1900674e-38 293 282
-0.033187091 0.72799999 -0.053609919 1.2176185e-38 294 282
-0.031910665 0.72799999 -0.053609919 1.2176185e-38 295 282
-0.030718399 0.73000002 -0.053757198 1.1712345e-38 296 282
-0.019356798 0.736 -0.05419904 7.6500541e-39 305 282
-0.018066347 0.736 -0.05419904 6.3639844e-39 306 282
-0.016730307 0.73400003 -0.054051761 5.6264193e-39 307 282
-0.01544336 0.73400003 -0.054051761 6.7424527e-39 308 282
-0.014156413 0.73400003 -0.054051761 9.5083216e-39 309 282
-0.012851933 0.73299998 -0.053978115 1.1716306e-38 310 282
-0.01153518 0.73100001 -0.053830836 1.162411e-38 311 282
-0.010239467 0.73000002 -0.053757198 1.2082917e-38 312 282
-0.0089595336 0.73000002 -0.053757198 1.1530102e-38 313 282
-0.0076795998 0.73000002 -0.053757198 1.1255347e-38 314 282
-0.0063996664 0.73000002 -0.053757198 1.3191455e-38 315 282
-0.0051197335 0.73000002 -0.053757198 1.5117862e-38 316 282
-0.0038292799 0.72799999 -0.053609919 1.4656524e-38 317 282
-0.0025528532 0.72799999 -0.053609919 1.4104051e-38 318 282
-0.0012799334 0.73000002 -0.053757198 1.3735627e-38 319 282
0 0.727 -0.053536277 1.3002028e-38 320 282
0.0012746733 0.727 -0.053536277 1.3094223e-38 321 282
0.0025528532 0.72799999 -0.053609919 1.3646691e-38 322 282
0.0038292799 0.72799999 -0.053609919 1.3923278e-38 323 282
0.0051057064 0.72799999 -0.053609919 1.4106926e-38 324 282
0.0063821329 0.72799999 -0.053609919 1.3277167e-38 325 282
0.0076795998 0.73000002 -0.053757198 1.2083639e-38 326 282
0.0089595336 0.73000002 -0.053757198 1.2083639e-38 327 282
0.010239467 0.73000002 -0.053757198 1.2450631e-38 328 282
0.011519399 0.73000002 -0.053757198 1.2450631e-38 329 282
0.012799333 0.73000002 -0.053757198 1.2449908e-38 330 282
0.014079267 0.73000002 -0.053757198 1.2357712e-38 331 282
0.0153592 0.73000002 -0.053757198 1.1990003e-38 332 282
0.016639132 0.73000002 -0.053757198 1.2266588e-38 333 282
0.017919067 0.73000002 -0.053757198 1.217439e-38 334 282
0.019199001 0.73000002 -0.053757198 1.1990359e-38 335 282
0.020478934 0.73000002 -0.053757198 1.189816e-38 336 282
0.021788673 0.73100001 -0.053830836 1.1805965e-38 337 282
0.02307036 0.73100001 -0.053830836 1.1072349e-38 338 282
0.024352046 0.73100001 -0.053830836 1.0887599e-38 339 282
0.025633732 0.73100001 -0.053830836 1.1438607e-38 340 282
0.026989058 0.73299998 -0.053978115 1.1253857e-38 341 282
0.028274251 0.73299998 -0.053978115 1.0885436e-38 342 282
0.029599773 0.73400003 -0.054051761 1.0792882e-38 343 282
0.030886721 0.73400003 -0.054051761 1.0885083e-38 344 282
0.032173667 0.73400003 -0.054051761 1.0792888e-38 345 282
0.033460613 0.73400003 -0.054051761 1.0700354e-38 346 282
0.03474756 0.73400003 -0.054051761 1.0423769e-38 347 282
0.036034506 0.73400003 -0.054051761 1.0148627e-38 348 282
0.037423145 0.736 -0.05419904 9.9642354e-39 349 282
0.038713597 0.736 -0.05419904 9.9635151e-39 350 282
0.040004052 0.736 -0.05419904 9.8713195e-39 351 282
0.041294504 0.736 -0.05419904 9.8713195e-39 352 282
0.042584959 0.736 -0.05419904 9.6865695e-39 353 282
0.043994635 0.73799998 -0.054346316 9.7787708e-39 354 282
0.0452886 0.73799998 -0.054346316 9.4099896e-39 355 282
-0.043994635 0.73799998 -0.055640277 1.2820502e-38 286 283
-0.042469237 0.73400003 -0.055338707 1.2728305e-38 287 283
-0.041013971 0.73100001 -0.055112526 1.2361655e-38 288 283
-0.039677933 0.73000002 -0.055037133 1.2269101e-38 289 283
-0.038398001 0.73000002 -0.055037133 1.2176538e-38 290 283
-0.037016369 0.72799999 -0.054886345 1.2176538e-38 291 283
-0.035739943 0.72799999 -0.054886345 1.2084345e-38 292 283
-0.034463517 0.72799999 -0.054886345 1.2084345e-38 293 283
-0.033187091 0.72799999 -0.054886345 1.2175819e-38 294 283
-0.031910665 0.72799999 -0.054886345 1.2175819e-38 295 283
-0.030634239 0.72799999 -0.054886345 1.2634645e-38 296 283
-0.019356798 0.736 -0.055489492 8.0184638e-39 305 283
-0.018017253 0.73400003 -0.055338707 7.0997473e-39 306 283
-0.016730307 0.73400003 -0.055338707 6.2699867e-39 307 283
-0.015422319 0.73299998 -0.055263311 4.1613253e-39 308 283
-0.014079267 0.73000002 -0.055037133 7.2037797e-39 309 283
-0.012799333 0.73000002 -0.055037133 1.1624816e-38 310 283
-0.011519399 0.73000002 -0.055037133 1.1624816e-38 311 283
-0.010211413 0.72799999 -0.054886345 1.1807412e-38 312 283
-0.0089349858 0.72799999 -0.054886345 1.1807412e-38 313 283
-0.0076480396 0.727 -0.054810952 1.1990387e-38 314 283
-0.0063733663 0.727 -0.054810952 1.3097095e-38 315 283
-0.0050986931 0.727 -0.054810952 1.456576e-38 316 283
-0.0038135003 0.72500002 -0.054660168 1.4473565e-38 317 283
-0.0025423334 0.72500002 -0.054660168 1.3921813e-38 318 283
-0.0012746733 0.727 -0.054810952 1.3460835e-38 319 283
0 0.72500002 -0.054660168 1.3001649e-38 320 283
0.0012711667 0.72500002 -0.054660168 1.2725423e-38 321 283
0.0025493465 0.727 -0.054810952 1.2174768e-38 322 283
0.0038240198 0.727 -0.054810952 1.2266965e-38 323 283
0.0050986931 0.727 -0.054810952 1.2358078e-38 324 283
0.0063821329 0.72799999 -0.054886345 1.2265882e-38 325 283
0.0076585598 0.72799999 -0.054886345 1.1991443e-38 326 283
0.0089349858 0.72799999 -0.054886345 1.1991443e-38 327 283
0.010211413 0.72799999 -0.054886345 1.1807407e-38 328 283
0.01148784 0.72799999 -0.054886345 1.1715211e-38 329 283
0.012764266 0.72799999 -0.054886345 1.1623018e-38 330 283
0.014079267 0.73000002 -0.055037133 1.1530823e-38 331 283
0.0153592 0.73000002 -0.055037133 1.1438272e-38 332 283
0.016639132 0.73000002 -0.055037133 1.1438272e-38 333 283
0.017919067 0.73000002 -0.055037133 1.1713768e-38 334 283
0.019199001 0.73000002 -0.055037133 1.1529018e-38 335 283
0.020478934 0.73000002 -0.055037133 1.125351e-38 336 283
0.021758866 0.73000002 -0.055037133 1.0977283e-38 337 283
0.02307036 0.73100001 -0.055112526 1.0702491e-38 338 283
0.024352046 0.73100001 -0.055112526 1.0333349e-38 339 283
0.025633732 0.73100001 -0.055112526 1.033263e-38 340 283
0.026989058 0.73299998 -0.055263311 1.0148237e-38 341 283
0.028274251 0.73299998 -0.055263311 9.8713041e-39 342 283
0.029599773 0.73400003 -0.055338707 9.8713041e-39 343 283
0.030886721 0.73400003 -0.055338707 1.0054629e-38 344 283
0.032173667 0.73400003 -0.055338707 1.0054629e-38 345 283
0.033460613 0.73400003 -0.055338707 9.8709664e-39 346 283
0.03474756 0.73400003 -0.055338707 9.7787708e-39 347 283
0.036034506 0.73400003 -0.055338707 9.778768e-39 348 283
-0.043756187 0.73400003 -0.056625653 1.2544642e-38 286 284
-0.042411376 0.73299998 -0.056548502 1.2544642e-38 287 284
-0.040957868 0.73000002 -0.056317069 1.2453145e-38 288 284
-0.039569225 0.72799999 -0.056162767 1.2360949e-38 289 284
-0.038292799 0.72799999 -0.056162767 1.208507e-38 290 284
-0.037016369 0.72799999 -0.056162767 1.1992873e-38 291 284
-0.035690852 0.727 -0.056085624 1.2175822e-38 292 284
-0.03441618 0.727 -0.056085624 1.2175822e-38 293 284
-0.033141505 0.727 -0.056085624 1.2084345e-38 294 284
-0.03186683 0.727 -0.056085624 1.2084345e-38 295 284
-0.030592158 0.727 -0.056085624 1.2083989e-38 296 284
-0.021341572 0.71600002 -0.055237014 8.020982e-39 303 284
-0.020086186 0.71600002 -0.055237014 8.5727068e-39 304 284
-0.0188308 0.71600002 -0.055237014 8.9414907e-39 305 284
-0.018017253 0.73400003 -0.056625653 8.3947825e-39 306 284
-0.016730307 0.73400003 -0.056625653 8.3947825e-39 307 284
-0.015422319 0.73299998 -0.056548502 7.9373791e-39 308 284
-0.014079267 0.73000002 -0.056317069 8.7671398e-39 309 284
-0.012799333 0.73000002 -0.056317069 1.1255675e-38 310 284
-0.01148784 0.72799999 -0.056162767 1.1440425e-38 311 284
-0.010211413 0.72799999 -0.056162767 1.1715214e-38 312 284
-0.0089227129 0.727 -0.056085624 1.1715214e-38 313 284
-0.0076270006 0.72500002 -0.055931333 1.1715227e-38 314 284
-0.0063558333 0.72500002 -0.055931333 1.1992174e-38 315 284
-0.0050846669 0.72500002 -0.055931333 1.2450999e-38 316 284
-0.0038135003 0.72500002 -0.055931333 1.2543195e-38 317 284
-0.0025423334 0.72500002 -0.055931333 1.2543545e-38 318 284
-0.0012711667 0.72500002 -0.055931333 1.2267318e-38 319 284
0 0.72500002 -0.055931333 1.217439e-38 320 284
0.0012711667 0.72500002 -0.055931333 1.2266586e-38 321 284
0.0025423334 0.72500002 -0.055931333 1.2174387e-38 322 284
0.0038135003 0.72500002 -0.055931333 1.1990356e-38 323 284
0.0050846669 0.72500002 -0.055931333 1.1898523e-38 324 284
0.0063733663 0.727 -0.056085624 1.1806328e-38 325 284
0.0076480396 0.727 -0.056085624 1.1713412e-38 326 284
0.0089349858 0.72799999 -0.056162767 1.1805609e-38 327 284
0.010211413 0.72799999 -0.056162767 1.1346424e-38 328 284
0.01148784 0.72799999 -0.056162767 1.0978002e-38 329 284
0.012764266 0.72799999 -0.056162767 1.125351e-38 330 284
0.014040692 0.72799999 -0.056162767 1.0884727e-38 331 284
0.0153592 0.73000002 -0.056317069 1.0424475e-38 332 284
0.016639132 0.73000002 -0.056317069 1.0240084e-38 333 284
0.017919067 0.73000002 -0.056317069 1.0331914e-38 334 284
0.019199001 0.73000002 -0.056317069 1.0331914e-38 335 284
0.020478934 0.73000002 -0.056317069 1.0332279e-38 336 284
0.021758866 0.73000002 -0.056317069 1.0332279e-38 337 284
0.023038799 0.73000002 -0.056317069 1.0057134e-38 338 284
0.024352046 0.73100001 -0.056394216 9.5961563e-39 339 284
0.025633732 0.73100001 -0.056394216 9.7798273e-39 340 284
0.026989058 0.73299998 -0.056548502 9.7798273e-39 341 284
0.028274251 0.73299998 -0.056548502 9.778405e-39 342 284
0.029559445 0.73299998 -0.056548502 9.778405e-39 343 284
-0.0422378 0.73000002 -0.057597004 1.2727606e-38 287 285
-0.040957868 0.73000002 -0.057597004 1.2453145e-38 288 285
-0.039569225 0.72799999 -0.057439197 1.2360949e-38 289 285
-0.038240198 0.727 -0.057360299 1.2268738e-38 290 285
-0.036965527 0.727 -0.057360299 1.2176541e-38 291 285
-0.035592668 0.72500002 -0.057202499 1.2084345e-38 292 285
-0.03422682 0.72299999 -0.057044696 1.2084345e-38 293 285
-0.032959159 0.72299999 -0.057044696 1.1991791e-38 294 285
-0.031647664 0.722 -0.056965802 1.1991791e-38 295 285
-0.030381758 0.722 -0.056965802 1.19925e-38 296 285
-0.026363119 0.71600002 -0.056492399 1.0237547e-38 299 285
-0.025037598 0.71399999 -0.0563346 7.5646337e-39 300 285
-0.02378572 0.71399999 -0.0563346 8.2100031e-39 301 285
-0.022533838 0.71399999 -0.0563346 8.2103955e-39 302 285
-0.021281958 0.71399999 -0.0563346 8.8557649e-39 303 285
-0.020086186 0.71600002 -0.056492399 9.5918824e-39 304 285
-0.0188308 0.71600002 -0.056492399 1.0052859e-38 305 285
-0.017599959 0.71700001 -0.056571297 1.0330873e-38 306 285
-0.016342819 0.71700001 -0.056571297 1.0699295e-38 307 285
-0.01512776 0.71899998 -0.056729097 1.0609235e-38 308 285
-0.013867113 0.71899998 -0.056729097 1.0793628e-38 309 285
-0.012746733 0.727 -0.057360299 1.1071995e-38 310 285
-0.01147206 0.727 -0.057360299 1.1256028e-38 311 285
-0.010169334 0.72500002 -0.057202499 1.1623015e-38 312 285
-0.0088981669 0.72500002 -0.057202499 1.1623015e-38 313 285
-0.0076059597 0.72299999 -0.057044696 1.1623381e-38 314 285
-0.0063382997 0.72299999 -0.057044696 1.1623381e-38 315 285
-0.0050706398 0.72299999 -0.057044696 1.1715214e-38 316 285
-0.0038029798 0.72299999 -0.057044696 1.1715214e-38 317 285
-0.0025353199 0.72299999 -0.057044696 1.1532267e-38 318 285
-0.0012711667 0.72500002 -0.057202499 1.1440072e-38 319 285
0 0.72500002 -0.057202499 1.1990006e-38 320 285
0.0012711667 0.72500002 -0.057202499 1.1805614e-38 321 285
0.0025423334 0.72500002 -0.057202499 1.1071995e-38 322 285
0.0038135003 0.72500002 -0.057202499 1.1071995e-38 323 285
0.0050846669 0.72500002 -0.057202499 1.1621216e-38 324 285
0.0063558333 0.72500002 -0.057202499 1.1621216e-38 325 285
0.0076480396 0.727 -0.057360299 1.0610305e-38 326 285
0.0089227129 0.727 -0.057360299 1.0518108e-38 327 285
0.010211413 0.72799999 -0.057439197 1.0517039e-38 328 285
0.01148784 0.72799999 -0.057439197 1.0424844e-38 329 285
0.012764266 0.72799999 -0.057439197 1.0148264e-38 330 285
0.014040692 0.72799999 -0.057439197 1.0055709e-38 331 285
0.01531712 0.72799999 -0.057439197 9.8709636e-39 332 285
0.016639132 0.73000002 -0.057597004 9.778768e-39 333 285
0.017919067 0.73000002 -0.057597004 9.6865723e-39 334 285
0.019199001 0.73000002 -0.057597004 9.778768e-39 335 285
0.020478934 0.73000002 -0.057597004 9.778768e-39 336 285
0.021758866 0.73000002 -0.057597004 9.778768e-39 337 285
0.023038799 0.73000002 -0.057597004 9.5032573e-39 338 285
0.024352046 0.73100001 -0.057675898 9.4110616e-39 339 285
0.025633732 0.73100001 -0.057675898 9.4110616e-39 340 285
-0.040845651 0.72799999 -0.058715623 1.2452444e-38 288 286
-0.039514873 0.727 -0.058634974 1.2360248e-38 289 286
-0.038135 0.72500002 -0.058473669 1.2085438e-38 290 286
-0.036762137 0.72299999 -0.058312356 1.1993243e-38 291 286
-0.035347197 0.72000003 -0.058070403 1.1993229e-38 292 286
-0.03403746 0.71899998 -0.057989739 1.1900674e-38 293 286
-0.032685637 0.71700001 -0.057828441 1.1900674e-38 294 286
-0.031384666 0.71600002 -0.057747785 1.1900674e-38 295 286
-0.03012928 0.71600002 -0.057747785 1.2083989e-38 296 286
-0.028873893 0.71600002 -0.057747785 1.1991794e-38 297 286
-0.027618507 0.71600002 -0.057747785 1.1808126e-38 298 286
-0.026363119 0.71600002 -0.057747785 1.1347508e-38 299 286
-0.025037598 0.71399999 -0.057586476 1.0609602e-38 300 286
-0.02378572 0.71399999 -0.057586476 1.1254971e-38 301 286
-0.022533838 0.71399999 -0.057586476 1.1806005e-38 302 286
-0.021281958 0.71399999 -0.057586476 1.1990037e-38 303 286
-0.020086186 0.71600002 -0.057747785 1.1806359e-38 304 286
-0.018857099 0.71700001 -0.057828441 1.1806359e-38 305 286
-0.017599959 0.71700001 -0.057828441 1.1807059e-38 306 286
-0.016342819 0.71700001 -0.057828441 1.1437917e-38 307 286
-0.015085679 0.71700001 -0.057828441 1.0797204e-38 308 286
-0.013828539 0.71700001 -0.057828441 1.0889399e-38 309 286
-0.012606465 0.71899998 -0.057989739 1.1531525e-38 310 286
-0.01140894 0.72299999 -0.058312356 1.1531525e-38 311 286
-0.01014128 0.72299999 -0.058312356 1.1806678e-38 312 286
-0.0088736191 0.72299999 -0.058312356 1.1622646e-38 313 286
-0.0076059597 0.72299999 -0.058312356 1.1530453e-38 314 286
-0.0063382997 0.72299999 -0.058312356 1.1438257e-38 315 286
-0.0050706398 0.72299999 -0.058312356 1.1345706e-38 316 286
-0.0038029798 0.72299999 -0.058312356 1.1345706e-38 317 286
-0.0025353199 0.72299999 -0.058312356 1.1345352e-38 318 286
-0.0012676599 0.72299999 -0.058312356 1.1253157e-38 319 286
0 0.72299999 -0.058312356 1.0883298e-38 320 286
0.0012676599 0.72299999 -0.058312356 1.1160245e-38 321 286
0.0025423334 0.72500002 -0.058473669 1.1067692e-38 322 286
0.0038135003 0.72500002 -0.058473669 1.0975496e-38 323 286
0.0050846669 0.72500002 -0.058473669 1.051452e-38 324 286
0.0063558333 0.72500002 -0.058473669 1.0606715e-38 325 286
0.0076480396 0.727 -0.058634974 1.0515239e-38 326 286
0.0089227129 0.727 -0.058634974 1.0331207e-38 327 286
0.010211413 0.72799999 -0.058715623 1.0147181e-38 328 286
0.01148784 0.72799999 -0.058715623 1.0147181e-38 329 286
0.012764266 0.72799999 -0.058715623 1.005391e-38 330 286
0.014040692 0.72799999 -0.058715623 1.005391e-38 331 286
0.01531712 0.72799999 -0.058715623 9.9617173e-39 332 286
-0.039514873 0.727 -0.059909642 1.217658e-38 289 287
-0.038135 0.72500002 -0.059744831 1.2269107e-38 290 287
-0.036609601 0.72000003 -0.059332799 1.2085075e-38 291 287
-0.035199918 0.71700001 -0.059085581 1.2084345e-38 292 287
-0.033942781 0.71700001 -0.059085581 1.2084345e-38 293 287
-0.032640055 0.71600002 -0.059003171 1.1900674e-38 294 287
-0.031384666 0.71600002 -0.059003171 1.1808479e-38 295 287
-0.03012928 0.71600002 -0.059003171 1.1991791e-38 296 287
-0.028873893 0.71600002 -0.059003171 1.1991791e-38 297 287
-0.027618507 0.71600002 -0.059003171 1.1991425e-38 298 287
-0.026363119 0.71600002 -0.059003171 1.189923e-38 299 287
-0.025107734 0.71600002 -0.059003171 1.1992144e-38 300 287
-0.023852346 0.71600002 -0.059003171 1.1992144e-38 301 287
-0.022596961 0.71600002 -0.059003171 1.2267286e-38 302 287
-0.021341572 0.71600002 -0.059003171 1.1991059e-38 303 287
-0.020114239 0.71700001 -0.059085581 1.1807735e-38 304 287
-0.018857099 0.71700001 -0.059085581 1.1531506e-38 305 287
-0.017599959 0.71700001 -0.059085581 1.1531872e-38 306 287
-0.016342819 0.71700001 -0.059085581 1.1439677e-38 307 287
-0.015085679 0.71700001 -0.059085581 1.1439326e-38 308 287
-0.013828539 0.71700001 -0.059085581 1.1347131e-38 309 287
-0.012606465 0.71899998 -0.059250388 1.1162393e-38 310 287
-0.011361601 0.72000003 -0.059332799 1.1070198e-38 311 287
-0.010127253 0.722 -0.059497613 1.0795406e-38 312 287
-0.0088736191 0.72299999 -0.059580017 1.0795406e-38 313 287
-0.0076059597 0.72299999 -0.059580017 1.1253141e-38 314 287
-0.0063382997 0.72299999 -0.059580017 1.1068749e-38 315 287
-0.0050706398 0.72299999 -0.059580017 1.0333721e-38 316 287
-0.0038029798 0.72299999 -0.059580017 1.0241526e-38 317 287
-0.0025353199 0.72299999 -0.059580017 1.0424137e-38 318 287
-0.0012676599 0.72299999 -0.059580017 1.0331942e-38 319 287
0 0.72299999 -0.059580017 1.0056078e-38 320 287
0.0012676599 0.72299999 -0.059580017 9.9638823e-39 321 287
0.0025353199 0.72299999 -0.059580017 9.9631634e-39 322 287
0.0038135003 0.72500002 -0.059744831 9.9631634e-39 323 287
0.0050846669 0.72500002 -0.059744831 9.8709692e-39 324 287
-0.039406165 0.72500002 -0.061016005 1.254322e-38 289 288
-0.038029801 0.72299999 -0.060847677 1.2360599e-38 290 288
-0.036457058 0.71700001 -0.060342718 1.2268403e-38 291 288
-0.035150826 0.71600002 -0.06025856 1.1993593e-38 292 288
-0.03389544 0.71600002 -0.06025856 1.1717365e-38 293 288
-0.032548878 0.71399999 -0.060090236 1.1991791e-38 294 288
-0.031296998 0.71399999 -0.060090236 1.180776e-38 295 288
-0.030045118 0.71399999 -0.060090236 1.180776e-38 296 288
-0.028793238 0.71399999 -0.060090236 1.1715564e-38 297 288
-0.02754136 0.71399999 -0.060090236 1.1715564e-38 298 288
-0.026289478 0.71399999 -0.060090236 1.1623369e-38 299 288
-0.025037598 0.71399999 -0.060090236 1.1440056e-38 300 288
-0.02378572 0.71399999 -0.060090236 1.1347859e-38 301 288
-0.022596961 0.71600002 -0.06025856 1.1531169e-38 302 288
-0.021341572 0.71600002 -0.06025856 1.1438973e-38 303 288
-0.020114239 0.71700001 -0.060342718 1.1438973e-38 304 288
-0.018857099 0.71700001 -0.060342718 1.1346777e-38 305 288
-0.017599959 0.71700001 -0.060342718 1.1345703e-38 306 288
-0.016342819 0.71700001 -0.060342718 1.1253507e-38 307 288
-0.015085679 0.71700001 -0.060342718 1.1160958e-38 308 288
-0.013828539 0.71700001 -0.060342718 1.0976927e-38 309 288
-0.012606465 0.71899998 -0.060511041 1.0884733e-38 310 288
-0.01134582 0.71899998 -0.060511041 1.0792179e-38 311 288
-0.010099201 0.72000003 -0.060595199 1.0147881e-38 312 288
-0.0088367993 0.72000003 -0.060595199 9.8716544e-39 313 288
-0.0075954394 0.722 -0.060763516 9.779456e-39 314 288
-0.0063295332 0.722 -0.060763516 9.779456e-39 315 288
-0.0050636264 0.722 -0.060763516 9.7791085e-39 316 288
-0.0037977197 0.722 -0.060763516 1.0055335e-38 317 288
-0.0025353199 0.72299999 -0.060847677 1.0146464e-38 318 288
-0.0012676599 0.72299999 -0.060847677 1.005391e-38 319 288
0 0.72299999 -0.060847677 9.8706006e-39 320 288
0.0012676599 0.72299999 -0.060847677 9.778405e-39 321 288
0.0025353199 0.72299999 -0.060847677 9.778405e-39 322 288
-0.037714198 0.71700001 -0.061599858 1.2452075e-38 290 289
-0.036406212 0.71600002 -0.061513945 1.235988e-38 291 289
-0.035150826 0.71600002 -0.061513945 1.208507e-38 292 289
-0.033800758 0.71399999 -0.061342116 1.1900677e-38 293 289
-0.032548878 0.71399999 -0.061342116 1.1716283e-38 294 289
-0.031296998 0.71399999 -0.061342116 1.1624087e-38 295 289
-0.030045118 0.71399999 -0.061342116 1.1623371e-38 296 289
-0.028793238 0.71399999 -0.061342116 1.1530817e-38 297 289
-0.02754136 0.71399999 -0.061342116 1.1530817e-38 298 289
-0.026289478 0.71399999 -0.061342116 1.143862e-38 299 289
-0.025037598 0.71399999 -0.061342116 1.1346427e-38 300 289
-0.02378572 0.71399999 -0.061342116 1.1069842e-38 301 289
-0.022533838 0.71399999 -0.061342116 1.0977649e-38 302 289
-0.021341572 0.71600002 -0.061513945 1.0977649e-38 303 289
-0.020114239 0.71700001 -0.061599858 1.0701788e-38 304 289
-0.018857099 0.71700001 -0.061599858 1.0609232e-38 305 289
-0.017599959 0.71700001 -0.061599858 1.1067695e-38 306 289
-0.016342819 0.71700001 -0.061599858 1.0882945e-38 307 289
-0.015085679 0.71700001 -0.061599858 1.0332648e-38 308 289
-0.013828539 0.71700001 -0.061599858 1.0148258e-38 309 289
-0.012606465 0.71899998 -0.061771683 1.0239378e-38 310 289
-0.01134582 0.71899998 -0.061771683 1.0147181e-38 311 289
