# .PCD v.7 - Point Cloud Data file format
FIELDS x y z rgb imX imY
SIZE 4 4 4 4 4 4
TYPE F F F F F F
COUNT 1 1 1 1 1 1
WIDTH 837
HEIGHT 1
VIEWPOINT 0 0 0 1 0 0 0
POINTS 837
DATA ascii
-0.089896902 0.75400001 -0.040982414 1.3255521e-38 252 271
-0.088574894 0.75400001 -0.040982414 1.1688219e-38 253 271
-0.087252878 0.75400001 -0.040982414 9.8450522e-39 254 271
-0.085930869 0.75400001 -0.040982414 8.6465272e-39 255 271
-0.082925655 0.73900002 -0.040167112 6.8076649e-39 256 271
-0.08129856 0.736 -0.040004052 6.8076649e-39 257 271
-0.078058399 0.74199998 -0.040330172 6.363997e-39 260 271
-0.076757424 0.74199998 -0.040330172 9.4064528e-39 261 271
-0.075456448 0.74199998 -0.040330172 1.0878361e-38 262 271
-0.074355356 0.74400002 -0.040438879 1.115495e-38 263 271
-0.072854504 0.74199998 -0.040330172 1.1614128e-38 264 271
-0.071553528 0.74199998 -0.040330172 1.1521933e-38 265 271
-0.07025256 0.74199998 -0.040330172 1.2167284e-38 266 271
-0.068951584 0.74199998 -0.040330172 1.2812653e-38 267 271
-0.067650609 0.74199998 -0.040330172 1.281517e-38 268 271
-0.066528477 0.74400002 -0.040438879 1.2169801e-38 269 271
-0.065399326 0.74599999 -0.040547583 1.2255179e-38 270 271
-0.06417726 0.74699998 -0.040601939 1.1702005e-38 271 271
-0.062867515 0.74699998 -0.040601939 1.1515099e-38 272 271
-0.061557774 0.74699998 -0.040601939 7.8272749e-39 273 271
-0.060248036 0.74699998 -0.040601939 4.1498922e-39 274 271
-0.059096102 0.74900001 -0.040710647 2.4907295e-39 275 271
-0.057628557 0.74699998 -0.040601939 3.6903629e-39 276 271
-0.056243423 0.74599999 -0.040547583 5.7190255e-39 277 271
-0.054788161 0.74400002 -0.040438879 6.9132429e-39 278 271
-0.05348368 0.74400002 -0.040438879 6.1756779e-39 279 271
-0.052179199 0.74400002 -0.040438879 5.7103893e-39 280 271
-0.050874721 0.74400002 -0.040438879 6.5401514e-39 281 271
-0.049436983 0.74199998 -0.040330172 7.2823982e-39 282 271
-0.048136011 0.74199998 -0.040330172 8.4809414e-39 283 271
-0.046771921 0.741 -0.04027582 9.6798223e-39 284 271
-0.045472696 0.741 -0.04027582 1.0417387e-38 285 271
-0.044173479 0.741 -0.04027582 1.0970558e-38 286 271
-0.042874258 0.741 -0.04027582 1.2261297e-38 287 271
-0.041575037 0.741 -0.04027582 1.3274376e-38 288 271
-0.040167112 0.73900002 -0.040167112 1.318218e-38 289 271
-0.0388714 0.73900002 -0.040167112 1.2717952e-38 290 271
-0.037575684 0.73900002 -0.040167112 1.1519768e-38 291 271
-0.036279973 0.73900002 -0.040167112 9.4910926e-39 292 271
-0.034936916 0.73799998 -0.040112756 7.2783961e-39 293 271
-0.033642959 0.73799998 -0.040112756 3.2271974e-39 294 271
-0.032392833 0.73900002 -0.040167112 3.6881755e-39 295 271
-0.03118128 0.741 -0.04027582 5.0736561e-39 296 271
-0.029882059 0.741 -0.04027582 6.825013e-39 297 271
-0.028582839 0.741 -0.04027582 8.9401048e-39 298 271
-0.027283618 0.741 -0.04027582 8.6635193e-39 299 271
-0.025984399 0.741 -0.04027582 7.1905108e-39 300 271
-0.024685178 0.741 -0.04027582 5.8075764e-39 301 271
-0.023385961 0.741 -0.04027582 5.3444529e-39 302 271
-0.02208674 0.741 -0.04027582 5.9898223e-39 303 271
-0.020787518 0.741 -0.04027582 7.1891053e-39 304 271
-0.019488299 0.741 -0.04027582 8.6645941e-39 305 271
-0.018139986 0.73900002 -0.040167112 1.0048245e-38 306 271
-0.016821479 0.73799998 -0.040112756 1.1154952e-38 307 271
-0.015485439 0.736 -0.040004052 1.2074018e-38 308 271
-0.014156413 0.73400003 -0.039895348 1.1889627e-38 309 271
-0.012851933 0.73299998 -0.039840993 1.2346632e-38 310 271
-0.011566739 0.73299998 -0.039840993 1.1055893e-38 311 271
-0.010281546 0.73299998 -0.039840993 9.5807421e-39 312 271
-0.0089963535 0.73299998 -0.039840993 7.6449926e-39 313 271
-0.0077111595 0.73299998 -0.039840993 5.7121311e-39 314 271
-0.0064259665 0.73299998 -0.039840993 5.3429885e-39 315 271
-0.0051477868 0.73400003 -0.039895348 3.9622443e-39 316 271
-0.0038713599 0.736 -0.040004052 3.777853e-39 317 271
-0.0025914267 0.73900002 -0.040167112 3.3168945e-39 318 271
-0.0012957134 0.73900002 -0.040167112 2.948112e-39 319 271
0 0.73900002 -0.040167112 2.9506329e-39 320 271
0.0012957134 0.73900002 -0.040167112 3.4116096e-39 321 271
0.0025914267 0.73900002 -0.040167112 3.4108852e-39 322 271
0.0038818798 0.73799998 -0.040112756 2.6733201e-39 323 271
0.005161813 0.736 -0.040004052 2.7630018e-39 324 271
0.006434733 0.73400003 -0.039895348 2.7630018e-39 325 271
0.0077216802 0.73400003 -0.039895348 2.7611998e-39 326 271
0.0090086265 0.73400003 -0.039895348 3.4065692e-39 327 271
0.014040692 0.72799999 -0.039569225 5.6232104e-39 331 271
0.01531712 0.72799999 -0.039569225 5.9894691e-39 332 271
0.016593546 0.72799999 -0.039569225 5.6210467e-39 333 271
0.017869972 0.72799999 -0.039569225 5.1607847e-39 334 271
0.019199001 0.73000002 -0.039677933 4.9763934e-39 335 271
0.020647252 0.736 -0.040004052 4.7001666e-39 336 271
0.021937706 0.736 -0.040004052 4.4232196e-39 337 271
0.023228159 0.736 -0.040004052 3.8714948e-39 338 271
0.024085538 0.72299999 -0.039297458 3.4105152e-39 339 271
0.034936916 0.73799998 -0.040112756 3.6871161e-39 347 271
0.036230877 0.73799998 -0.040112756 3.6889042e-39 348 271
0.037524838 0.73799998 -0.040112756 3.5967086e-39 349 271
0.038818799 0.73799998 -0.040112756 3.9629673e-39 350 271
0.040112756 0.73799998 -0.040112756 3.9629673e-39 351 271
0.044490833 0.72500002 -0.039406165 3.7774971e-39 355 271
0.045761999 0.72500002 -0.039406165 3.8693326e-39 356 271
0.047033165 0.72500002 -0.039406165 3.8693326e-39 357 271
0.048504211 0.72799999 -0.039569225 4.1448433e-39 358 271
0.049780637 0.72799999 -0.039569225 4.1448433e-39 359 271
0.051057063 0.72799999 -0.039569225 4.4207183e-39 360 271
0.052477267 0.73000002 -0.039677933 4.6051096e-39 361 271
0.053757198 0.73000002 -0.039677933 4.422519e-39 362 271
0.055037133 0.73000002 -0.039677933 4.6991073e-39 363 271
0.056317069 0.73000002 -0.039677933 4.6090626e-39 364 271
0.057439197 0.72799999 -0.039569225 4.8852894e-39 365 271
0.058634974 0.727 -0.039514873 4.6090626e-39 366 271
0.059909642 0.727 -0.039514873 4.0555287e-39 367 271
0.061184317 0.727 -0.039514873 3.8675319e-39 368 271
0.062458992 0.727 -0.039514873 3.2221625e-39 369 271
0.06373366 0.727 -0.039514873 2.6718558e-39 370 271
0.065008335 0.727 -0.039514873 2.6718558e-39 371 271
0.06628301 0.727 -0.039514873 2.9480895e-39 372 271
0.067557678 0.727 -0.039514873 3.0402852e-39 373 271
0.06883236 0.727 -0.039514873 3.1335766e-39 374 271
0.070396334 0.73000002 -0.039677933 3.686749e-39 375 271
0.071185336 0.72500002 -0.039406165 3.964059e-39 376 271
0.072456501 0.72500002 -0.039406165 4.1488089e-39 377 271
-0.10811754 0.75199997 -0.04219221 4.979245e-39 238 272
-0.10679904 0.75199997 -0.04219221 7.468527e-39 239 272
-0.10548052 0.75199997 -0.04219221 1.2436241e-38 240 272
-0.10416202 0.75199997 -0.04219221 1.4187598e-38 241 272
-0.10284352 0.75199997 -0.04219221 1.6301207e-38 242 272
-0.101255 0.75 -0.04208 1.6209011e-38 243 272
-0.099939995 0.75 -0.04208 1.7126626e-38 244 272
-0.098624997 0.75 -0.04208 1.6942234e-38 245 272
-0.097309999 0.75 -0.04208 1.6387988e-38 246 272
-0.095867008 0.74900001 -0.042023893 1.5466032e-38 247 272
-0.094553761 0.74900001 -0.042023893 1.4082399e-38 248 272
-0.093240514 0.74900001 -0.042023893 1.260765e-38 249 272
-0.092049994 0.75 -0.04208 1.0949231e-38 250 272
-0.090734996 0.75 -0.04208 9.935094e-39 251 272
-0.089896902 0.75400001 -0.042304426 7.8203665e-39 252 272
-0.088574894 0.75400001 -0.042304426 7.0824539e-39 253 272
-0.085517079 0.73900002 -0.041462827 5.7074326e-39 254 272
-0.084221363 0.73900002 -0.041462827 6.2609637e-39 255 272
-0.082925655 0.73900002 -0.041462827 5.3440717e-39 256 272
-0.08129856 0.736 -0.041294504 4.6987023e-39 257 272
-0.080008104 0.736 -0.041294504 5.2486489e-39 258 272
-0.078717649 0.736 -0.041294504 6.1706038e-39 259 272
-0.078058399 0.74199998 -0.041631144 7.7404644e-39 260 272
-0.076757424 0.74199998 -0.041631144 1.1612681e-38 261 272
-0.075456448 0.74199998 -0.041631144 1.1520864e-38 262 272
-0.074155472 0.74199998 -0.041631144 1.1520864e-38 263 272
-0.072854504 0.74199998 -0.041631144 1.2352412e-38 264 272
-0.071553528 0.74199998 -0.041631144 1.2629359e-38 265 272
-0.07025256 0.74199998 -0.041631144 1.2722975e-38 266 272
-0.068951584 0.74199998 -0.041631144 1.2630779e-38 267 272
-0.067559443 0.741 -0.041575037 1.2537144e-38 268 272
-0.066260219 0.741 -0.041575037 1.1707383e-38 269 272
-0.065048665 0.74199998 -0.041631144 1.188747e-38 270 272
-0.063747689 0.74199998 -0.041631144 1.188747e-38 271 272
-0.062446713 0.74199998 -0.041631144 1.1517967e-38 272 272
-0.061063338 0.741 -0.041575037 8.3833157e-39 273 272
-0.059602812 0.73900002 -0.041462827 5.803287e-39 274 272
-0.0583071 0.73900002 -0.041462827 3.7749818e-39 275 272
-0.05739712 0.74400002 -0.04174336 3.0403104e-39 276 272
-0.05594185 0.74199998 -0.041631144 3.5934842e-39 277 272
-0.054567236 0.741 -0.041575037 2.8598848e-39 278 272
-0.053268019 0.741 -0.041575037 3.4130586e-39 279 272
-0.051968798 0.741 -0.041575037 7.5557481e-39 280 272
-0.050669577 0.741 -0.041575037 9.6762476e-39 281 272
-0.049370356 0.741 -0.041575037 1.1429034e-38 282 272
-0.048071139 0.741 -0.041575037 1.1705621e-38 283 272
-0.046645679 0.73900002 -0.041462827 1.2166949e-38 284 272
-0.045349967 0.73900002 -0.041462827 1.2074753e-38 285 272
-0.044054255 0.73900002 -0.041462827 1.1984709e-38 286 272
-0.042758539 0.73900002 -0.041462827 1.2906667e-38 287 272
-0.041462827 0.73900002 -0.041462827 1.2816985e-38 288 272
-0.040112756 0.73799998 -0.041406717 1.2540758e-38 289 272
-0.038818799 0.73799998 -0.041406717 1.2717952e-38 290 272
-0.037524838 0.73799998 -0.041406717 1.1888552e-38 291 272
-0.036230877 0.73799998 -0.041406717 1.2072573e-38 292 272
-0.034842238 0.736 -0.041294504 1.0504887e-38 293 272
-0.033551786 0.736 -0.041294504 6.7223524e-39 294 272
-0.032261331 0.736 -0.041294504 5.2472224e-39 295 272
-0.03109712 0.73900002 -0.041462827 4.6072774e-39 296 272
-0.029801406 0.73900002 -0.041462827 4.6072774e-39 297 272
-0.028505694 0.73900002 -0.041462827 4.9753424e-39 298 272
-0.027209979 0.73900002 -0.041462827 4.2374187e-39 299 272
-0.025914267 0.73900002 -0.041462827 3.1450827e-39 300 272
-0.024618553 0.73900002 -0.041462827 5.6343633e-39 301 272
-0.023322839 0.73900002 -0.041462827 8.8497071e-39 302 272
-0.022027127 0.73900002 -0.041462827 1.0232642e-38 303 272
-0.020731414 0.73900002 -0.041462827 1.0784017e-38 304 272
-0.0194357 0.73900002 -0.041462827 1.0599628e-38 305 272
-0.018066347 0.736 -0.041294504 1.3087463e-38 306 272
-0.016730307 0.73400003 -0.041182294 1.3732833e-38 307 272
-0.015422319 0.73299998 -0.041126184 1.3915779e-38 308 272
-0.014137126 0.73299998 -0.041126184 1.4007975e-38 309 272
-0.012816866 0.73100001 -0.041013971 1.3638464e-38 310 272
-0.01153518 0.73100001 -0.041013971 1.2163334e-38 311 272
-0.010253493 0.73100001 -0.041013971 1.1701265e-38 312 272
-0.0089963535 0.73299998 -0.041126184 1.0871506e-38 313 272
-0.0077111595 0.73299998 -0.041126184 9.1179941e-39 314 272
-0.0064259665 0.73299998 -0.041126184 6.8131033e-39 315 272
-0.005140773 0.73299998 -0.041126184 4.333189e-39 316 272
-0.0038608401 0.73400003 -0.041182294 3.5037871e-39 317 272
-0.0025809065 0.736 -0.041294504 2.950986e-39 318 272
-0.0012939599 0.73799998 -0.041406717 2.674039e-39 319 272
0 0.73799998 -0.041406717 2.9488308e-39 320 272
0.0012939599 0.73799998 -0.041406717 2.9488308e-39 321 272
0.0025879198 0.73799998 -0.041406717 3.2239786e-39 322 272
0.0038713599 0.736 -0.041294504 3.0392286e-39 323 272
0.0051477868 0.73400003 -0.041182294 2.9473861e-39 324 272
0.0063996664 0.73000002 -0.040957868 3.0395817e-39 325 272
0.0076795998 0.73000002 -0.040957868 3.504143e-39 326 272
0.01140894 0.72299999 -0.040565118 7.8384236e-39 329 272
0.012676599 0.72299999 -0.040565118 9.0369696e-39 330 272
0.01531712 0.72799999 -0.040845651 8.3807948e-39 332 272
0.016593546 0.72799999 -0.040845651 7.2748073e-39 333 272
0.017869972 0.72799999 -0.040845651 5.1654566e-39 334 272
0.0191464 0.72799999 -0.040845651 4.5200872e-39 335 272
0.020422826 0.72799999 -0.040845651 4.5179362e-39 336 272
0.021699252 0.72799999 -0.040845651 4.056958e-39 337 272
0.02281788 0.72299999 -0.040565118 3.6863861e-39 338 272
0.043219667 0.72500002 -0.040677335 3.9622471e-39 354 272
0.044490833 0.72500002 -0.040677335 3.9622471e-39 355 272
0.045761999 0.72500002 -0.040677335 3.8700514e-39 356 272
0.047033165 0.72500002 -0.040677335 3.7774971e-39 357 272
0.048304334 0.72500002 -0.040677335 4.0526448e-39 358 272
0.0495755 0.72500002 -0.040677335 4.1448405e-39 359 272
0.050846666 0.72500002 -0.040677335 4.2370361e-39 360 272
0.052117832 0.72500002 -0.040677335 4.4210686e-39 361 272
0.053388998 0.72500002 -0.040677335 4.4210686e-39 362 272
0.054660168 0.72500002 -0.040677335 4.6980143e-39 363 272
0.055931333 0.72500002 -0.040677335 4.5154181e-39 364 272
0.057202499 0.72500002 -0.040677335 4.6998107e-39 365 272
0.058473669 0.72500002 -0.040677335 4.5161397e-39 366 272
0.059744831 0.72500002 -0.040677335 3.9629673e-39 367 272
0.061016005 0.72500002 -0.040677335 3.6845826e-39 368 272
0.062115334 0.72299999 -0.040565118 3.5001899e-39 369 272
0.063382991 0.72299999 -0.040565118 2.9498846e-39 370 272
0.064829499 0.72500002 -0.040677335 2.9498846e-39 371 272
0.065918319 0.72299999 -0.040565118 2.9498846e-39 372 272
0.067185976 0.72299999 -0.040565118 3.042439e-39 373 272
0.068643004 0.72500002 -0.040677335 3.4105096e-39 374 272
0.070396334 0.73000002 -0.040957868 3.7796523e-39 375 272
0.071185336 0.72500002 -0.040677335 3.8714948e-39 376 272
0.072456501 0.72500002 -0.040677335 4.0555259e-39 377 272
-0.10679904 0.75199997 -0.04351072 4.7952321e-39 239 273
-0.10548052 0.75199997 -0.04351072 9.1211764e-39 240 273
-0.10388499 0.75 -0.043394998 1.1057285e-38 241 273
-0.10257 0.75 -0.043394998 1.4644225e-38 242 273
-0.101255 0.75 -0.043394998 1.5197399e-38 243 273
-0.099939995 0.75 -0.043394998 1.5747295e-38 244 273
-0.098493494 0.74900001 -0.04333714 1.4824978e-38 245 273
-0.097180255 0.74900001 -0.04333714 1.399451e-38 246 273
-0.095867008 0.74900001 -0.04333714 1.2703791e-38 247 273
-0.094301268 0.74699998 -0.043221418 1.0767712e-38 248 273
-0.092991538 0.74699998 -0.043221418 9.3847985e-39 249 273
-0.09229546 0.75199997 -0.04351072 7.3626239e-39 250 273
-0.090976954 0.75199997 -0.04351072 6.8094585e-39 251 273
-0.087989271 0.73799998 -0.042700678 5.5219721e-39 252 273
-0.086812794 0.73900002 -0.042758539 6.3517328e-39 253 273
-0.085517079 0.73900002 -0.042758539 6.7273873e-39 254 273
-0.084107392 0.73799998 -0.042700678 7.6497037e-39 255 273
-0.082589008 0.736 -0.042584959 8.3836688e-39 256 273
-0.08129856 0.736 -0.042584959 7.1851256e-39 257 273
-0.080008104 0.736 -0.042584959 5.709627e-39 258 273
-0.078717649 0.736 -0.042584959 5.709627e-39 259 273
-0.077953197 0.741 -0.042874258 6.5433716e-39 260 273
-0.076653972 0.741 -0.042874258 8.940458e-39 261 273
-0.075354755 0.741 -0.042874258 9.9564274e-39 262 273
-0.074055538 0.741 -0.042874258 1.0509601e-38 263 273
-0.072854504 0.74199998 -0.042932119 1.1891075e-38 264 273
-0.071553528 0.74199998 -0.042932119 1.2997063e-38 265 273
-0.070157878 0.741 -0.042874258 1.318071e-38 266 273
-0.068858653 0.741 -0.042874258 1.2720091e-38 267 273
-0.067559443 0.741 -0.042874258 1.1888528e-38 268 273
-0.066260219 0.741 -0.042874258 1.1335356e-38 269 273
-0.064960994 0.741 -0.042874258 1.1059846e-38 270 273
-0.063661776 0.741 -0.042874258 1.0321922e-38 271 273
-0.062194239 0.73900002 -0.042758539 8.9407873e-39 272 273
-0.060816113 0.73799998 -0.042700678 7.2812645e-39 273 273
-0.059199546 0.73400003 -0.042469237 5.6221159e-39 274 273
-0.057833698 0.73299998 -0.042411376 5.345529e-39 275 273
-0.056548502 0.73299998 -0.042411376 5.247951e-39 276 273
-0.055715673 0.73900002 -0.042758539 4.325636e-39 277 273
-0.054419957 0.73900002 -0.042758539 2.7633704e-39 278 273
-0.053052358 0.73799998 -0.042700678 2.855566e-39 279 273
-0.051618133 0.736 -0.042584959 5.9931083e-39 280 273
-0.050327681 0.736 -0.042584959 9.2199553e-39 281 273
-0.049170475 0.73799998 -0.042700678 1.0693994e-38 282 273
-0.047876518 0.73799998 -0.042700678 1.1339362e-38 283 273
-0.046582557 0.73799998 -0.042700678 1.2904164e-38 284 273
-0.0452886 0.73799998 -0.042700678 1.3088555e-38 285 273
-0.043994635 0.73799998 -0.042700678 1.3549521e-38 286 273
-0.042700678 0.73799998 -0.042700678 1.3364771e-38 287 273
-0.041406717 0.73799998 -0.042700678 1.2630782e-38 288 273
-0.040004052 0.736 -0.042584959 1.2169804e-38 289 273
-0.038713597 0.736 -0.042584959 1.1889258e-38 290 273
-0.037423145 0.736 -0.042584959 1.142792e-38 291 273
-0.036034506 0.73400003 -0.042469237 1.188747e-38 292 273
-0.03474756 0.73400003 -0.042469237 1.1242101e-38 293 273
-0.033415023 0.73299998 -0.042411376 6.0809515e-39 294 273
-0.032129832 0.73299998 -0.042411376 4.7902127e-39 295 273
-0.030844638 0.73299998 -0.042411376 5.2494126e-39 296 273
-0.029559445 0.73299998 -0.042411376 4.9724656e-39 297 273
-0.028274251 0.73299998 -0.042411376 5.0607404e-39 298 273
-0.02702588 0.73400003 -0.042469237 4.1387841e-39 299 273
-0.025809066 0.736 -0.042584959 2.2174287e-39 300 273
-0.024585238 0.73799998 -0.042700678 6.7350132e-39 301 273
-0.023228159 0.736 -0.042584959 1.0325936e-38 302 273
-0.021937706 0.736 -0.042584959 1.1155336e-38 303 273
-0.020506985 0.73100001 -0.042295661 1.143011e-38 304 273
-0.019225299 0.73100001 -0.042295661 1.143011e-38 305 273
-0.017943613 0.73100001 -0.042295661 1.391793e-38 306 273
-0.016661927 0.73100001 -0.042295661 1.5023919e-38 307 273
-0.01538024 0.73100001 -0.042295661 1.5115022e-38 308 273
-0.014098554 0.73100001 -0.042295661 1.4746241e-38 309 273
-0.012816866 0.73100001 -0.042295661 1.3364754e-38 310 273
-0.01153518 0.73100001 -0.042295661 1.1889624e-38 311 273
-0.010253493 0.73100001 -0.042295661 1.2348084e-38 312 273
-0.0089718066 0.73100001 -0.042295661 1.2348084e-38 313 273
-0.0077111595 0.73299998 -0.042411376 1.0688576e-38 314 273
-0.0064259665 0.73299998 -0.042411376 6.3557405e-39 315 273
-0.005140773 0.73299998 -0.042411376 5.0682415e-39 316 273
-0.0038555798 0.73299998 -0.042411376 4.3303177e-39 317 273
-0.0025738934 0.73400003 -0.042469237 3.8696829e-39 318 273
-0.0012939599 0.73799998 -0.042700678 3.7774873e-39 319 273
0 0.73799998 -0.042700678 3.3168777e-39 320 273
0.0012939599 0.73799998 -0.042700678 3.3168777e-39 321 273
0.0025633732 0.73100001 -0.042295661 3.0410138e-39 322 273
0.00384506 0.73100001 -0.042295661 3.0410138e-39 323 273
0.0051197335 0.73000002 -0.0422378 3.3168777e-39 324 273
0.0063821329 0.72799999 -0.042122077 3.8700514e-39 325 273
0.0076270006 0.72500002 -0.041948501 3.5070269e-39 326 273
0.0088736191 0.72299999 -0.041832779 5.3509395e-39 327 273
0.01014128 0.72299999 -0.041832779 8.2039817e-39 328 273
0.01140894 0.72299999 -0.041832779 1.0970211e-38 329 273
0.012676599 0.72299999 -0.041832779 1.2350621e-38 330 273
0.01394426 0.72299999 -0.041832779 1.2074035e-38 331 273
0.015211919 0.72299999 -0.041832779 1.0594922e-38 332 273
0.01647958 0.72299999 -0.041832779 8.2900313e-39 333 273
0.017747238 0.72299999 -0.041832779 6.8181354e-39 334 273
0.019014901 0.72299999 -0.041832779 6.2649616e-39 335 273
0.020282559 0.72299999 -0.041832779 5.7128654e-39 336 273
0.021550218 0.72299999 -0.041832779 5.159693e-39 337 273
0.02281788 0.72299999 -0.041832779 4.6976429e-39 338 273
0.024085538 0.72299999 -0.041832779 3.9600779e-39 339 273
0.043338891 0.727 -0.042064216 4.0555161e-39 354 273
0.044490833 0.72500002 -0.041948501 3.9633205e-39 355 273
0.04563576 0.72299999 -0.041832779 3.9629645e-39 356 273
0.046903417 0.72299999 -0.041832779 3.6867364e-39 357 273
0.048171077 0.72299999 -0.041832779 3.7774971e-39 358 273
0.049438741 0.72299999 -0.041832779 3.8700514e-39 359 273
0.050706398 0.72299999 -0.041832779 3.8704144e-39 360 273
0.051974058 0.72299999 -0.041832779 3.8704144e-39 361 273
0.053168077 0.722 -0.041774917 3.961894e-39 362 273
0.054433983 0.722 -0.041774917 3.961894e-39 363 273
0.055777039 0.72299999 -0.041832779 3.962617e-39 364 273
0.056965802 0.722 -0.041774917 4.0548127e-39 365 273
0.058070403 0.72000003 -0.041659199 4.2377564e-39 366 273
0.059332799 0.72000003 -0.041659199 4.0533637e-39 367 273
0.060847677 0.72299999 -0.041832779 3.6870867e-39 368 273
0.062029421 0.722 -0.041774917 3.5948911e-39 369 273
0.063295327 0.722 -0.041774917 3.7785537e-39 370 273
0.064650662 0.72299999 -0.041832779 3.686358e-39 371 273
0.065827139 0.722 -0.041774917 3.7785537e-39 372 273
0.067093052 0.722 -0.041774917 3.7785537e-39 373 273
0.068643004 0.72500002 -0.041948501 3.5030584e-39 374 273
0.070203468 0.72799999 -0.042122077 3.6878084e-39 375 273
0.071185336 0.72500002 -0.041948501 3.7792992e-39 376 273
0.072456501 0.72500002 -0.041948501 3.6871021e-39 377 273
-0.10679904 0.75199997 -0.044829223 4.2420724e-39 239 274
-0.10548052 0.75199997 -0.044829223 4.2402353e-39 240 274
-0.10388499 0.75 -0.044709999 5.992311e-39 241 274
-0.10257 0.75 -0.044709999 1.0956066e-38 242 274
-0.10111999 0.74900001 -0.044650383 1.1324849e-38 243 274
-0.099806741 0.74900001 -0.044650383 1.187189e-38 244 274
-0.098230496 0.74699998 -0.044531155 1.0212753e-38 245 274
-0.096920758 0.74699998 -0.044531155 8.4607038e-39 246 274
-0.095611013 0.74699998 -0.044531155 7.2621788e-39 247 274
-0.094301268 0.74699998 -0.044531155 5.2428741e-39 248 274
-0.092991538 0.74699998 -0.044531155 6.1648206e-39 249 274
-0.091681793 0.74699998 -0.044531155 6.8127334e-39 250 274
-0.08879932 0.73400003 -0.043756187 8.1956692e-39 251 274
-0.087989271 0.73799998 -0.043994635 8.4816322e-39 252 274
-0.086695313 0.73799998 -0.043994635 9.9564022e-39 253 274
-0.085401356 0.73799998 -0.043994635 1.0880163e-38 254 274
-0.083879463 0.736 -0.043875411 1.115639e-38 255 274
-0.082364589 0.73400003 -0.043756187 1.1704879e-38 256 274
-0.081077635 0.73400003 -0.043756187 1.0045358e-38 257 274
-0.079790697 0.73400003 -0.043756187 8.9357538e-39 258 274
-0.07850375 0.73400003 -0.043756187 6.2620805e-39 259 274
-0.0777428 0.73900002 -0.044054255 3.1360835e-39 260 274
-0.076447085 0.73900002 -0.044054255 3.6892573e-39 261 274
-0.075151369 0.73900002 -0.044054255 5.8115897e-39 262 274
-0.073855661 0.73900002 -0.044054255 8.0242862e-39 263 274
-0.072756313 0.741 -0.044173479 1.0415238e-38 264 274
-0.071457103 0.741 -0.044173479 1.0783662e-38 265 274
-0.070157878 0.741 -0.044173479 1.0966223e-38 266 274
-0.068858653 0.741 -0.044173479 1.0136462e-38 267 274
-0.06737709 0.73900002 -0.044054255 9.3063286e-39 268 274
-0.066081382 0.73900002 -0.044054255 7.9233941e-39 269 274
-0.064697996 0.73799998 -0.043994635 6.2678357e-39 270 274
-0.063404039 0.73799998 -0.043994635 5.7146619e-39 271 274
-0.061941758 0.736 -0.043875411 4.7055672e-39 272 274
-0.060486492 0.73400003 -0.043756187 5.6278823e-39 273 274
-0.058957584 0.73100001 -0.043577347 7.8366313e-39 274 274
-0.057597004 0.73000002 -0.043517731 9.3117614e-39 275 274
-0.056317069 0.73000002 -0.043517731 1.0869361e-38 276 274
-0.055263311 0.73299998 -0.043696571 9.4864263e-39 277 274
-0.053978115 0.73299998 -0.043696571 6.8113279e-39 278 274
-0.052764814 0.73400003 -0.043756187 5.2440008e-39 279 274
-0.051477864 0.73400003 -0.043756187 2.5847427e-39 280 274
-0.050190922 0.73400003 -0.043756187 4.9814703e-39 281 274
-0.049037226 0.736 -0.043875411 6.734632e-39 282 274
-0.047746774 0.736 -0.043875411 8.2101208e-39 283 274
-0.046456318 0.736 -0.043875411 1.1244294e-38 284 274
-0.045165867 0.736 -0.043875411 1.235064e-38 285 274
-0.043875411 0.736 -0.043875411 1.3360453e-38 286 274
-0.042469237 0.73400003 -0.043756187 1.2807281e-38 287 274
-0.041182294 0.73400003 -0.043756187 1.1794907e-38 288 274
-0.039895348 0.73400003 -0.043756187 1.0965146e-38 289 274
-0.038555797 0.73299998 -0.043696571 9.6762027e-39 290 274
-0.037270606 0.73299998 -0.043696571 8.3854639e-39 291 274
-0.035838135 0.73000002 -0.043517731 7.0907776e-39 292 274
-0.034558199 0.73000002 -0.043517731 5.523812e-39 293 274
-0.033278264 0.73000002 -0.043517731 4.1495264e-39 294 274
-0.031998333 0.73000002 -0.043517731 6.2700259e-39 295 274
-0.030634239 0.72799999 -0.043398503 8.6592033e-39 296 274
-0.029317487 0.727 -0.043338891 7.7372456e-39 297 274
-0.028042812 0.727 -0.043338891 5.2529831e-39 298 274
-0.026804959 0.72799999 -0.043398503 3.3168749e-39 299 274
-0.025598666 0.73000002 -0.043517731 3.0413824e-39 300 274
-0.024318734 0.73000002 -0.043517731 6.3604265e-39 301 274
-0.023038799 0.73000002 -0.043517731 7.3796357e-39 302 274
-0.021758866 0.73000002 -0.043517731 8.6703745e-39 303 274
-0.020478934 0.73000002 -0.043517731 1.0785109e-38 304 274
-0.019199001 0.73000002 -0.043517731 1.1799621e-38 305 274
-0.017919067 0.73000002 -0.043517731 1.3825028e-38 306 274
-0.016639132 0.73000002 -0.043517731 1.400942e-38 307 274
-0.0153592 0.73000002 -0.043517731 1.3825016e-38 308 274
-0.014079267 0.73000002 -0.043517731 1.2902699e-38 309 274
-0.012799333 0.73000002 -0.043517731 1.1613033e-38 310 274
-0.011519399 0.73000002 -0.043517731 1.0691436e-38 311 274
-0.010239467 0.73000002 -0.043517731 1.077896e-38 312 274
-0.0089595336 0.73000002 -0.043517731 1.0041395e-38 313 274
-0.00769012 0.73100001 -0.043577347 8.106733e-39 314 274
-0.006408433 0.73100001 -0.043577347 6.0784292e-39 315 274
-0.0051267464 0.73100001 -0.043577347 5.1597155e-39 316 274
-0.00384506 0.73100001 -0.043577347 4.6983772e-39 317 274
-0.0025738934 0.73400003 -0.043756187 3.8725668e-39 318 274
-0.0012869467 0.73400003 -0.043756187 3.6881755e-39 319 274
0 0.73799998 -0.043994635 3.4126606e-39 320 274
0.0012939599 0.73799998 -0.043994635 3.0442382e-39 321 274
0.0025493465 0.727 -0.043338891 3.2275505e-39 322 274
0.0038240198 0.727 -0.043338891 3.2275505e-39 323 274
0.0050846669 0.72500002 -0.043219667 3.5945352e-39 324 274
0.0063558333 0.72500002 -0.043219667 3.9633177e-39 325 274
0.0076059597 0.72299999 -0.043100435 3.8747346e-39 326 274
0.0088736191 0.72299999 -0.043100435 5.7186458e-39 327 274
0.01014128 0.72299999 -0.043100435 8.6613726e-39 328 274
0.01139316 0.722 -0.043040827 1.1795665e-38 329 274
0.012659066 0.722 -0.043040827 1.2348826e-38 330 274
0.013924973 0.722 -0.043040827 1.2348826e-38 331 274
0.015190879 0.722 -0.043040827 1.2440642e-38 332 274
0.016456785 0.722 -0.043040827 9.9513617e-39 333 274
0.017722692 0.722 -0.043040827 7.4617195e-39 334 274
0.0189886 0.722 -0.043040827 7.0003813e-39 335 274
0.020254506 0.722 -0.043040827 5.7161234e-39 336 274
0.021520413 0.722 -0.043040827 5.255504e-39 337 274
0.022786319 0.722 -0.043040827 4.4250217e-39 338 274
0.024052227 0.722 -0.043040827 3.8718479e-39 339 274
0.025318133 0.722 -0.043040827 3.5023423e-39 340 274
0.043338891 0.727 -0.043338891 3.8725696e-39 354 274
0.044368099 0.72299999 -0.043100435 3.8725696e-39 355 274
0.04563576 0.72299999 -0.043100435 3.9629673e-39 356 274
0.046903417 0.72299999 -0.043100435 3.8707703e-39 357 274
0.048171077 0.72299999 -0.043100435 3.8707703e-39 358 274
0.049438741 0.72299999 -0.043100435 3.6863805e-39 359 274
0.050636265 0.722 -0.043040827 3.6867364e-39 360 274
0.051902171 0.722 -0.043040827 3.6867364e-39 361 274
0.053020801 0.72000003 -0.042921603 3.8693326e-39 362 274
0.054207806 0.71899998 -0.042861983 4.0533637e-39 363 274
0.055468451 0.71899998 -0.042861983 4.1448405e-39 364 274
0.056729097 0.71899998 -0.042861983 4.1448405e-39 365 274
0.057989739 0.71899998 -0.042861983 3.7774999e-39 366 274
0.059085581 0.71700001 -0.042742759 3.7774999e-39 367 274
0.060342718 0.71700001 -0.042742759 3.5949037e-39 368 274
0.062029421 0.722 -0.043040827 3.5949037e-39 369 274
0.063295327 0.722 -0.043040827 3.6874553e-39 370 274
0.064561233 0.722 -0.043040827 3.6874553e-39 371 274
0.065827139 0.722 -0.043040827 3.6874524e-39 372 274
0.067093052 0.722 -0.043040827 3.5952568e-39 373 274
0.06845364 0.72299999 -0.043100435 3.6867336e-39 374 274
0.069914162 0.72500002 -0.043219667 3.6867336e-39 375 274
0.071185336 0.72500002 -0.043219667 3.869327e-39 376 274
0.072456501 0.72500002 -0.043219667 4.0537168e-39 377 274
-0.10548052 0.75199997 -0.04614773 5.0664408e-39 240 275
-0.10346945 0.74699998 -0.045840897 4.8824083e-39 241 275
-0.10215972 0.74699998 -0.045840897 7.8247119e-39 242 275
-0.10084997 0.74699998 -0.045840897 8.3778857e-39 243 275
-0.09940698 0.74599999 -0.045779534 8.7437619e-39 244 275
-0.098099001 0.74599999 -0.045779534 7.4530245e-39 245 275
-0.096791007 0.74599999 -0.045779534 5.7989262e-39 246 275
-0.095483027 0.74599999 -0.045779534 7.3666106e-39 247 275
-0.094175033 0.74599999 -0.045779534 7.3673715e-39 248 275
-0.092991538 0.74699998 -0.045840897 8.1971322e-39 249 275
-0.091681793 0.74699998 -0.045840897 8.4791267e-39 250 275
-0.08879932 0.73400003 -0.045043133 9.5854742e-39 251 275
-0.087512374 0.73400003 -0.045043133 1.0507786e-38 252 275
-0.086225428 0.73400003 -0.045043133 1.1245353e-38 253 275
-0.084938474 0.73400003 -0.045043133 1.1153871e-38 254 275
-0.083651535 0.73400003 -0.045043133 1.1338621e-38 255 275
-0.082364589 0.73400003 -0.045043133 1.1429732e-38 256 275
-0.081077635 0.73400003 -0.045043133 1.0876917e-38 257 275
-0.079790697 0.73400003 -0.045043133 1.0687115e-38 258 275
-0.07850375 0.73400003 -0.045043133 8.9353979e-39 259 275
-0.077427194 0.736 -0.045165867 5.5270462e-39 260 275
-0.076343641 0.73799998 -0.0452886 3.9600807e-39 261 275
-0.075049676 0.73799998 -0.0452886 4.1481027e-39 262 275
-0.073755711 0.73799998 -0.0452886 6.5451891e-39 263 275
-0.072559945 0.73900002 -0.045349967 7.8366412e-39 264 275
-0.07126423 0.73900002 -0.045349967 8.5745649e-39 265 275
-0.069968522 0.73900002 -0.045349967 8.6613319e-39 266 275
-0.068672806 0.73900002 -0.045349967 8.0159625e-39 267 275
-0.067285918 0.73799998 -0.0452886 5.9944886e-39 268 275
-0.065813117 0.736 -0.045165867 5.7182618e-39 269 275
-0.064347334 0.73400003 -0.045043133 6.2692832e-39 270 275
-0.062974468 0.73299998 -0.044981763 6.5458715e-39 271 275
-0.061689276 0.73299998 -0.044981763 7.0068679e-39 272 275
-0.060156867 0.73000002 -0.044797666 8.4819979e-39 273 275
-0.058876935 0.73000002 -0.044797666 1.0138645e-38 274 275
-0.057439197 0.72799999 -0.044674929 1.152158e-38 275 275
-0.056162767 0.72799999 -0.044674929 1.2806185e-38 276 275
-0.054886345 0.72799999 -0.044674929 1.1699837e-38 277 275
-0.053757198 0.73000002 -0.044797666 9.9488281e-39 278 275
-0.052764814 0.73400003 -0.045043133 6.9985666e-39 279 275
-0.051477864 0.73400003 -0.045043133 3.9626114e-39 280 275
-0.050190922 0.73400003 -0.045043133 3.9626114e-39 281 275
-0.048903972 0.73400003 -0.045043133 4.1527914e-39 282 275
-0.047617026 0.73400003 -0.045043133 6.1810953e-39 283 275
-0.046330083 0.73400003 -0.045043133 8.6660585e-39 284 275
-0.045043133 0.73400003 -0.045043133 9.8646003e-39 285 275
-0.043756187 0.73400003 -0.045043133 1.1241756e-38 286 275
-0.042411376 0.73299998 -0.044981763 1.0135408e-38 287 275
-0.041126184 0.73299998 -0.044981763 9.1230359e-39 288 275
-0.039677933 0.73000002 -0.044797666 8.3854695e-39 289 275
-0.038398001 0.73000002 -0.044797666 6.7317061e-39 290 275
-0.037016369 0.72799999 -0.044674929 5.7175556e-39 291 275
-0.035739943 0.72799999 -0.044674929 5.8994511e-39 292 275
-0.034463517 0.72799999 -0.044674929 5.4381128e-39 293 275
-0.033187091 0.72799999 -0.044674929 7.5586179e-39 294 275
-0.031910665 0.72799999 -0.044674929 9.0337494e-39 295 275
-0.030634239 0.72799999 -0.044674929 1.0596381e-38 296 275
-0.029236834 0.72500002 -0.044490833 1.0227957e-38 297 275
-0.027965667 0.72500002 -0.044490833 9.1208653e-39 298 275
-0.026694499 0.72500002 -0.044490833 6.9081688e-39 299 275
-0.025493465 0.727 -0.044613566 4.6043697e-39 300 275
-0.024218792 0.727 -0.044613566 4.9731536e-39 301 275
-0.022944121 0.727 -0.044613566 4.5215641e-39 302 275
-0.021699252 0.72799999 -0.044674929 6.2736413e-39 303 275
-0.020422826 0.72799999 -0.044674929 8.3909107e-39 304 275
-0.0191464 0.72799999 -0.044674929 9.9585952e-39 305 275
-0.017869972 0.72799999 -0.044674929 1.161593e-38 306 275
-0.016593546 0.72799999 -0.044674929 1.1800322e-38 307 275
-0.01531712 0.72799999 -0.044674929 1.2165122e-38 308 275
-0.014040692 0.72799999 -0.044674929 1.115061e-38 309 275
-0.012799333 0.73000002 -0.044797666 1.0042461e-38 310 275
-0.011519399 0.73000002 -0.044797666 8.844277e-39 311 275
-0.010239467 0.73000002 -0.044797666 7.6464541e-39 312 275
-0.0089595336 0.73000002 -0.044797666 6.7248566e-39 313 275
-0.0076795998 0.73000002 -0.044797666 5.8943868e-39 314 275
-0.0063996664 0.73000002 -0.044797666 5.2490174e-39 315 275
-0.0051197335 0.73000002 -0.044797666 4.4250189e-39 316 275
-0.0038397999 0.73000002 -0.044797666 4.4250189e-39 317 275
-0.0025598668 0.73000002 -0.044797666 4.7934287e-39 318 275
-0.0012799334 0.73000002 -0.044797666 4.701233e-39 319 275
0 0.73100001 -0.044859033 4.7919797e-39 320 275
0.0012816866 0.73100001 -0.044859033 4.515753e-39 321 275
0.0025353199 0.72299999 -0.044368099 4.2391787e-39 322 275
0.0038029798 0.72299999 -0.044368099 4.0551462e-39 323 275
0.0050706398 0.72299999 -0.044368099 3.9622471e-39 324 275
0.0063382997 0.72299999 -0.044368099 3.9622471e-39 325 275
0.0076059597 0.72299999 -0.044368099 3.5034508e-39 326 275
0.0088613462 0.722 -0.044306733 3.5960051e-39 327 275
0.010127253 0.722 -0.044306733 4.4275777e-39 328 275
0.01139316 0.722 -0.044306733 7.1016097e-39 329 275
0.012659066 0.722 -0.044306733 9.4947206e-39 330 275
0.013924973 0.722 -0.044306733 1.0047894e-38 331 275
0.015190879 0.722 -0.044306733 1.0415219e-38 332 275
0.016456785 0.722 -0.044306733 9.4932632e-39 333 275
0.017722692 0.722 -0.044306733 7.3680904e-39 334 275
0.0189886 0.722 -0.044306733 6.9993093e-39 335 275
0.020198401 0.72000003 -0.044183999 5.7136081e-39 336 275
0.021460801 0.72000003 -0.044183999 5.0682387e-39 337 275
0.022691639 0.71899998 -0.044122629 4.6983772e-39 338 275
0.023952285 0.71899998 -0.044122629 4.4221504e-39 339 275
0.025248 0.72000003 -0.044183999 4.3313771e-39 340 275
0.044306733 0.722 -0.044306733 3.6889014e-39 355 275
0.045446403 0.72000003 -0.044183999 4.055879e-39 356 275
0.0467088 0.72000003 -0.044183999 3.7796523e-39 357 275
0.0479712 0.72000003 -0.044183999 3.8707675e-39 358 275
0.0492336 0.72000003 -0.044183999 3.6867364e-39 359 275
0.050425861 0.71899998 -0.044122629 4.1448377e-39 360 275
0.05168651 0.71899998 -0.044122629 4.1448377e-39 361 275
0.052799881 0.71700001 -0.043999899 4.0533637e-39 362 275
0.054057021 0.71700001 -0.043999899 4.0533637e-39 363 275
0.055314157 0.71700001 -0.043999899 3.7775027e-39 364 275
0.056729097 0.71899998 -0.044122629 3.6849483e-39 365 275
0.057828441 0.71700001 -0.043999899 3.7767838e-39 366 275
0.059085581 0.71700001 -0.043999899 3.8689795e-39 367 275
0.060342718 0.71700001 -0.043999899 3.6874553e-39 368 275
0.061771683 0.71899998 -0.044122629 3.7796523e-39 369 275
0.063295327 0.722 -0.044306733 3.6874524e-39 370 275
0.064561233 0.722 -0.044306733 3.6874524e-39 371 275
0.065827139 0.722 -0.044306733 3.8700514e-39 372 275
0.067093052 0.722 -0.044306733 3.7774971e-39 373 275
0.06845364 0.72299999 -0.044368099 3.8693326e-39 374 275
0.069914162 0.72500002 -0.044490833 3.7767782e-39 375 275
0.071185336 0.72500002 -0.044490833 3.8693298e-39 376 275
0.072456501 0.72500002 -0.044490833 3.5927429e-39 377 275
-0.10333094 0.74599999 -0.047087517 4.7898568e-39 241 276
-0.10202295 0.74599999 -0.047087517 4.9713557e-39 242 276
-0.10071497 0.74599999 -0.047087517 5.0635514e-39 243 276
-0.09940698 0.74599999 -0.047087517 5.3390466e-39 244 276
-0.098099001 0.74599999 -0.047087517 4.4170889e-39 245 276
-0.096791007 0.74599999 -0.047087517 3.9629673e-39 246 276
-0.095483027 0.74599999 -0.047087517 8.3879974e-39 247 276
-0.094175033 0.74599999 -0.047087517 9.4061221e-39 248 276
-0.092867047 0.74599999 -0.047087517 1.0144046e-38 249 276
-0.090086266 0.73400003 -0.046330083 1.1613056e-38 250 276
-0.08879932 0.73400003 -0.046330083 1.1520861e-38 251 276
-0.087512374 0.73400003 -0.046330083 1.124462e-38 252 276
-0.086225428 0.73400003 -0.046330083 1.1060589e-38 253 276
-0.084938474 0.73400003 -0.046330083 1.0693246e-38 254 276
-0.083537564 0.73299998 -0.046266954 1.07858e-38 255 276
-0.082252368 0.73299998 -0.046266954 1.0876914e-38 256 276
-0.080967173 0.73299998 -0.046266954 1.0969109e-38 257 276
-0.07946457 0.73100001 -0.046140719 1.1609794e-38 258 276
-0.078182884 0.73100001 -0.046140719 1.0872228e-38 259 276
-0.077111594 0.73299998 -0.046266954 9.0293886e-39 260 276
-0.076343641 0.73799998 -0.046582557 5.8947372e-39 261 276
-0.07484629 0.736 -0.046456318 4.6032949e-39 262 276
-0.073555835 0.736 -0.046456318 4.6032949e-39 263 276
-0.072461754 0.73799998 -0.046582557 4.2435199e-39 264 276
-0.071167797 0.73799998 -0.046582557 4.7966937e-39 265 276
-0.069873832 0.73799998 -0.046582557 4.6944367e-39 266 276
-0.068579875 0.73799998 -0.046582557 5.0632193e-39 267 276
-0.066921227 0.73400003 -0.046330083 5.4420757e-39 268 276
-0.065544859 0.73299998 -0.046266954 7.0097616e-39 269 276
-0.063996665 0.73000002 -0.046077598 9.2166917e-39 270 276
-0.06271673 0.73000002 -0.046077598 1.0415235e-38 271 276
-0.061436798 0.73000002 -0.046077598 1.096804e-38 272 276
-0.060156867 0.73000002 -0.046077598 1.096804e-38 273 276
-0.058715623 0.72799999 -0.045951359 1.1888555e-38 274 276
-0.057439197 0.72799999 -0.045951359 1.3547716e-38 275 276
-0.056162767 0.72799999 -0.045951359 1.3730315e-38 276 276
-0.054810952 0.727 -0.045888241 1.2808e-38 277 276
-0.053536277 0.727 -0.045888241 1.1978222e-38 278 276
-0.052333489 0.72799999 -0.045951359 1.0779679e-38 279 276
-0.051057063 0.72799999 -0.045951359 7.3695197e-39 280 276
-0.050190922 0.73400003 -0.046330083 5.3412159e-39 281 276
-0.048903972 0.73400003 -0.046330083 2.1226701e-39 282 276
-0.047617026 0.73400003 -0.046330083 3.5978002e-39 283 276
-0.046266954 0.73299998 -0.046266954 5.533205e-39 284 276
-0.044859033 0.73100001 -0.046140719 6.8239438e-39 285 276
-0.043517731 0.73000002 -0.046077598 8.1085491e-39 286 276
-0.042122077 0.72799999 -0.045951359 6.3564734e-39 287 276
-0.040845651 0.72799999 -0.045951359 5.250479e-39 288 276
-0.039514873 0.727 -0.045888241 5.250479e-39 289 276
-0.038240198 0.727 -0.045888241 4.8899809e-39 290 276
-0.036965527 0.727 -0.045888241 6.365111e-39 291 276
-0.035690852 0.727 -0.045888241 8.6667549e-39 292 276
-0.03441618 0.727 -0.045888241 9.9574938e-39 293 276
-0.033141505 0.727 -0.045888241 1.12457e-38 294 276
-0.03186683 0.727 -0.045888241 1.1614482e-38 295 276
-0.030592158 0.727 -0.045888241 1.2072936e-38 296 276
-0.029236834 0.72500002 -0.045761999 1.1888905e-38 297 276
-0.027965667 0.72500002 -0.045761999 1.1702346e-38 298 276
-0.026694499 0.72500002 -0.045761999 1.013466e-38 299 276
-0.025423333 0.72500002 -0.045761999 7.8301293e-39 300 276
-0.024152167 0.72500002 -0.045761999 4.879509e-39 301 276
-0.022880999 0.72500002 -0.045761999 2.3063355e-39 302 276
-0.021669446 0.727 -0.045888241 3.6892699e-39 303 276
-0.020394772 0.727 -0.045888241 5.351329e-39 304 276
-0.0191464 0.72799999 -0.045951359 7.1030446e-39 305 276
-0.017869972 0.72799999 -0.045951359 9.0351717e-39 306 276
-0.016593546 0.72799999 -0.045951359 9.219563e-39 307 276
-0.01531712 0.72799999 -0.045951359 9.4896464e-39 308 276
-0.014040692 0.72799999 -0.045951359 8.106712e-39 309 276
-0.012764266 0.72799999 -0.045951359 6.7227e-39 310 276
-0.01148784 0.72799999 -0.045951359 4.9713417e-39 311 276
-0.010211413 0.72799999 -0.045951359 3.4987452e-39 312 276
-0.0089349858 0.72799999 -0.045951359 3.4987452e-39 313 276
-0.0076585598 0.72799999 -0.045951359 3.9586499e-39 314 276
-0.0063821329 0.72799999 -0.045951359 4.6962164e-39 315 276
-0.0051057064 0.72799999 -0.045951359 4.7001765e-39 316 276
-0.0038397999 0.73000002 -0.046077598 5.2533502e-39 317 276
-0.0025598668 0.73000002 -0.046077598 5.2558516e-39 318 276
-0.00125714 0.71700001 -0.045257039 5.2558516e-39 319 276
0 0.73100001 -0.046140719 5.3473087e-39 320 276
0.0012816866 0.73100001 -0.046140719 4.8863305e-39 321 276
0.0025318132 0.722 -0.045572639 4.609036e-39 322 276
0.0037977197 0.722 -0.045572639 4.2406136e-39 323 276
0.0050636264 0.722 -0.045572639 4.2381095e-39 324 276
0.0063295332 0.722 -0.045572639 4.0537168e-39 325 276
0.0076059597 0.72299999 -0.04563576 3.7750014e-39 326 276
0.0088613462 0.722 -0.045572639 2.7608494e-39 327 276
0.010127253 0.722 -0.045572639 1.2039704e-39 328 276
0.01139316 0.722 -0.045572639 2.4947092e-39 329 276
0.012659066 0.722 -0.045572639 4.7952644e-39 330 276
0.0138864 0.72000003 -0.045446403 5.7172207e-39 331 276
0.0151488 0.72000003 -0.045446403 6.8213878e-39 332 276
0.0164112 0.72000003 -0.045446403 6.8213878e-39 333 276
0.017673599 0.72000003 -0.045446403 6.2638952e-39 334 276
0.018935999 0.72000003 -0.045446403 5.7107214e-39 335 276
0.020170346 0.71899998 -0.045383278 4.7898596e-39 336 276
0.021430992 0.71899998 -0.045383278 3.9597402e-39 337 276
0.02262852 0.71700001 -0.045257039 3.4083741e-39 338 276
0.02388566 0.71700001 -0.045257039 4.5143615e-39 339 276
0.025248 0.72000003 -0.045446403 5.1611532e-39 340 276
0.044306733 0.722 -0.045572639 3.7796649e-39 355 276
0.045257039 0.71700001 -0.045257039 3.781453e-39 356 276
0.046514176 0.71700001 -0.045257039 3.6892573e-39 357 276
0.04777132 0.71700001 -0.045257039 3.8707675e-39 358 276
0.04902846 0.71700001 -0.045257039 3.6867364e-39 359 276
0.0502856 0.71700001 -0.045257039 4.1455565e-39 360 276
0.051542737 0.71700001 -0.045257039 4.1455565e-39 361 276
0.052799881 0.71700001 -0.045257039 4.1459125e-39 362 276
0.053981625 0.71600002 -0.045193922 4.0537168e-39 363 276
0.055237014 0.71600002 -0.045193922 3.8693326e-39 364 276
0.056571297 0.71700001 -0.045257039 3.8693326e-39 365 276
0.057828441 0.71700001 -0.045257039 3.8696955e-39 366 276
0.059085581 0.71700001 -0.045257039 3.8696955e-39 367 276
0.060342718 0.71700001 -0.045257039 3.6870993e-39 368 276
0.061599858 0.71700001 -0.045257039 3.6870993e-39 369 276
0.063032329 0.71899998 -0.045383278 3.6863805e-39 370 276
0.064561233 0.722 -0.045572639 3.5941848e-39 371 276
0.065644801 0.72000003 -0.045446403 3.8689795e-39 372 276
0.066907197 0.72000003 -0.045446403 3.7767838e-39 373 276
0.068169601 0.72000003 -0.045446403 4.0526448e-39 374 276
0.069432005 0.72000003 -0.045446403 3.7756992e-39 375 276
-0.10333094 0.74599999 -0.048395503 4.7923749e-39 241 277
-0.10202295 0.74599999 -0.048395503 5.0664408e-39 242 277
-0.10071497 0.74599999 -0.048395503 5.0664408e-39 243 277
-0.09940698 0.74599999 -0.048395503 5.2486671e-39 244 277
-0.098099001 0.74599999 -0.048395503 4.5111021e-39 245 277
-0.095493548 0.736 -0.047746774 4.5139985e-39 246 277
-0.094203092 0.736 -0.047746774 8.5702461e-39 247 277
-0.092660166 0.73400003 -0.047617026 9.4990436e-39 248 277
-0.091373213 0.73400003 -0.047617026 1.0236609e-38 249 277
-0.089963526 0.73299998 -0.04755215 1.1244267e-38 250 277
-0.088678338 0.73299998 -0.04755215 1.1060236e-38 251 277
-0.087393142 0.73299998 -0.04755215 1.1151706e-38 252 277
-0.086107947 0.73299998 -0.04755215 1.1243901e-38 253 277
-0.084822752 0.73299998 -0.04755215 1.1059154e-38 254 277
-0.083537564 0.73299998 -0.04755215 1.1151708e-38 255 277
-0.082027942 0.73100001 -0.047422405 1.124462e-38 256 277
-0.080746263 0.73100001 -0.047422405 1.1613763e-38 257 277
-0.079355866 0.73000002 -0.047357533 1.1888908e-38 258 277
-0.077862024 0.72799999 -0.047227785 1.1704158e-38 259 277
-0.076585598 0.72799999 -0.047227785 1.1150254e-38 260 277
-0.075309172 0.72799999 -0.047227785 9.2145043e-39 261 277
-0.074337825 0.73100001 -0.047422405 7.4588203e-39 262 277
-0.073056139 0.73100001 -0.047422405 5.522712e-39 263 277
-0.071970828 0.73299998 -0.04755215 3.7818033e-39 264 277
-0.070492767 0.73100001 -0.047422405 3.9658344e-39 265 277
-0.069211073 0.73100001 -0.047422405 4.7866394e-39 266 277
-0.068115242 0.73299998 -0.04755215 6.4458006e-39 267 277
-0.066647708 0.73100001 -0.047422405 9.9524743e-39 268 277
-0.0652766 0.73000002 -0.047357533 1.0413813e-38 269 277
-0.063996665 0.73000002 -0.047357533 1.142651e-38 270 277
-0.06271673 0.73000002 -0.047357533 1.2994196e-38 271 277
-0.061268479 0.72799999 -0.047227785 1.3180375e-38 272 277
-0.059992049 0.72799999 -0.047227785 1.2904148e-38 273 277
-0.058715623 0.72799999 -0.047227785 1.3361887e-38 274 277
-0.057439197 0.72799999 -0.047227785 1.4191287e-38 275 277
-0.056085624 0.727 -0.047162913 1.3548439e-38 276 277
-0.054810952 0.727 -0.047162913 1.2442091e-38 277 277
-0.053536277 0.727 -0.047162913 1.1704158e-38 278 277
-0.051974058 0.72299999 -0.046903417 1.1704158e-38 279 277
-0.050706398 0.72299999 -0.046903417 1.0778587e-38 280 277
-0.049438741 0.72299999 -0.046903417 7.7361316e-39 281 277
-0.0479712 0.72000003 -0.0467088 3.4983893e-39 282 277
-0.047227785 0.72799999 -0.047227785 3.3143581e-39 283 277
-0.045951359 0.72799999 -0.047227785 3.4112579e-39 284 277
-0.044674929 0.72799999 -0.047227785 4.148823e-39 285 277
-0.043338891 0.727 -0.047162913 4.7941896e-39 286 277
-0.041948501 0.72500002 -0.047033165 4.2413745e-39 287 277
-0.040677335 0.72500002 -0.047033165 6.1753247e-39 288 277
-0.039406165 0.72500002 -0.047033165 8.8493567e-39 289 277
-0.038135 0.72500002 -0.047033165 9.2188623e-39 290 277
-0.036762137 0.72299999 -0.046903417 9.8642317e-39 291 277
-0.035494477 0.72299999 -0.046903417 1.2074753e-38 292 277
-0.034321502 0.72500002 -0.047033165 1.2904514e-38 293 277
-0.033050332 0.72500002 -0.047033165 1.3180009e-38 294 277
-0.031779166 0.72500002 -0.047033165 1.3364401e-38 295 277
-0.030508002 0.72500002 -0.047033165 1.2996694e-38 296 277
-0.029156178 0.72299999 -0.046903417 1.2166934e-38 297 277
-0.02788852 0.72299999 -0.046903417 1.1887824e-38 298 277
-0.026620859 0.72299999 -0.046903417 1.1150259e-38 299 277
-0.025353199 0.72299999 -0.046903417 1.105554e-38 300 277
-0.024052227 0.722 -0.046838548 9.1194332e-39 301 277
-0.022786319 0.722 -0.046838548 5.4327094e-39 302 277
-0.021609833 0.72500002 -0.047033165 4.0497736e-39 303 277
-0.020338668 0.72500002 -0.047033165 3.1382668e-39 304 277
-0.0190675 0.72500002 -0.047033165 4.5212012e-39 305 277
-0.017796334 0.72500002 -0.047033165 5.9927187e-39 306 277
-0.016525166 0.72500002 -0.047033165 5.9005231e-39 307 277
-0.015296079 0.727 -0.047162913 5.7110746e-39 308 277
-0.014021406 0.727 -0.047162913 4.9735095e-39 309 277
-0.012746733 0.727 -0.047162913 4.4203386e-39 310 277
-0.01147206 0.727 -0.047162913 4.0511973e-39 311 277
-0.010197386 0.727 -0.047162913 3.6863861e-39 312 277
-0.0089227129 0.727 -0.047162913 4.1470055e-39 313 277
-0.0076480396 0.727 -0.047162913 5.0678856e-39 314 277
-0.0063382997 0.72299999 -0.046903417 5.5288637e-39 315 277
-0.0050425865 0.71899998 -0.046643924 5.254432e-39 316 277
-0.0037819401 0.71899998 -0.046643924 5.8076058e-39 317 277
-0.0025142799 0.71700001 -0.046514176 7.3724036e-39 318 277
-0.00125714 0.71700001 -0.046514176 7.0961768e-39 319 277
0 0.72000003 -0.0467088 6.8177725e-39 320 277
0.00125714 0.71700001 -0.046514176 6.2645987e-39 321 277
0.0025142799 0.71700001 -0.046514176 5.5284784e-39 322 277
0.0037714199 0.71700001 -0.046514176 5.2518915e-39 323 277
0.0050496003 0.72000003 -0.0467088 4.5146992e-39 324 277
0.0063295332 0.722 -0.046838548 4.1455565e-39 325 277
0.0075954394 0.722 -0.046838548 3.5927583e-39 326 277
0.0088613462 0.722 -0.046838548 3.0395845e-39 327 277
0.010127253 0.722 -0.046838548 2.2130679e-39 328 277
0.01139316 0.722 -0.046838548 2.7662402e-39 329 277
0.012624 0.72000003 -0.0467088 3.5034367e-39 330 277
0.0138864 0.72000003 -0.0467088 4.3328387e-39 331 277
0.0151488 0.72000003 -0.0467088 4.9756773e-39 332 277
0.0164112 0.72000003 -0.0467088 4.3303079e-39 333 277
0.017649053 0.71899998 -0.046643924 2.8573387e-39 334 277
0.018909698 0.71899998 -0.046643924 3.5027081e-39 335 277
0.020170346 0.71899998 -0.046643924 4.144137e-39 336 277
0.021371379 0.71700001 -0.046514176 4.8817021e-39 337 277
0.022596961 0.71600002 -0.046449307 4.8849391e-39 338 277
0.023852346 0.71600002 -0.046449307 5.8994511e-39 339 277
0.025248 0.72000003 -0.0467088 7.2776898e-39 340 277
0.043815799 0.71399999 -0.046319555 3.779302e-39 355 277
0.045067675 0.71399999 -0.046319555 3.781453e-39 356 277
0.046319555 0.71399999 -0.046319555 3.6892573e-39 357 277
0.047571439 0.71399999 -0.046319555 3.9629645e-39 358 277
0.048823316 0.71399999 -0.046319555 3.9629645e-39 359 277
0.050075196 0.71399999 -0.046319555 4.2388284e-39 360 277
0.05132708 0.71399999 -0.046319555 4.0547972e-39 361 277
0.052726239 0.71600002 -0.046449307 4.2381123e-39 362 277
