# .PCD v.7 - Point Cloud Data file format
FIELDS x y z rgb imX imY
SIZE 4 4 4 4 4 4
TYPE F F F F F F
COUNT 1 1 1 1 1 1
WIDTH 837
HEIGHT 1
VIEWPOINT 0 0 0 1 0 0 0
POINTS 837
DATA ascii
-0.038808275 0.71399999 -0.05132708 3.2236227e-39 289 281
-0.037556399 0.71399999 -0.05132708 4.3346393e-39 290 281
-0.036304519 0.71399999 -0.05132708 5.8097694e-39 291 281
-0.035052639 0.71399999 -0.05132708 7.7379463e-39 292 281
-0.033800758 0.71399999 -0.05132708 6.6315987e-39 293 281
-0.032503292 0.713 -0.051255193 4.6126387e-39 294 281
-0.031253166 0.713 -0.051255193 3.9672693e-39 295 281
-0.030003037 0.713 -0.051255193 3.9654813e-39 296 281
-0.028793238 0.71399999 -0.05132708 4.1502327e-39 297 281
-0.027502786 0.713 -0.051255193 4.9778409e-39 298 281
-0.026252659 0.713 -0.051255193 5.4388191e-39 299 281
-0.025002534 0.713 -0.051255193 9.3978404e-39 300 281
-0.023752406 0.713 -0.051255193 1.2256264e-38 301 281
-0.022502279 0.713 -0.051255193 9.7777744e-39 302 281
-0.0050425865 0.71899998 -0.05168651 4.0602203e-39 316 281
-0.0037503797 0.713 -0.051255193 5.9041329e-39 317 281
-0.0024897333 0.70999998 -0.051039528 8.9422502e-39 318 281
-0.00124136 0.708 -0.050895758 1.041774e-38 319 281
0 0.708 -0.050895758 1.2623942e-38 320 281
0.00124136 0.708 -0.050895758 1.1056976e-38 321 281
0.00248272 0.708 -0.050895758 9.5796729e-39 322 281
0.0037345996 0.70999998 -0.051039528 8.1045414e-39 323 281
0.0049794666 0.70999998 -0.051039528 5.899056e-39 324 281
0.0062243328 0.70999998 -0.051039528 8.5727292e-39 325 281
0.0074691991 0.70999998 -0.051039528 1.0051116e-38 326 281
0.0087140659 0.70999998 -0.051039528 1.0880877e-38 327 281
0.0099589331 0.70999998 -0.051039528 1.2534993e-38 328 281
0.01117224 0.708 -0.050895758 1.3548785e-38 329 281
0.0124136 0.708 -0.050895758 1.4008676e-38 330 281
0.013654959 0.708 -0.050895758 1.4100871e-38 331 281
0.01489632 0.708 -0.050895758 1.4008307e-38 332 281
0.01613768 0.708 -0.050895758 1.3363296e-38 333 281
0.017354494 0.70700002 -0.050823875 1.382247e-38 334 281
0.018594101 0.70700002 -0.050823875 1.2623927e-38 335 281
0.019833706 0.70700002 -0.050823875 1.0410877e-38 336 281
0.021103119 0.708 -0.050895758 8.9361069e-39 337 281
0.022344479 0.708 -0.050895758 5.9944942e-39 338 281
0.023585839 0.708 -0.050895758 7.0086475e-39 339 281
0.024897331 0.70999998 -0.051039528 8.4801833e-39 340 281
0.026179021 0.71100003 -0.051111419 8.2954333e-39 341 281
0.027425639 0.71100003 -0.051111419 7.3727441e-39 342 281
0.028752912 0.713 -0.051255193 6.358232e-39 343 281
0.030003037 0.713 -0.051255193 4.1495096e-39 344 281
0.031253166 0.713 -0.051255193 3.5041402e-39 345 281
0.040060159 0.71399999 -0.05132708 3.8693046e-39 352 281
0.041312039 0.71399999 -0.05132708 4.6990652e-39 353 281
0.042563915 0.71399999 -0.05132708 4.2406262e-39 354 281
0.043815799 0.71399999 -0.05132708 4.3328219e-39 355 281
0.045004558 0.713 -0.051255193 4.05803e-39 356 281
0.046254687 0.713 -0.051255193 3.9658344e-39 357 281
0.047571439 0.71399999 -0.05132708 4.6058186e-39 358 281
0.048823316 0.71399999 -0.05132708 4.4210686e-39 359 281
0.050215468 0.71600002 -0.051470853 4.3270807e-39 360 281
0.05132708 0.71399999 -0.05132708 4.3270807e-39 361 281
0.052578956 0.71399999 -0.05132708 3.6863861e-39 362 281
0.053981625 0.71600002 -0.051470853 3.8704172e-39 363 281
0.055314157 0.71700001 -0.051542737 3.9629673e-39 364 281
0.056571297 0.71700001 -0.051542737 3.9629673e-39 365 281
0.057828441 0.71700001 -0.051542737 3.9618911e-39 366 281
-0.061513945 0.71600002 -0.052726239 5.7157591e-39 271 282
-0.060090236 0.71399999 -0.052578956 5.4413316e-39 272 282
-0.058591139 0.71100003 -0.052358042 5.8104729e-39 273 282
-0.057344519 0.71100003 -0.052358042 6.1760282e-39 274 282
-0.056097899 0.71100003 -0.052358042 5.8998014e-39 275 282
-0.054851279 0.71100003 -0.052358042 5.349164e-39 276 282
-0.053755447 0.713 -0.052505318 5.349164e-39 277 282
-0.052505318 0.713 -0.052505318 6.6395371e-39 278 282
-0.05132708 0.71399999 -0.052578956 7.5611333e-39 279 282
-0.050075196 0.71399999 -0.052578956 6.4493585e-39 280 282
-0.048960082 0.71600002 -0.052726239 4.328859e-39 281 282
-0.04777132 0.71700001 -0.052799881 3.9600779e-39 282 282
-0.046643924 0.71899998 -0.05294716 4.144109e-39 283 282
-0.045446403 0.72000003 -0.053020801 2.7662374e-39 284 282
-0.044122629 0.71899998 -0.05294716 2.8584345e-39 285 282
-0.042742759 0.71700001 -0.052799881 3.0424754e-39 286 282
-0.041427758 0.71600002 -0.052726239 3.1350298e-39 287 282
-0.040060159 0.71399999 -0.052578956 3.7796705e-39 288 282
-0.038753927 0.713 -0.052505318 4.3324855e-39 289 282
-0.037503798 0.713 -0.052505318 5.4388191e-39 290 282
-0.036253672 0.713 -0.052505318 6.0841885e-39 291 282
-0.035003547 0.713 -0.052505318 7.0947251e-39 292 282
-0.033753417 0.713 -0.052505318 6.8181382e-39 293 282
-0.032412119 0.71100003 -0.052358042 7.0003658e-39 294 282
-0.031165501 0.71100003 -0.052358042 6.4471921e-39 295 282
-0.029918881 0.71100003 -0.052358042 4.6998107e-39 296 282
-0.028793238 0.71399999 -0.052578956 4.5154181e-39 297 282
-0.027502786 0.713 -0.052505318 4.2413689e-39 298 282
-0.026252659 0.713 -0.052505318 4.9792927e-39 299 282
-0.025002534 0.713 -0.052505318 8.0174465e-39 300 282
-0.023685781 0.71100003 -0.052358042 8.9394014e-39 301 282
-0.022439159 0.71100003 -0.052358042 8.5706203e-39 302 282
-0.0061892662 0.70599997 -0.051989835 8.2021867e-39 315 282
-0.0049514128 0.70599997 -0.051989835 9.1266485e-39 316 282
-0.0037135598 0.70599997 -0.051989835 1.014044e-38 317 282
-0.0024792133 0.70700002 -0.05206348 1.1611961e-38 318 282
-0.0012396066 0.70700002 -0.05206348 1.2534277e-38 319 282
0 0.70599997 -0.051989835 1.3087798e-38 320 282
0.0012378532 0.70599997 -0.051989835 1.2350232e-38 321 282
0.0024757064 0.70599997 -0.051989835 1.1609405e-38 322 282
0.0037135598 0.70599997 -0.051989835 9.8576877e-39 323 282
0.0049514128 0.70599997 -0.051989835 6.8199206e-39 324 282
0.0061892662 0.70599997 -0.051989835 6.727725e-39 325 282
0.0074271196 0.70599997 -0.051989835 7.0111811e-39 326 282
0.008677247 0.70700002 -0.05206348 9.1320393e-39 327 282
0.0099168532 0.70700002 -0.05206348 1.1430813e-38 328 282
0.011156459 0.70700002 -0.05206348 1.2444965e-38 329 282
0.012396066 0.70700002 -0.05206348 1.3364028e-38 330 282
0.013635674 0.70700002 -0.05206348 1.2995245e-38 331 282
0.01487528 0.70700002 -0.05206348 1.2900883e-38 332 282
0.016114887 0.70700002 -0.05206348 1.234771e-38 333 282
0.017354494 0.70700002 -0.05206348 1.225622e-38 334 282
0.018567799 0.70599997 -0.051989835 1.1610851e-38 335 282
0.019805651 0.70599997 -0.051989835 9.860224e-39 336 282
0.021073313 0.70700002 -0.05206348 8.5694852e-39 337 282
0.022312919 0.70700002 -0.05206348 6.3589649e-39 338 282
0.023552528 0.70700002 -0.05206348 5.8057911e-39 339 282
0.024827199 0.708 -0.052137118 5.6217656e-39 340 282
0.026142199 0.70999998 -0.052284397 4.9763962e-39 341 282
0.027425639 0.71100003 -0.052358042 3.4155571e-39 342 282
0.028672259 0.71100003 -0.052358042 3.8765353e-39 343 282
0.029918881 0.71100003 -0.052358042 3.6925294e-39 344 282
0.031165501 0.71100003 -0.052358042 4.2457031e-39 345 282
0.040004052 0.713 -0.052505318 5.3354355e-39 352 282
0.041254178 0.713 -0.052505318 6.6261743e-39 353 282
0.042504307 0.713 -0.052505318 4.8834747e-39 354 282
0.043815799 0.71399999 -0.052578956 4.7912791e-39 355 282
0.045004558 0.713 -0.052505318 4.514702e-39 356 282
0.046254687 0.713 -0.052505318 4.329952e-39 357 282
0.047571439 0.71399999 -0.052578956 4.3278024e-39 358 282
0.048823316 0.71399999 -0.052578956 4.3278024e-39 359 282
0.050215468 0.71600002 -0.052726239 3.7771468e-39 360 282
0.051470853 0.71600002 -0.052726239 3.8693424e-39 361 282
0.052726239 0.71600002 -0.052726239 3.6871049e-39 362 282
0.053981625 0.71600002 -0.052726239 3.6871049e-39 363 282
0.055314157 0.71700001 -0.052799881 4.054091e-39 364 282
0.056571297 0.71700001 -0.052799881 3.8696983e-39 365 282
-0.062769331 0.71600002 -0.053981625 5.5324609e-39 270 283
-0.061342116 0.71399999 -0.053830836 5.5324609e-39 271 283
-0.060006075 0.713 -0.053755447 5.1651203e-39 272 283
-0.058591139 0.71100003 -0.053604662 5.1651203e-39 273 283
-0.057344519 0.71100003 -0.053604662 5.2551635e-39 274 283
-0.056097899 0.71100003 -0.053604662 4.9789368e-39 275 283
-0.054851279 0.71100003 -0.053604662 4.7023429e-39 276 283
-0.053604662 0.71100003 -0.053604662 3.6885511e-39 277 283
-0.052358042 0.71100003 -0.053604662 3.4137592e-39 278 283
-0.05132708 0.71399999 -0.053830836 4.8888893e-39 279 283
-0.050075196 0.71399999 -0.053830836 7.741549e-39 280 283
-0.048960082 0.71600002 -0.053981625 7.0036253e-39 281 283
-0.04777132 0.71700001 -0.054057021 4.6040166e-39 282 283
-0.046643924 0.71899998 -0.054207806 4.1430398e-39 283 283
-0.043999899 0.71700001 -0.054057021 4.2374032e-39 285 283
-0.042683143 0.71600002 -0.053981625 3.6896231e-39 286 283
-0.041427758 0.71600002 -0.053981625 4.2427968e-39 287 283
-0.040060159 0.71399999 -0.053830836 4.7956119e-39 288 283
-0.038645219 0.71100003 -0.053604662 5.4409813e-39 289 283
-0.037398599 0.71100003 -0.053604662 6.7284859e-39 290 283
-0.036101133 0.70999998 -0.053529263 7.7422777e-39 291 283
-0.034856264 0.70999998 -0.053529263 7.925227e-39 292 283
-0.033611398 0.70999998 -0.053529263 7.0958265e-39 293 283
-0.032366529 0.70999998 -0.053529263 7.4620881e-39 294 283
-0.031121666 0.70999998 -0.053529263 7.5542837e-39 295 283
-0.029876797 0.70999998 -0.053529263 5.3448298e-39 296 283
-0.028631933 0.70999998 -0.053529263 4.4228721e-39 297 283
-0.027425639 0.71100003 -0.053604662 4.3310492e-39 298 283
-0.026179021 0.71100003 -0.053604662 4.7920274e-39 299 283
-0.024932399 0.71100003 -0.053604662 5.7129075e-39 300 283
-0.023685781 0.71100003 -0.053604662 5.9894958e-39 301 283
-0.022439159 0.71100003 -0.053604662 5.9884027e-39 302 283
-0.021162732 0.70999998 -0.053529263 4.8820552e-39 303 283
-0.019917866 0.70999998 -0.053529263 4.2374088e-39 304 283
-0.017329946 0.70599997 -0.053227689 2.1172947e-39 306 283
-0.016092092 0.70599997 -0.053227689 2.1172947e-39 307 283
-0.013519952 0.70099998 -0.052850723 7.4574162e-39 309 283
-0.012290866 0.70099998 -0.052850723 5.9836916e-39 310 283
-0.011061779 0.70099998 -0.052850723 4.4163673e-39 311 283
-0.0074060797 0.704 -0.053076904 1.0231923e-38 314 283
-0.0061717331 0.704 -0.053076904 1.262865e-38 315 283
-0.0049373866 0.704 -0.053076904 1.2904146e-38 316 283
-0.0037030398 0.704 -0.053076904 1.281195e-38 317 283
-0.0024757064 0.70599997 -0.053227689 1.345587e-38 318 283
-0.0012378532 0.70599997 -0.053227689 1.4009044e-38 319 283
0 0.704 -0.053076904 1.3367625e-38 320 283
0.0012343467 0.704 -0.053076904 1.3183234e-38 321 283
0.0024686933 0.704 -0.053076904 1.2993082e-38 322 283
0.0037030398 0.704 -0.053076904 1.1702343e-38 323 283
0.0049373866 0.704 -0.053076904 9.3066943e-39 324 283
0.0061717331 0.704 -0.053076904 6.0802074e-39 325 283
0.0074060797 0.704 -0.053076904 3.6013777e-39 326 283
0.0086649731 0.70599997 -0.053227689 7.1044515e-39 327 283
0.0099028256 0.70599997 -0.053227689 9.4972289e-39 328 283
0.011140679 0.70599997 -0.053227689 1.115639e-38 329 283
0.012378532 0.70599997 -0.053227689 1.2165482e-38 330 283
0.013635674 0.70700002 -0.053303085 1.115169e-38 331 283
0.01487528 0.70700002 -0.053303085 1.1056599e-38 332 283
0.016114887 0.70700002 -0.053303085 1.041123e-38 333 283
0.017354494 0.70700002 -0.053303085 9.2144861e-39 334 283
0.018567799 0.70599997 -0.053227689 8.3847254e-39 335 283
0.019805651 0.70599997 -0.053227689 8.0134416e-39 336 283
0.021073313 0.70700002 -0.053303085 7.6450178e-39 337 283
0.022312919 0.70700002 -0.053303085 5.9912544e-39 338 283
0.023552528 0.70700002 -0.053303085 4.4235699e-39 339 283
0.024827199 0.708 -0.053378478 3.5905905e-39 340 283
0.026142199 0.70999998 -0.053529263 3.5905905e-39 341 283
0.027387066 0.70999998 -0.053529263 2.6780047e-39 342 283
0.028631933 0.70999998 -0.053529263 5.9048517e-39 343 283
0.029876797 0.70999998 -0.053529263 1.0880161e-38 344 283
0.031165501 0.71100003 -0.053604662 1.4660181e-38 345 283
0.040004052 0.713 -0.053755447 6.1627145e-39 352 283
0.041254178 0.713 -0.053755447 6.531497e-39 353 283
0.042504307 0.713 -0.053755447 4.5154209e-39 354 283
0.043815799 0.71399999 -0.053830836 4.3306709e-39 355 283
0.045004558 0.713 -0.053755447 4.3295989e-39 356 283
0.046254687 0.713 -0.053755447 4.1452062e-39 357 283
0.047571439 0.71399999 -0.053830836 4.3277996e-39 358 283
0.048823316 0.71399999 -0.053830836 4.420354e-39 359 283
0.050215468 0.71600002 -0.053981625 3.8704172e-39 360 283
0.051470853 0.71600002 -0.053981625 3.9626142e-39 361 283
0.052726239 0.71600002 -0.053981625 3.778946e-39 362 283
0.053981625 0.71600002 -0.053981625 3.686749e-39 363 283
0.055237014 0.71600002 -0.053981625 4.0537379e-39 364 283
-0.061342116 0.71399999 -0.05508272 5.0725575e-39 271 284
-0.060006075 0.713 -0.055005573 4.8867411e-39 272 284
-0.058508728 0.70999998 -0.054774132 4.3335673e-39 273 284
-0.057263866 0.70999998 -0.054774132 3.6878476e-39 274 284
-0.056018997 0.70999998 -0.054774132 3.595652e-39 275 284
-0.054774132 0.70999998 -0.054774132 3.3183392e-39 276 284
-0.053604662 0.71100003 -0.054851279 2.8573625e-39 277 284
-0.052358042 0.71100003 -0.054851279 3.0417495e-39 278 284
-0.043999899 0.71700001 -0.055314157 4.5161341e-39 285 284
-0.042683143 0.71600002 -0.055237014 4.4257434e-39 286 284
-0.041427758 0.71600002 -0.055237014 4.7945259e-39 287 284
-0.040060159 0.71399999 -0.05508272 6.4526193e-39 288 284
-0.038645219 0.71100003 -0.054851279 9.1266513e-39 289 284
-0.037345998 0.70999998 -0.054774132 9.8613325e-39 290 284
-0.036101133 0.70999998 -0.054774132 1.0230475e-38 291 284
-0.034758076 0.708 -0.054619838 1.0046433e-38 292 284
-0.033516716 0.708 -0.054619838 7.9255746e-39 293 284
-0.03227536 0.708 -0.054619838 7.4628013e-39 294 284
-0.031034 0.708 -0.054619838 7.739747e-39 295 284
-0.02979264 0.708 -0.054619838 6.2667791e-39 296 284
-0.02855128 0.708 -0.054619838 4.6998135e-39 297 284
-0.027425639 0.71100003 -0.054851279 3.6849511e-39 298 284
-0.026179021 0.71100003 -0.054851279 3.9618968e-39 299 284
-0.024932399 0.71100003 -0.054851279 4.4218001e-39 300 284
-0.023652466 0.70999998 -0.054774132 4.5139957e-39 301 284
-0.022407599 0.70999998 -0.054774132 4.4192792e-39 302 284
-0.021162732 0.70999998 -0.054774132 3.6817141e-39 303 284
-0.019805651 0.70599997 -0.054465543 2.950986e-39 304 284
-0.018567799 0.70599997 -0.054465543 4.2417248e-39 305 284
-0.017329946 0.70599997 -0.054465543 4.889625e-39 306 284
-0.016023712 0.70300001 -0.054234106 5.81194e-39 307 284
-0.014791119 0.70300001 -0.054234106 1.0043563e-38 308 284
-0.013519952 0.70099998 -0.054079808 1.0596737e-38 309 284
-0.012290866 0.70099998 -0.054079808 1.0315439e-38 310 284
-0.011061779 0.70099998 -0.054079808 7.4573741e-39 311 284
-0.0098326923 0.70099998 -0.054079808 3.7810746e-39 312 284
-0.0086404262 0.704 -0.054311249 6.0859653e-39 313 284
-0.0074060797 0.704 -0.054311249 9.1280834e-39 314 284
-0.0061717331 0.704 -0.054311249 1.1248942e-38 315 284
-0.0049373866 0.704 -0.054311249 1.2259495e-38 316 284
-0.0037030398 0.704 -0.054311249 1.2259495e-38 317 284
-0.0024686933 0.704 -0.054311249 1.3550218e-38 318 284
-0.0012343467 0.704 -0.054311249 1.3919e-38 319 284
0 0.704 -0.054311249 1.3460893e-38 320 284
0.0012325933 0.70300001 -0.054234106 1.3276501e-38 321 284
0.0024651866 0.70300001 -0.054234106 1.2995599e-38 322 284
0.0036977797 0.70300001 -0.054234106 1.2719012e-38 323 284
0.0049303733 0.70300001 -0.054234106 1.2253717e-38 324 284
0.0061629666 0.70300001 -0.054234106 8.9346748e-39 325 284
0.0073955595 0.70300001 -0.054234106 4.6112066e-39 326 284
0.0086404262 0.704 -0.054311249 5.3487717e-39 327 284
0.0099028256 0.70599997 -0.054465543 6.8246248e-39 328 284
0.011140679 0.70599997 -0.054465543 8.2075592e-39 329 284
0.012378532 0.70599997 -0.054465543 9.0304676e-39 330 284
0.013616386 0.70599997 -0.054465543 7.9237599e-39 331 284
0.014854239 0.70599997 -0.054465543 7.1843802e-39 332 284
0.016114887 0.70700002 -0.054542694 5.6174146e-39 333 284
0.017329946 0.70599997 -0.054465543 2.6714802e-39 334 284
0.018567799 0.70599997 -0.054465543 2.1183149e-39 335 284
0.019805651 0.70599997 -0.054465543 2.6743795e-39 336 284
0.021043506 0.70599997 -0.054465543 5.9012266e-39 337 284
0.022312919 0.70700002 -0.054542694 8.7600086e-39 338 284
0.023552528 0.70700002 -0.054542694 1.0511724e-38 339 284
0.024827199 0.708 -0.054619838 1.2627186e-38 340 284
0.026068559 0.708 -0.054619838 1.4102675e-38 341 284
0.027387066 0.70999998 -0.054774132 1.6036632e-38 342 284
0.028631933 0.70999998 -0.054774132 1.843336e-38 343 284
0.029876797 0.70999998 -0.054774132 2.1013025e-38 344 284
0.038590867 0.70999998 -0.054774132 1.3172428e-38 351 284
0.039835732 0.70999998 -0.054774132 4.8777364e-39 352 284
0.041138459 0.71100003 -0.054851279 4.7855408e-39 353 284
0.042504307 0.713 -0.055005573 4.5132671e-39 354 284
0.043815799 0.71399999 -0.05508272 4.2370389e-39 355 284
0.045067675 0.71399999 -0.05508272 4.0530106e-39 356 284
0.046319555 0.71399999 -0.05508272 4.0530106e-39 357 284
0.047571439 0.71399999 -0.05508272 3.8704172e-39 358 284
0.048960082 0.71600002 -0.055237014 3.8704172e-39 359 284
0.050215468 0.71600002 -0.055237014 3.7792992e-39 360 284
0.051470853 0.71600002 -0.055237014 3.6871021e-39 361 284
0.052726239 0.71600002 -0.055237014 3.686749e-39 362 284
0.053981625 0.71600002 -0.055237014 3.5945534e-39 363 284
0.055237014 0.71600002 -0.055237014 4.0551784e-39 364 284
-0.060006075 0.713 -0.056255698 4.6072802e-39 272 285
-0.058508728 0.70999998 -0.056018997 3.6856826e-39 273 285
-0.057263866 0.70999998 -0.056018997 3.5016543e-39 274 285
-0.056018997 0.70999998 -0.056018997 3.5938499e-39 275 285
-0.054774132 0.70999998 -0.056018997 3.3186924e-39 276 285
-0.053604662 0.71100003 -0.056097899 3.5030836e-39 277 285
-0.042325463 0.70999998 -0.056018997 4.9756928e-39 286 285
-0.041080594 0.70999998 -0.056018997 5.3444767e-39 287 285
-0.039835732 0.70999998 -0.056018997 6.9132457e-39 288 285
-0.038590867 0.70999998 -0.056018997 1.0601071e-38 289 285
-0.037345998 0.70999998 -0.056018997 1.1797781e-38 290 285
-0.035948593 0.70700002 -0.055782299 1.1428999e-38 291 285
-0.034708988 0.70700002 -0.055782299 9.8623862e-39 292 285
-0.033469379 0.70700002 -0.055782299 7.926278e-39 293 285
-0.032229774 0.70700002 -0.055782299 6.0852675e-39 294 285
-0.030858666 0.704 -0.055545598 6.0852675e-39 295 285
-0.029624319 0.704 -0.055545598 6.1742135e-39 296 285
-0.028389972 0.704 -0.055545598 5.3444529e-39 297 285
-0.027425639 0.71100003 -0.056097899 4.144109e-39 298 285
-0.026179021 0.71100003 -0.056097899 3.5912939e-39 299 285
-0.024932399 0.71100003 -0.056097899 3.0388657e-39 300 285
-0.023452586 0.704 -0.055545598 3.0388657e-39 301 285
-0.02218668 0.70300001 -0.0554667 3.4973383e-39 302 285
-0.020954086 0.70300001 -0.0554667 4.6962416e-39 303 285
-0.019721493 0.70300001 -0.0554667 5.7157759e-39 304 285
-0.018488899 0.70300001 -0.0554667 7.7440798e-39 305 285
-0.017280852 0.704 -0.055545598 9.8631317e-39 306 285
-0.016023712 0.70300001 -0.0554667 1.1061674e-38 307 285
-0.014791119 0.70300001 -0.0554667 1.2533541e-38 308 285
-0.013519952 0.70099998 -0.055308893 1.2718293e-38 309 285
-0.012290866 0.70099998 -0.055308893 1.2714673e-38 310 285
-0.011061779 0.70099998 -0.055308893 1.0594174e-38 311 285
-0.0098326923 0.70099998 -0.055308893 7.1872514e-39 312 285
-0.0086404262 0.704 -0.055545598 6.6340776e-39 313 285
-0.0073955595 0.70300001 -0.0554667 6.4561926e-39 314 285
-0.0061629666 0.70300001 -0.0554667 9.4064528e-39 315 285
-0.0049373866 0.704 -0.055545598 1.1062754e-38 316 285
-0.0037030398 0.704 -0.055545598 1.1615928e-38 317 285
-0.0024686933 0.704 -0.055545598 1.3181079e-38 318 285
-0.0012343467 0.704 -0.055545598 1.4011198e-38 319 285
0 0.70300001 -0.0554667 1.3551644e-38 320 285
0.0012325933 0.70300001 -0.0554667 1.299847e-38 321 285
0.0024651866 0.70300001 -0.0554667 1.2811558e-38 322 285
0.0036977797 0.70300001 -0.0554667 1.2443135e-38 323 285
0.0049303733 0.70300001 -0.0554667 1.2440274e-38 324 285
0.0061629666 0.70300001 -0.0554667 9.5822092e-39 325 285
0.0073955595 0.70300001 -0.0554667 7.3724064e-39 326 285
0.0086281532 0.70300001 -0.0554667 5.9894719e-39 327 285
0.0098747732 0.704 -0.055545598 4.7941531e-39 328 285
0.011109119 0.704 -0.055545598 6.2692832e-39 329 285
0.012343466 0.704 -0.055545598 5.8068631e-39 330 285
0.013616386 0.70599997 -0.055703394 3.6860049e-39 331 285
0.014854239 0.70599997 -0.055703394 9.2448004e-40 332 285
0.016092092 0.70599997 -0.055703394 0 333 285
0.017329946 0.70599997 -0.055703394 2.4795878e-39 334 285
0.018515198 0.704 -0.055545598 4.5965e-39 335 285
0.019749546 0.704 -0.055545598 8.1942777e-39 336 285
0.021043506 0.70599997 -0.055703394 1.2711864e-38 337 285
0.022407599 0.70999998 -0.056018997 1.5574572e-38 338 285
0.023652466 0.70999998 -0.056018997 1.815605e-38 339 285
0.024792133 0.70700002 -0.055782299 2.1010842e-38 340 285
0.02603174 0.70700002 -0.055782299 2.2301581e-38 341 285
0.037345998 0.70999998 -0.056018997 1.6211981e-38 350 285
0.038590867 0.70999998 -0.056018997 1.0403656e-38 351 285
0.039835732 0.70999998 -0.056018997 4.050491e-39 352 285
0.041138459 0.71100003 -0.056097899 4.6036634e-39 353 285
0.042385083 0.71100003 -0.056097899 4.5121979e-39 354 285
0.043754432 0.713 -0.056255698 4.3278052e-39 355 285
0.045067675 0.71399999 -0.0563346 3.8700514e-39 356 285
0.046319555 0.71399999 -0.0563346 3.9622471e-39 357 285
0.047704693 0.71600002 -0.056492399 3.8707703e-39 358 285
0.04902846 0.71700001 -0.056571297 3.8707703e-39 359 285
0.050425861 0.71899998 -0.056729097 3.6871049e-39 360 285
0.05168651 0.71899998 -0.056729097 3.6871049e-39 361 285
0.05294716 0.71899998 -0.056729097 3.8714976e-39 362 285
0.054207806 0.71899998 -0.056729097 4.1477243e-39 363 285
-0.058591139 0.71100003 -0.057344519 4.0544595e-39 273 286
-0.057263866 0.70999998 -0.057263866 3.7814628e-39 274 286
-0.056018997 0.70999998 -0.057263866 3.8740171e-39 275 286
-0.054774132 0.70999998 -0.057263866 5.1622336e-39 276 286
-0.039835732 0.70999998 -0.057263866 5.1626021e-39 288 286
-0.038590867 0.70999998 -0.057263866 6.0849172e-39 289 286
-0.037345998 0.70999998 -0.057263866 6.8174319e-39 290 286
-0.035948593 0.70700002 -0.057021905 6.1720625e-39 291 286
-0.034708988 0.70700002 -0.057021905 4.607964e-39 292 286
-0.033137999 0.69999999 -0.056457333 3.870399e-39 293 286
-0.031910665 0.69999999 -0.056457333 3.4098062e-39 294 286
-0.030683333 0.69999999 -0.056457333 3.0413824e-39 295 286
-0.029455997 0.69999999 -0.056457333 4.5129139e-39 296 286
-0.028389972 0.704 -0.056779943 7.1865872e-39 297 286
-0.027155625 0.704 -0.056779943 8.0137947e-39 298 286
-0.025626717 0.69599998 -0.056134716 5.8007395e-39 299 286
-0.024546666 0.69999999 -0.056457333 3.0409886e-39 300 286
-0.023319334 0.69999999 -0.056457333 2.948793e-39 301 286
-0.02202888 0.69800001 -0.056296028 5.9883999e-39 302 286
-0.020805053 0.69800001 -0.056296028 1.0782573e-38 303 286
-0.019665385 0.70099998 -0.056537982 1.1523731e-38 304 286
-0.018436298 0.70099998 -0.056537982 1.1984709e-38 305 286
-0.017207211 0.70099998 -0.056537982 1.2902697e-38 306 286
-0.015978126 0.70099998 -0.056537982 1.3179644e-38 307 286
-0.014749039 0.70099998 -0.056537982 1.3733874e-38 308 286
-0.013500666 0.69999999 -0.056457333 1.2995949e-38 309 286
-0.012273333 0.69999999 -0.056457333 1.2901585e-38 310 286
-0.011045999 0.69999999 -0.056457333 1.2624999e-38 311 286
-0.0098186666 0.69999999 -0.056457333 1.1239546e-38 312 286
-0.0085913334 0.69999999 -0.056457333 8.3814828e-39 313 286
-0.0073955595 0.70300001 -0.056699295 5.349122e-39 314 286
-0.0061629666 0.70300001 -0.056699295 5.9022958e-39 315 286
-0.0049303733 0.70300001 -0.056699295 8.0256945e-39 316 286
-0.0036977797 0.70300001 -0.056699295 9.7770528e-39 317 286
-0.0024686933 0.704 -0.056779943 1.2349526e-38 318 286
-0.0012343467 0.704 -0.056779943 1.2165134e-38 319 286
0 0.70099998 -0.056537982 1.1795613e-38 320 286
0.0012290865 0.70099998 -0.056537982 1.1150244e-38 321 286
0.0024581731 0.70099998 -0.056537982 1.0137519e-38 322 286
0.0036872597 0.70099998 -0.056537982 9.2152021e-39 323 286
0.0049163462 0.70099998 -0.056537982 7.9259151e-39 324 286
0.0061454331 0.70099998 -0.056537982 6.5429806e-39 325 286
0.0073745195 0.70099998 -0.056537982 5.3451801e-39 326 286
0.0086036054 0.70099998 -0.056537982 3.3168749e-39 327 286
0.0098607466 0.70300001 -0.056699295 1.28642e-39 328 286
0.011109119 0.704 -0.056779943 0 329 286
0.012343466 0.704 -0.056779943 2.8698593e-42 330 286
0.013577812 0.704 -0.056779943 2.4031974e-39 331 286
0.014812159 0.704 -0.056779943 6.4634009e-39 332 286
0.016092092 0.70599997 -0.056941248 1.1073182e-38 333 286
0.017329946 0.70599997 -0.056941248 1.7236973e-38 334 286
0.018515198 0.704 -0.056779943 1.9449308e-38 335 286
0.019749546 0.704 -0.056779943 2.2300527e-38 336 286
0.024792133 0.70700002 -0.057021905 2.3503713e-38 340 286
0.02603174 0.70700002 -0.057021905 2.3501552e-38 341 286
0.037345998 0.70999998 -0.057263866 9.1835496e-41 350 286
0.038590867 0.70999998 -0.057263866 6.4392467e-40 351 286
0.039835732 0.70999998 -0.057263866 3.4976886e-39 352 286
0.041138459 0.71100003 -0.057344519 4.4196449e-39 353 286
0.042385083 0.71100003 -0.057344519 3.685677e-39 354 286
0.043754432 0.713 -0.057505824 3.685677e-39 355 286
0.045067675 0.71399999 -0.057586476 3.6870993e-39 356 286
0.046319555 0.71399999 -0.057586476 3.6870993e-39 357 286
0.04777132 0.71700001 -0.057828441 3.8704144e-39 358 286
0.049165215 0.71899998 -0.057989739 3.8704144e-39 359 286
0.050496001 0.72000003 -0.058070403 3.7771468e-39 360 286
0.051902171 0.722 -0.058231708 3.9618968e-39 361 286
0.053536277 0.727 -0.058634974 4.148453e-39 362 286
-0.038601387 0.68800002 -0.056695789 3.5960051e-39 288 287
-0.037395094 0.68800002 -0.056695789 4.2413745e-39 289 287
-0.0367148 0.69800001 -0.057519849 3.9644149e-39 290 287
-0.035490975 0.69800001 -0.057519849 2.8580673e-39 291 287
-0.034267146 0.69800001 -0.057519849 2.2152161e-39 292 287
-0.033043321 0.69800001 -0.057519849 1.9386292e-39 293 287
-0.031819493 0.69800001 -0.057519849 2.2134336e-39 294 287
-0.030551834 0.69700003 -0.05743745 3.0431943e-39 295 287
-0.029287677 0.69599998 -0.057355035 5.440631e-39 296 287
-0.028067358 0.69599998 -0.057355035 8.2990542e-39 297 287
-0.026847038 0.69599998 -0.057355035 1.1333907e-38 298 287
-0.025626717 0.69599998 -0.057355035 9.3977983e-39 299 287
-0.024441468 0.69700003 -0.05743745 6.9063331e-39 300 287
-0.023219392 0.69700003 -0.05743745 5.3390144e-39 301 287
-0.02199732 0.69700003 -0.05743745 5.2580025e-39 302 287
-0.020775247 0.69700003 -0.05743745 1.0052175e-38 303 287
-0.019581227 0.69800001 -0.057519849 1.1708479e-38 304 287
-0.0183574 0.69800001 -0.057519849 1.2076902e-38 305 287
-0.017133573 0.69800001 -0.057519849 1.2351303e-38 306 287
-0.015909746 0.69800001 -0.057519849 1.2720444e-38 307 287
-0.014727999 0.69999999 -0.05768466 1.2998454e-38 308 287
-0.013462093 0.69800001 -0.057519849 1.2906259e-38 309 287
-0.012238266 0.69800001 -0.057519849 1.3087056e-38 310 287
-0.01099866 0.69700003 -0.05743745 1.3087056e-38 311 287
-0.0097765867 0.69700003 -0.05743745 1.3637721e-38 312 287
-0.0085667865 0.69800001 -0.057519849 1.1056243e-38 313 287
-0.0073639993 0.69999999 -0.05768466 8.474047e-39 314 287
-0.0061454331 0.70099998 -0.057767071 7.0911125e-39 315 287
-0.0049303733 0.70300001 -0.057931885 6.2721545e-39 316 287
-0.0036977797 0.70300001 -0.057931885 8.392654e-39 317 287
-0.0024651866 0.70300001 -0.057931885 9.7712752e-39 318 287
-0.0012325933 0.70300001 -0.057931885 9.6787208e-39 319 287
0 0.70099998 -0.057767071 9.3985298e-39 320 287
0.0012273333 0.69999999 -0.05768466 8.0155954e-39 321 287
0.0024546667 0.69999999 -0.05768466 6.3585852e-39 322 287
0.0036819996 0.69999999 -0.05768466 5.1600434e-39 323 287
0.0049093333 0.69999999 -0.05768466 2.9534593e-39 324 287
0.0061366665 0.69999999 -0.05768466 2.0318618e-39 325 287
0.0073639993 0.69999999 -0.05768466 1.2053577e-39 326 287
0.0086036054 0.70099998 -0.057767071 3.4180528e-39 327 287
0.0098607466 0.70300001 -0.057931885 7.916602e-39 328 287
0.01109334 0.70300001 -0.057931885 9.6679603e-39 329 287
0.012325933 0.70300001 -0.057931885 1.2983043e-38 330 287
0.013577812 0.704 -0.058014292 1.6302086e-38 331 287
0.014812159 0.704 -0.058014292 1.8521944e-38 332 287
0.016092092 0.70599997 -0.058179103 2.138001e-38 333 287
0.017329946 0.70599997 -0.058179103 2.3500846e-38 334 287
0.018567799 0.70599997 -0.058179103 2.3503727e-38 335 287
0.036101133 0.70999998 -0.058508728 9.1835496e-41 349 287
0.0372408 0.708 -0.058343921 1.4708169e-39 350 287
0.038482159 0.708 -0.058343921 3.2221751e-39 351 287
0.039835732 0.70999998 -0.058508728 3.5034395e-39 352 287
0.041080594 0.70999998 -0.058508728 3.5034395e-39 353 287
0.042385083 0.71100003 -0.058591139 3.8704144e-39 354 287
0.043631699 0.71100003 -0.058591139 3.9626114e-39 355 287
0.04563576 0.72299999 -0.059580017 3.8707703e-39 356 287
0.046838548 0.722 -0.059497613 3.6863805e-39 357 287
0.048104454 0.722 -0.059497613 3.6863861e-39 358 287
0.04937036 0.722 -0.059497613 3.6863861e-39 359 287
0.050706398 0.72299999 -0.059580017 3.5938345e-39 360 287
0.052117832 0.72500002 -0.059744831 4.5154307e-39 361 287
-0.04846213 0.69099998 -0.058154557 1.0323024e-38 280 288
-0.047182199 0.69 -0.058070395 8.2025244e-39 281 288
-0.045839146 0.68800002 -0.057902083 6.3589747e-39 282 288
-0.044567976 0.68699998 -0.057817914 6.082748e-39 283 288
-0.043363437 0.68699998 -0.057817914 5.7136081e-39 284 288
-0.042158898 0.68699998 -0.057817914 5.6214125e-39 285 288
-0.039807681 0.68800002 -0.057902083 3.1342857e-39 287 288
-0.038601387 0.68800002 -0.057902083 2.5793224e-39 288 288
-0.037395094 0.68800002 -0.057902083 3.0406607e-39 289 288
-0.036451802 0.69300002 -0.058322877 3.2254219e-39 290 288
-0.035490975 0.69800001 -0.058743682 4.2395725e-39 291 288
-0.034267146 0.69800001 -0.058743682 5.7197262e-39 292 288
-0.03299598 0.69700003 -0.05865952 7.6558344e-39 293 288
-0.031728316 0.69599998 -0.058575355 9.5886958e-39 294 288
-0.030420333 0.69400001 -0.058407038 1.0695402e-38 295 288
-0.029203519 0.69400001 -0.058407038 1.1525153e-38 296 288
-0.027986705 0.69400001 -0.058407038 1.1986491e-38 297 288
-0.02673132 0.69300002 -0.058322877 1.3087068e-38 298 288
-0.02551626 0.69300002 -0.058322877 1.1980722e-38 299 288
-0.024301201 0.69300002 -0.058322877 1.0592003e-38 300 288
-0.02308614 0.69300002 -0.058322877 7.2729604e-39 301 288
-0.021902639 0.69400001 -0.058407038 4.8888515e-39 302 288
-0.020685827 0.69400001 -0.058407038 7.4703277e-39 303 288
-0.019553173 0.69700003 -0.05865952 9.2220839e-39 304 288
-0.018331099 0.69700003 -0.05865952 1.078941e-38 305 288
-0.017109027 0.69700003 -0.05865952 1.1707749e-38 306 288
-0.015886955 0.69700003 -0.05865952 1.2353119e-38 307 288
-0.01468592 0.69800001 -0.058743682 1.3273262e-38 308 288
-0.013462093 0.69800001 -0.058743682 1.3642044e-38 309 288
-0.012220734 0.69700003 -0.05865952 1.3089218e-38 310 288
-0.010982879 0.69599998 -0.058575355 1.2720794e-38 311 288
-0.0097625591 0.69599998 -0.058575355 1.3452608e-38 312 288
-0.0085545136 0.69700003 -0.05865952 1.2623208e-38 313 288
-0.0073429602 0.69800001 -0.058743682 1.0777143e-38 314 288
-0.0061454331 0.70099998 -0.058996156 8.6566432e-39 315 288
-0.0049163462 0.70099998 -0.058996156 5.6231921e-39 316 288
-0.0036977797 0.70300001 -0.059164476 5.1618539e-39 317 288
-0.0024651866 0.70300001 -0.059164476 4.4304125e-39 318 288
-0.0012290865 0.70099998 -0.058996156 3.6002931e-39 319 288
0 0.69999999 -0.058911994 2.575347e-39 320 288
0.0012273333 0.69999999 -0.058911994 4.5917748e-40 321 288
0.0024546667 0.69999999 -0.058911994 0 322 288
0.0036819996 0.69999999 -0.058911994 0 323 288
0.0049093333 0.69999999 -0.058911994 1.7463276e-39 324 288
0.0061366665 0.69999999 -0.058911994 6.9092828e-39 325 288
0.0073639993 0.69999999 -0.058911994 1.2081571e-38 326 288
0.0085913334 0.69999999 -0.058911994 1.7060135e-38 327 288
0.0098326923 0.70099998 -0.058996156 2.1936051e-38 328 288
0.011061779 0.70099998 -0.058996156 2.3505898e-38 329 288
0.012290866 0.70099998 -0.058996156 2.3509849e-38 330 288
0.013519952 0.70099998 -0.058996156 2.3509855e-38 331 288
0.014812159 0.704 -0.059248637 2.3509848e-38 332 288
0.016046507 0.704 -0.059248637 2.3509842e-38 333 288
0.017280852 0.704 -0.059248637 2.3507666e-38 334 288
0.018515198 0.704 -0.059248637 2.3501185e-38 335 288
0.036101133 0.70999998 -0.059753593 4.0551462e-39 349 288
0.0372408 0.708 -0.059585281 4.2377564e-39 350 288
0.038482159 0.708 -0.059585281 4.2377564e-39 351 288
0.039723519 0.708 -0.059585281 3.8707675e-39 352 288
0.041080594 0.70999998 -0.059753593 3.8707675e-39 353 288
0.042325463 0.70999998 -0.059753593 3.8700486e-39 354 288
0.043570329 0.70999998 -0.059753593 3.8700486e-39 355 288
-0.04846213 0.69099998 -0.059366114 6.7295397e-39 280 289
-0.047182199 0.69 -0.059280202 5.6231921e-39 281 289
-0.045839146 0.68800002 -0.059108373 4.5168642e-39 282 289
-0.044567976 0.68699998 -0.059022456 3.8714948e-39 283 289
-0.043363437 0.68699998 -0.059022456 3.6871161e-39 284 289
-0.042158898 0.68699998 -0.059022456 5.2548006e-39 285 289
-0.041013971 0.68800002 -0.059108373 7.2802051e-39 286 289
-0.039807681 0.68800002 -0.059108373 6.358609e-39 287 289
-0.038601387 0.68800002 -0.059108373 5.3487717e-39 288 289
-0.037395094 0.68800002 -0.059108373 6.2707294e-39 289 289
-0.036451802 0.69300002 -0.05953794 7.3756504e-39 290 289
-0.035236739 0.69300002 -0.05953794 8.3898023e-39 291 289
-0.034021679 0.69300002 -0.05953794 1.0230828e-38 292 289
-0.03280662 0.69300002 -0.05953794 1.0968393e-38 293 289
-0.031591557 0.69300002 -0.05953794 1.1797425e-38 294 289
-0.030288832 0.69099998 -0.059366114 1.2074371e-38 295 289
-0.029077278 0.69099998 -0.059366114 1.2443498e-38 296 289
-0.027946379 0.69300002 -0.05953794 1.2443498e-38 297 289
-0.026654173 0.69099998 -0.059366114 1.2719715e-38 298 289
-0.025442619 0.69099998 -0.059366114 1.2350933e-38 299 289
-0.024231065 0.69099998 -0.059366114 1.2346251e-38 300 289
-0.023019511 0.69099998 -0.059366114 1.0317947e-38 301 289
-0.021807959 0.69099998 -0.059366114 7.4613426e-39 302 289
-0.020685827 0.69400001 -0.059623852 7.0925615e-39 303 289
-0.019525118 0.69599998 -0.059795678 6.4576598e-39 304 289
-0.018304799 0.69599998 -0.059795678 8.9469418e-39 305 289
-0.017084479 0.69599998 -0.059795678 1.1338983e-38 306 289
-0.015864158 0.69599998 -0.059795678 1.1708126e-38 307 289
-0.01466488 0.69700003 -0.05988159 1.2535699e-38 308 289
-0.013442807 0.69700003 -0.05988159 1.2350949e-38 309 289
-0.0122032 0.69599998 -0.059795678 1.1980705e-38 310 289
-0.010982879 0.69599998 -0.059795678 1.1058749e-38 311 289
-0.0097625591 0.69599998 -0.059795678 1.0508449e-38 312 289
-0.0085422397 0.69599998 -0.059795678 8.848928e-39 313 289
-0.0073219193 0.69599998 -0.059795678 7.7386469e-39 314 289
-0.0061015999 0.69599998 -0.059795678 5.3419193e-39 315 289
-0.0036977797 0.70300001 -0.06039707 2.0250542e-39 317 289
-0.0024651866 0.70300001 -0.06039707 5.6036384e-40 318 289
-0.0012290865 0.70099998 -0.060225245 2.2198852e-39 319 289
0 0.69999999 -0.060139328 3.6921384e-39 320 289
0.0012273333 0.69999999 -0.060139328 5.7204422e-39 321 289
0.0024546667 0.69999999 -0.060139328 8.7564366e-39 322 289
0.0036714801 0.69800001 -0.059967503 1.1706695e-38 323 289
0.0048953067 0.69800001 -0.059967503 1.6676273e-38 324 289
0.006119133 0.69800001 -0.059967503 1.9995674e-38 325 289
0.0073639993 0.69999999 -0.060139328 2.1570165e-38 326 289
0.0085913334 0.69999999 -0.060139328 2.3506273e-38 327 289
0.0098326923 0.70099998 -0.060225245 2.3508762e-38 328 289
0.011061779 0.70099998 -0.060225245 2.3508762e-38 329 289
0.012290866 0.70099998 -0.060225245 2.3507639e-38 330 289
0.013519952 0.70099998 -0.060225245 2.3503316e-38 331 289
0.014812159 0.704 -0.060482983 2.3313852e-38 332 289
0.016046507 0.704 -0.060482983 2.100896e-38 333 289
0.017280852 0.704 -0.060482983 1.9249704e-38 334 289
0.018515198 0.704 -0.060482983 1.6299803e-38 335 289
0.036101133 0.70999998 -0.060998458 3.9622471e-39 349 289
0.037345998 0.70999998 -0.060998458 4.0544441e-39 350 289
0.038482159 0.708 -0.060826641 4.0544441e-39 351 289
0.039723519 0.708 -0.060826641 3.9622443e-39 352 289
0.041080594 0.70999998 -0.060998458 3.8700486e-39 353 289
0.042325463 0.70999998 -0.060998458 3.5027053e-39 354 289
0.043999899 0.71700001 -0.061599858 3.4105096e-39 355 289
-0.04846213 0.69099998 -0.060577665 2.2137685e-39 280 290
-0.047182199 0.69 -0.060489997 1.9371802e-39 281 290
-0.045839146 0.68800002 -0.060314666 1.9357551e-39 282 290
-0.044632856 0.68800002 -0.060314666 2.4889289e-39 283 290
-0.043363437 0.68699998 -0.060226995 3.3212105e-39 284 290
-0.042158898 0.68699998 -0.060226995 6.179275e-39 285 290
-0.041013971 0.68800002 -0.060314666 9.7680494e-39 286 290
-0.039807681 0.68800002 -0.060314666 1.0874396e-38 287 290
-0.038601387 0.68800002 -0.060314666 1.0969816e-38 288 290
-0.037395094 0.68800002 -0.060314666 1.1522989e-38 289 290
-0.0361888 0.68800002 -0.060314666 1.2168003e-38 290 290
-0.03498251 0.68800002 -0.060314666 1.2352753e-38 291 290
-0.0338744 0.69 -0.060489997 1.2810851e-38 292 290
-0.032711938 0.69099998 -0.060577665 1.2810851e-38 293 290
-0.031500384 0.69099998 -0.060577665 1.2809763e-38 294 290
-0.030288832 0.69099998 -0.060577665 1.2533176e-38 295 290
-0.029077278 0.69099998 -0.060577665 1.2350935e-38 296 290
-0.027865725 0.69099998 -0.060577665 1.2443132e-38 297 290
-0.026654173 0.69099998 -0.060577665 1.2534248e-38 298 290
-0.025405798 0.69 -0.060489997 1.271864e-38 299 290
-0.024195999 0.69 -0.060489997 1.3087071e-38 300 290
-0.022986198 0.69 -0.060489997 1.2441702e-38 301 290
-0.021776399 0.69 -0.060489997 1.0319411e-38 302 290
-0.020685827 0.69400001 -0.060840666 7.0003686e-39 303 290
-0.019469013 0.69400001 -0.060840666 5.7161262e-39 304 290
-0.0182522 0.69400001 -0.060840666 7.1912563e-39 305 290
-0.017035386 0.69400001 -0.060840666 9.4972289e-39 306 290
-0.015818574 0.69400001 -0.060840666 1.032699e-38 307 290
-0.014643839 0.69599998 -0.061015997 1.0599588e-38 308 290
-0.013423519 0.69599998 -0.061015997 9.7698277e-39 309 290
-0.012168133 0.69400001 -0.060840666 9.1244358e-39 310 290
-0.01095132 0.69400001 -0.060840666 7.7415014e-39 311 290
-0.0097345067 0.69400001 -0.060840666 5.2594123e-39 312 290
-0.0085176928 0.69400001 -0.060840666 2.2166075e-39 313 290
-0.0073219193 0.69599998 -0.061015997 5.5137171e-40 314 290
0.0012273333 0.69999999 -0.061366666 1.9920367e-38 321 290
0.0024546667 0.69999999 -0.061366666 2.3509879e-38 322 290
0.0036714801 0.69800001 -0.061191335 2.3509886e-38 323 290
0.0048953067 0.69800001 -0.061191335 2.3509886e-38 324 290
0.006119133 0.69800001 -0.061191335 2.3509886e-38 325 290
0.0097906133 0.69800001 -0.061191335 2.3509806e-38 328 290
0.01101444 0.69800001 -0.061191335 2.3502244e-38 329 290
0.012238266 0.69800001 -0.061191335 2.2756731e-38 330 290
0.013462093 0.69800001 -0.061191335 1.980683e-38 331 290
0.01468592 0.69800001 -0.061191335 1.6946226e-38 332 290
0.015909746 0.69800001 -0.061191335 1.2244255e-38 333 290
0.036151983 0.71100003 -0.062331002 3.9622471e-39 349 290
0.037345998 0.70999998 -0.062243331 3.9622471e-39 350 290
0.038590867 0.70999998 -0.062243331 3.9622471e-39 351 290
0.039835732 0.70999998 -0.062243331 3.9626002e-39 352 290
0.041138459 0.71100003 -0.062331002 3.9626002e-39 353 290
0.042742759 0.71700001 -0.062856995 3.3175979e-39 354 290
-0.04846213 0.69099998 -0.061789215 4.9807122e-39 280 291
-0.047182199 0.69 -0.061699796 5.8104729e-39 281 291
-0.045839146 0.68800002 -0.06152096 6.6409566e-39 282 291
-0.044567976 0.68699998 -0.061431535 7.8394998e-39 283 291
-0.043363437 0.68699998 -0.061431535 9.7712878e-39 284 291
-0.042158898 0.68699998 -0.061431535 1.0693246e-38 285 291
-0.040954359 0.68699998 -0.061431535 1.2164766e-38 286 291
-0.039749816 0.68699998 -0.061431535 1.2256961e-38 287 291
-0.038545277 0.68699998 -0.061431535 1.1707378e-38 288 291
-0.037340738 0.68699998 -0.061431535 1.207616e-38 289 291
-0.036136195 0.68699998 -0.061431535 1.2722975e-38 290 291
-0.03498251 0.68800002 -0.06152096 1.3276148e-38 291 291
-0.033776212 0.68800002 -0.06152096 1.3459823e-38 292 291
-0.032664597 0.69 -0.061699796 1.2814454e-38 293 291
-0.031454802 0.69 -0.061699796 1.2993432e-38 294 291
-0.030244999 0.69 -0.061699796 1.2993432e-38 295 291
-0.029035198 0.69 -0.061699796 1.2536044e-38 296 291
-0.027825398 0.69 -0.061699796 1.2628598e-38 297 291
-0.026615599 0.69 -0.061699796 1.2811555e-38 298 291
-0.025405798 0.69 -0.061699796 1.2811555e-38 299 291
-0.024125867 0.68800002 -0.06152096 1.3085633e-38 300 291
-0.022919573 0.68800002 -0.06152096 1.2624295e-38 301 291
-0.021713281 0.68800002 -0.06152096 1.1149891e-38 302 291
-0.020596405 0.69099998 -0.061789215 8.5684132e-39 303 291
-0.01944096 0.69300002 -0.061968062 7.0039812e-39 304 291
-0.018225901 0.69300002 -0.061968062 6.2664162e-39 305 291
-0.01701084 0.69300002 -0.061968062 6.6391573e-39 306 291
-0.015818574 0.69400001 -0.06205748 6.6391573e-39 307 291
-0.01460176 0.69400001 -0.06205748 5.1632874e-39 308 291
-0.013384946 0.69400001 -0.06205748 2.9505909e-39 309 291
-0.012150601 0.69300002 -0.061968062 2.2101518e-39 310 291
-0.010935539 0.69300002 -0.061968062 1.4725965e-39 311 291
-0.0097204801 0.69300002 -0.061968062 9.3270426e-41 312 291
-0.0085054198 0.69300002 -0.061968062 4.2420724e-39 313 291
-0.0072903596 0.69300002 -0.061968062 8.1193293e-39 314 291
-0.0060577663 0.69099998 -0.061789215 1.2175937e-38 315 291
0.01101444 0.69800001 -0.062415157 1.1776467e-38 329 291
0.012238266 0.69800001 -0.062415157 5.8950721e-39 330 291
0.013462093 0.69800001 -0.062415157 4.9731144e-39 331 291
0.015909746 0.69800001 -0.062415157 2.0232508e-39 333 291
0.037398599 0.71100003 -0.063577622 3.3172448e-39 350 291
0.038645219 0.71100003 -0.063577622 2.9484623e-39 351 291
-0.04846213 0.69099998 -0.063000768 8.1131902e-39 280 292
-0.046977058 0.68699998 -0.062636077 9.7730717e-39 281 292
-0.045705888 0.68599999 -0.062544905 1.0971258e-38 282 292
-0.044503104 0.68599999 -0.062544905 1.1709183e-38 283 292
-0.043300316 0.68599999 -0.062544905 1.2535694e-38 284 292
-0.042097531 0.68599999 -0.062544905 1.2259105e-38 285 292
-0.040894743 0.68599999 -0.062544905 1.2534248e-38 286 292
-0.039749816 0.68699998 -0.062636077 1.2442052e-38 287 292
-0.038545277 0.68699998 -0.062636077 1.2074721e-38 288 292
-0.037340738 0.68699998 -0.062636077 1.2627895e-38 289 292
-0.036136195 0.68699998 -0.062636077 1.3090684e-38 290 292
-0.034931656 0.68699998 -0.062636077 1.3367272e-38 291 292
-0.033776212 0.68800002 -0.06272725 1.3643855e-38 292 292
-0.032664597 0.69 -0.062909603 1.3090681e-38 293 292
-0.031454802 0.69 -0.062909603 1.3178545e-38 294 292
-0.030244999 0.69 -0.062909603 1.3178545e-38 295 292
-0.029035198 0.69 -0.062909603 1.2810836e-38 296 292
-0.027825398 0.69 -0.062909603 1.2810836e-38 297 292
-0.026615599 0.69 -0.062909603 1.2810839e-38 298 292
-0.02533216 0.68800002 -0.06272725 1.2441696e-38 299 292
-0.024125867 0.68800002 -0.06272725 1.2071472e-38 300 292
-0.022919573 0.68800002 -0.06272725 1.1426102e-38 301 292
-0.021713281 0.68800002 -0.06272725 1.0321204e-38 302 292
-0.020596405 0.69099998 -0.063000768 9.3070503e-39 303 292
-0.019384852 0.69099998 -0.063000768 8.2907487e-39 304 292
-0.0181733 0.69099998 -0.063000768 6.5393905e-39 305 292
-0.016961746 0.69099998 -0.063000768 2.8619896e-39 306 292
-0.015795778 0.69300002 -0.063183114 1.1102768e-39 307 292
-0.014580719 0.69300002 -0.063183114 0 308 292
-0.01336566 0.69300002 -0.063183114 0 309 292
-0.012150601 0.69300002 -0.063183114 0 310 292
-0.010935539 0.69300002 -0.063183114 1.931086e-39 311 292
-0.0096924258 0.69099998 -0.063000768 4.3375358e-39 312 292
-0.0084686 0.69 -0.062909603 1.2358195e-38 313 292
-0.0072587994 0.69 -0.062909603 1.8627124e-38 314 292
-0.0060577663 0.69099998 -0.063000768 2.3050708e-38 315 292
0.01101444 0.69800001 -0.063638985 3.8570908e-39 329 292
0.012238266 0.69800001 -0.063638985 0 330 292
0.013462093 0.69800001 -0.063638985 0 331 292
0.01468592 0.69800001 -0.063638985 0 332 292
0.015909746 0.69800001 -0.063638985 1.3814897e-39 333 292
0.017182667 0.69999999 -0.063821331 2.581465e-39 334 292
0.018409999 0.69999999 -0.063821331 3.4108656e-39 335 292
0.019721493 0.70300001 -0.064094849 3.5952596e-39 336 292
0.020954086 0.70300001 -0.064094849 3.5952596e-39 337 292
-0.046977058 0.68699998 -0.06384062 1.2442442e-38 281 293
-0.045705888 0.68599999 -0.063747689 1.1892128e-38 282 293
-0.044503104 0.68599999 -0.063747689 1.1707378e-38 283 293
-0.043300316 0.68599999 -0.063747689 1.1708803e-38 284 293
-0.042097531 0.68599999 -0.063747689 1.1708803e-38 285 293
-0.040894743 0.68599999 -0.063747689 1.2259103e-38 286 293
-0.039691959 0.68599999 -0.063747689 1.2075072e-38 287 293
-0.038545277 0.68699998 -0.06384062 1.2443498e-38 288 293
-0.037340738 0.68699998 -0.06384062 1.2904475e-38 289 293
-0.036136195 0.68699998 -0.06384062 1.3364025e-38 290 293
-0.034931656 0.68699998 -0.06384062 1.3456221e-38 291 293
-0.033727121 0.68699998 -0.06384062 1.3731368e-38 292 293
-0.032522578 0.68699998 -0.06384062 1.3085999e-38 293 293
-0.031318039 0.68699998 -0.06384062 1.2256586e-38 294 293
-0.030113498 0.68699998 -0.06384062 1.1611217e-38 295 293
-0.028951041 0.68800002 -0.063933544 1.1516134e-38 296 293
-0.027744746 0.68800002 -0.063933544 1.096296e-38 297 293
-0.026538454 0.68800002 -0.063933544 9.6747398e-39 298 293
-0.02533216 0.68800002 -0.063933544 8.2918039e-39 299 293
-0.024125867 0.68800002 -0.063933544 6.1752547e-39 300 293
-0.022886258 0.68699998 -0.06384062 4.7001246e-39 301 293
-0.021681719 0.68699998 -0.06384062 3.7692014e-39 302 293
-0.020566599 0.69 -0.064119399 1.6530389e-39 303 293
-0.019356798 0.69 -0.064119399 0 304 293
-0.018146999 0.69 -0.064119399 0 305 293
-0.016961746 0.69099998 -0.06421233 4.7033182e-40 306 293
-0.015795778 0.69300002 -0.064398177 7.2006128e-39 307 293
-0.014580719 0.69300002 -0.064398177 1.2728039e-38 308 293
-0.01336566 0.69300002 -0.064398177 1.7706243e-38 309 293
-0.012150601 0.69300002 -0.064398177 2.2678697e-38 310 293
-0.01090398 0.69099998 -0.06421233 2.3509886e-38 311 293
-0.0096924258 0.69099998 -0.06421233 2.3509886e-38 312 293
-0.0084686 0.69 -0.064119399 2.3509886e-38 313 293
-0.0072587994 0.69 -0.064119399 2.3509886e-38 314 293
-0.0060577663 0.69099998 -0.06421233 2.3509886e-38 315 293
0.0085545136 0.69700003 -0.064769886 0 327 293
0.0097765867 0.69700003 -0.064769886 0 328 293
0.01101444 0.69800001 -0.06486281 1.7498995e-39 329 293
0.012238266 0.69800001 -0.06486281 2.3970668e-39 330 293
0.013462093 0.69800001 -0.06486281 3.1346332e-39 331 293
0.01468592 0.69800001 -0.06486281 4.0537168e-39 332 293
0.015909746 0.69800001 -0.06486281 4.1459125e-39 333 293
0.017182667 0.69999999 -0.065048665 3.6885286e-39 334 293
0.018409999 0.69999999 -0.065048665 3.6885286e-39 335 293
0.019721493 0.70300001 -0.065327443 3.5041374e-39 336 293
0.020954086 0.70300001 -0.065327443 3.5041374e-39 337 293
-0.046908677 0.68599999 -0.064950474 1.1525177e-38 281 294
-0.045705888 0.68599999 -0.064950474 1.1156728e-38 282 294
-0.04437336 0.68400002 -0.064761117 1.1248923e-38 283 294
-0.043174081 0.68400002 -0.064761117 1.1891396e-38 284 294
-0.041974798 0.68400002 -0.064761117 1.2075788e-38 285 294
-0.040775519 0.68400002 -0.064761117 1.2075793e-38 286 294
-0.039691959 0.68599999 -0.064950474 1.2075793e-38 287 294
-0.03848917 0.68599999 -0.064950474 1.2350949e-38 288 294
-0.037286382 0.68599999 -0.064950474 1.2350949e-38 289 294
-0.036083598 0.68599999 -0.064950474 1.2533532e-38 290 294
-0.034880809 0.68599999 -0.064950474 1.2348782e-38 291 294
-0.033678025 0.68599999 -0.064950474 1.1980708e-38 292 294
-0.032522578 0.68699998 -0.065045156 1.1335339e-38 293 294
-0.031318039 0.68699998 -0.065045156 1.0321184e-38 294 294
-0.030113498 0.68699998 -0.065045156 9.3992277e-39 295 294
-0.028908957 0.68699998 -0.065045156 7.9255465e-39 296 294
-0.027704418 0.68699998 -0.065045156 7.0035888e-39 297 294
-0.026499879 0.68699998 -0.065045156 5.8976084e-39 298 294
-0.025295338 0.68699998 -0.065045156 4.4224769e-39 299 294
-0.024090799 0.68699998 -0.065045156 6.5505799e-40 300 294
-0.022886258 0.68699998 -0.065045156 8.9683102e-42 301 294
