# .PCD v.7 - Point Cloud Data file format
FIELDS x y z rgb imX imY
SIZE 4 4 4 4 4 4
TYPE F F F F F F
COUNT 1 1 1 1 1 1
WIDTH 588
HEIGHT 1
VIEWPOINT 0 0 0 1 0 0 0
POINTS 588
DATA ascii
-0.0097204801 0.69300002 -0.024301201 4.5132671e-39 312 260
-0.0085054198 0.69300002 -0.024301201 4.6054627e-39 313 260
-0.010935539 0.69300002 -0.02551626 3.6863861e-39 311 261
-0.0097204801 0.69300002 -0.02551626 3.869348e-39 312 261
-0.0085054198 0.69300002 -0.02551626 3.7767936e-39 313 261
-0.0072587994 0.69 -0.025405798 3.6874721e-39 314 261
-0.0060489997 0.69 -0.025405798 5.7157759e-39 315 261
-0.012150601 0.69300002 -0.02673132 3.961894e-39 310 262
-0.01090398 0.69099998 -0.026654173 3.8696983e-39 311 262
-0.0096924258 0.69099998 -0.026654173 3.959743e-39 312 262
-0.0084686 0.69 -0.026615599 3.7753517e-39 313 262
-0.0072587994 0.69 -0.026615599 3.0431817e-39 314 262
-0.0060314666 0.68800002 -0.026538454 5.6246593e-39 315 262
-0.0048251734 0.68800002 -0.026538454 9.3024049e-39 316 262
0 0.69 -0.026615599 8.9336056e-39 320 262
0.0012097999 0.69 -0.026615599 8.3804318e-39 321 262
-0.013384946 0.69400001 -0.027986705 3.958294e-39 309 263
-0.012150601 0.69300002 -0.027946379 4.1452062e-39 310 263
-0.01090398 0.69099998 -0.027865725 3.8689795e-39 311 263
-0.0096924258 0.69099998 -0.027865725 3.7749986e-39 312 263
-0.0084686 0.69 -0.027825398 3.4987704e-39 313 263
-0.0072587994 0.69 -0.027825398 2.9502798e-39 314 263
-0.0060314666 0.68800002 -0.027744746 4.3332142e-39 315 263
-0.0048251734 0.68800002 -0.027744746 6.450104e-39 316 263
-0.0036188802 0.68800002 -0.027744746 6.9110821e-39 317 263
-0.0024125867 0.68800002 -0.027744746 7.6443143e-39 318 263
-0.0012062934 0.68800002 -0.027744746 7.8283469e-39 319 263
0 0.69 -0.027825398 8.286081e-39 320 263
0.0012097999 0.69 -0.027825398 8.1016897e-39 321 263
0.0024195998 0.69 -0.027825398 7.6443115e-39 322 263
-0.013384946 0.69400001 -0.029203519 4.0501267e-39 309 264
-0.012168133 0.69400001 -0.029203519 4.236683e-39 310 264
-0.010935539 0.69300002 -0.029161438 3.9600961e-39 311 264
-0.0096924258 0.69099998 -0.029077278 3.5916835e-39 312 264
-0.0084686 0.69 -0.029035198 3.1310641e-39 313 264
-0.0072587994 0.69 -0.029035198 2.7651654e-39 314 264
-0.0060314666 0.68800002 -0.028951041 3.871513e-39 315 264
-0.0048251734 0.68800002 -0.028951041 5.1615302e-39 316 264
-0.0036136196 0.68699998 -0.028908957 5.6225069e-39 317 264
-0.0024090798 0.68699998 -0.028908957 6.8156439e-39 318 264
-0.0012045399 0.68699998 -0.028908957 7.0922294e-39 319 264
0 0.68800002 -0.028951041 7.7347121e-39 320 264
0.0012062934 0.68800002 -0.028951041 7.9187432e-39 321 264
0.0024195998 0.69 -0.029035198 7.9208956e-39 322 264
0.0036346598 0.69099998 -0.029077278 6.9067437e-39 323 264
-0.013384946 0.69400001 -0.030420333 4.050847e-39 309 265
-0.012168133 0.69400001 -0.030420333 4.0522945e-39 310 265
-0.010935539 0.69300002 -0.0303765 3.8675445e-39 311 265
-0.0097204801 0.69300002 -0.0303765 3.3161742e-39 312 265
-0.008480873 0.69099998 -0.030288832 3.0392286e-39 313 265
-0.0072587994 0.69 -0.030244999 3.3161714e-39 314 265
-0.0060314666 0.68800002 -0.030157333 4.2381277e-39 315 265
-0.0048251734 0.68800002 -0.030157333 5.5284952e-39 316 265
-0.0036136196 0.68699998 -0.030113498 6.0816676e-39 317 265
-0.0024090798 0.68699998 -0.030113498 7.0925741e-39 318 265
-0.0012045399 0.68699998 -0.030113498 7.1851284e-39 319 265
0 0.68800002 -0.030157333 7.4599147e-39 320 265
0.0012062934 0.68800002 -0.030157333 7.6446647e-39 321 265
0.0024195998 0.69 -0.030244999 8.1060029e-39 322 265
0.0036346598 0.69099998 -0.030288832 7.0000155e-39 323 265
0.00486024 0.69300002 -0.0303765 3.8693326e-39 324 265
0.0061015999 0.69599998 -0.030507999 3.0392132e-39 325 265
-0.013384946 0.69400001 -0.031637147 4.6969395e-39 309 266
-0.012168133 0.69400001 -0.031637147 3.2246918e-39 310 266
-0.010935539 0.69300002 -0.031591557 3.3172476e-39 311 266
-0.0097204801 0.69300002 -0.031591557 3.3161742e-39 312 266
-0.008480873 0.69099998 -0.031500384 3.0392286e-39 313 266
-0.0072587994 0.69 -0.031454802 2.8577142e-39 314 266
-0.0060314666 0.68800002 -0.031363625 3.7796705e-39 315 266
-0.0048251734 0.68800002 -0.031363625 4.8856425e-39 316 266
-0.0036188802 0.68800002 -0.031363625 5.7157633e-39 317 266
-0.0024090798 0.68699998 -0.031318039 7.368791e-39 318 266
-0.0012045399 0.68699998 -0.031318039 7.4609867e-39 319 266
0 0.68800002 -0.031363625 8.1034722e-39 320 266
0.0012097999 0.69 -0.031454802 8.471896e-39 321 266
0.0024195998 0.69 -0.031454802 8.4740638e-39 322 266
0.0036451798 0.69300002 -0.031591557 7.368075e-39 323 266
0.00486024 0.69300002 -0.031591557 4.1448377e-39 324 266
0.0060840664 0.69400001 -0.031637147 2.9466532e-39 325 266
0.0073008798 0.69400001 -0.031637147 1.6566291e-39 326 266
0.0085176928 0.69400001 -0.031637147 8.7556912e-39 327 266
-0.013423519 0.69599998 -0.032948639 5.8980022e-39 309 267
-0.012168133 0.69400001 -0.032853961 2.947033e-39 310 267
-0.010935539 0.69300002 -0.03280662 3.3161742e-39 311 267
-0.0097204801 0.69300002 -0.03280662 3.0403104e-39 312 267
-0.008480873 0.69099998 -0.032711938 2.8559191e-39 313 267
-0.0072587994 0.69 -0.032664597 3.4087244e-39 314 267
-0.0060314666 0.68800002 -0.032569919 4.2381249e-39 315 267
-0.0048251734 0.68800002 -0.032569919 5.7121564e-39 316 267
-0.0036188802 0.68800002 -0.032569919 6.4500815e-39 317 267
-0.0024125867 0.68800002 -0.032569919 7.6450178e-39 318 267
-0.0012062934 0.68800002 -0.032569919 7.8290503e-39 319 267
0 0.69 -0.032664597 8.0127227e-39 320 267
0.0012115532 0.69099998 -0.032711938 8.2889495e-39 321 267
0.0024231065 0.69099998 -0.032711938 8.4740666e-39 322 267
0.0036504399 0.69400001 -0.032853961 7.367719e-39 323 267
0.0048672534 0.69400001 -0.032853961 4.2370361e-39 324 267
0.0060840664 0.69400001 -0.032853961 3.2225254e-39 325 267
0.0073008798 0.69400001 -0.032853961 1.9324957e-39 326 267
0.0085176928 0.69400001 -0.032853961 8.7549723e-39 327 267
-0.012168133 0.69400001 -0.034070771 2.0279563e-39 310 268
-0.01095132 0.69400001 -0.034070771 2.5807714e-39 311 268
-0.0097204801 0.69300002 -0.034021679 3.0403104e-39 312 268
-0.0085054198 0.69300002 -0.034021679 2.7637235e-39 313 268
-0.0072903596 0.69300002 -0.034021679 3.0417467e-39 314 268
-0.0060489997 0.69 -0.0338744 3.8718661e-39 315 268
-0.0048391996 0.69 -0.0338744 5.530649e-39 316 268
-0.0036346598 0.69099998 -0.033923492 6.4522451e-39 317 268
-0.0024195998 0.69 -0.0338744 8.0127199e-39 318 268
-0.0012097999 0.69 -0.0338744 8.1971098e-39 319 268
0 0.69099998 -0.033923492 8.5644503e-39 320 268
0.00121506 0.69300002 -0.034021679 8.656646e-39 321 268
0.00243012 0.69300002 -0.034021679 8.5655406e-39 322 268
0.0036609597 0.69599998 -0.034168959 7.5513872e-39 323 268
0.0048812795 0.69599998 -0.034168959 4.2373892e-39 324 268
0.0061015999 0.69599998 -0.034168959 2.9466504e-39 325 268
0.00733244 0.69700003 -0.034218054 1.8402972e-39 326 268
0.0085545136 0.69700003 -0.034218054 8.6627739e-39 327 268
-0.012168133 0.69400001 -0.035287585 1.9354048e-39 310 269
-0.01095132 0.69400001 -0.035287585 2.6729698e-39 311 269
-0.0097204801 0.69300002 -0.035236739 2.8562821e-39 312 269
-0.0085054198 0.69300002 -0.035236739 2.7640864e-39 313 269
-0.0072693196 0.69099998 -0.035135046 3.3165273e-39 314 269
-0.0060577663 0.69099998 -0.035135046 4.5147118e-39 315 269
-0.0048462129 0.69099998 -0.035135046 6.5419212e-39 316 269
-0.0036346598 0.69099998 -0.035135046 7.279845e-39 317 269
-0.0024195998 0.69 -0.035084199 8.0134416e-39 318 269
-0.0012097999 0.69 -0.035084199 8.1978328e-39 319 269
0 0.69099998 -0.035135046 8.5648133e-39 320 269
0.00121506 0.69300002 -0.035236739 8.6570089e-39 321 269
0.0024336267 0.69400001 -0.035287585 8.9343245e-39 322 269
0.00366622 0.69700003 -0.035440128 7.7357813e-39 323 269
0.0048882933 0.69700003 -0.035440128 4.237392e-39 324 269
0.0061103669 0.69700003 -0.035440128 3.2228814e-39 325 269
0.0073429602 0.69800001 -0.035490975 1.8413762e-39 326 269
0.0085913334 0.69999999 -0.035592664 8.387266e-39 327 269
0.0098186666 0.69999999 -0.035592664 1.2345547e-38 328 269
-0.012168133 0.69400001 -0.036504399 2.394941e-39 310 270
-0.01095132 0.69400001 -0.036504399 2.8559191e-39 311 270
-0.0097204801 0.69300002 -0.036451802 2.9481148e-39 312 270
-0.0085054198 0.69300002 -0.036451802 2.8559191e-39 313 270
-0.0072693196 0.69099998 -0.036346599 3.223973e-39 314 270
-0.0060577663 0.69099998 -0.036346599 4.6072662e-39 315 270
-0.0048462129 0.69099998 -0.036346599 6.6337567e-39 316 270
-0.0036346598 0.69099998 -0.036346599 7.5553529e-39 317 270
-0.0024231065 0.69099998 -0.036346599 8.3815038e-39 318 270
-0.0012115532 0.69099998 -0.036346599 8.4736995e-39 319 270
0 0.69099998 -0.036346599 8.6570089e-39 320 270
0.0012168133 0.69400001 -0.036504399 8.7492059e-39 321 270
0.0024336267 0.69400001 -0.036504399 9.0283194e-39 322 270
0.00366622 0.69700003 -0.036662199 7.7375806e-39 323 270
0.0048953067 0.69800001 -0.0367148 3.8700486e-39 324 270
0.006119133 0.69800001 -0.0367148 2.9480923e-39 325 270
0.0073429602 0.69800001 -0.0367148 2.0254102e-39 326 270
0.0085913334 0.69999999 -0.036819998 8.2950731e-39 327 270
0.0098186666 0.69999999 -0.036819998 1.2252996e-38 328 270
-0.013442807 0.69700003 -0.037884273 6.8210473e-39 309 271
-0.012220734 0.69700003 -0.037884273 2.394941e-39 310 271
-0.01095132 0.69400001 -0.037721213 2.8559191e-39 311 271
-0.0097204801 0.69300002 -0.037666857 3.1314298e-39 312 271
-0.0085054198 0.69300002 -0.037666857 2.9466798e-39 313 271
-0.0072693196 0.69099998 -0.03755815 3.0413796e-39 314 271
-0.0060577663 0.69099998 -0.03755815 4.4243154e-39 315 271
-0.0048462129 0.69099998 -0.03755815 7.1854914e-39 316 271
-0.0036346598 0.69099998 -0.03755815 8.0156122e-39 317 271
-0.0024231065 0.69099998 -0.03755815 8.7492116e-39 318 271
-0.0012115532 0.69099998 -0.03755815 8.6566558e-39 319 271
0 0.69099998 -0.03755815 8.8410414e-39 320 271
0.0012115532 0.69099998 -0.03755815 9.1172682e-39 321 271
0.0024441467 0.69700003 -0.037884273 9.3023811e-39 322 271
0.00366622 0.69700003 -0.037884273 8.0116423e-39 323 271
0.0048953067 0.69800001 -0.037938625 4.2381095e-39 324 271
0.006119133 0.69800001 -0.037938625 2.9473707e-39 325 271
0.0073639993 0.69999999 -0.038047329 2.0246913e-39 326 271
0.0085913334 0.69999999 -0.038047329 8.3861898e-39 327 271
0.0098186666 0.69999999 -0.038047329 1.2252996e-38 328 271
-0.013442807 0.69700003 -0.039106347 6.6352155e-39 309 272
-0.012220734 0.69700003 -0.039106347 2.1190702e-39 310 272
-0.010982879 0.69599998 -0.039050236 2.5804084e-39 311 272
-0.0097345067 0.69400001 -0.038938027 2.8559191e-39 312 272
-0.0085054198 0.69300002 -0.03888192 2.7637235e-39 313 272
-0.0072693196 0.69099998 -0.038769703 3.5913136e-39 314 272
-0.0060577663 0.69099998 -0.038769703 4.8820524e-39 315 272
-0.00486024 0.69300002 -0.03888192 7.4617167e-39 316 272
-0.0036346598 0.69099998 -0.038769703 8.4758673e-39 317 272
-0.0024231065 0.69099998 -0.038769703 8.9336028e-39 318 272
-0.0012115532 0.69099998 -0.038769703 8.8414072e-39 319 272
0 0.69300002 -0.03888192 8.6580921e-39 320 272
0.0012238267 0.69800001 -0.039162453 9.0268732e-39 321 272
0.0024476533 0.69800001 -0.039162453 9.2116316e-39 322 272
0.0036714801 0.69800001 -0.039162453 7.9208928e-39 323 272
0.0049093333 0.69999999 -0.039274666 4.4203484e-39 324 272
0.0061366665 0.69999999 -0.039274666 3.4983921e-39 325 272
0.0073639993 0.69999999 -0.039274666 2.2080064e-39 326 272
0.0086036054 0.70099998 -0.039330769 8.2929179e-39 327 272
0.0098326923 0.70099998 -0.039330769 1.21608e-38 328 272
-0.012220734 0.69700003 -0.040328421 2.4856891e-39 310 273
-0.01099866 0.69700003 -0.040328421 2.8544702e-39 311 273
-0.0097345067 0.69400001 -0.040154841 3.0392342e-39 312 273
-0.0085176928 0.69400001 -0.040154841 2.9466798e-39 313 273
-0.0072903596 0.69300002 -0.04009698 2.7655214e-39 314 273
-0.0060753003 0.69300002 -0.04009698 4.424684e-39 315 273
-0.00486024 0.69300002 -0.04009698 7.5524816e-39 316 273
-0.0036451798 0.69300002 -0.04009698 8.7510248e-39 317 273
-0.00243012 0.69300002 -0.04009698 9.2094666e-39 318 273
-0.00121506 0.69300002 -0.04009698 9.2094666e-39 319 273
0 0.69300002 -0.04009698 9.209817e-39 320 273
0.0012238267 0.69800001 -0.040386278 9.3942082e-39 321 273
0.0024476533 0.69800001 -0.040386278 9.4871241e-39 322 273
0.0036714801 0.69800001 -0.040386278 8.0119926e-39 323 273
0.0049093333 0.69999999 -0.040502001 4.603648e-39 324 273
0.0061366665 0.69999999 -0.040502001 3.4051048e-39 325 273
0.0073745195 0.70099998 -0.040559858 2.2072819e-39 326 273
0.0086036054 0.70099998 -0.040559858 8.4765833e-39 327 273
0.0098326923 0.70099998 -0.040559858 1.2160797e-38 328 273
0.011061779 0.70099998 -0.040559858 1.418946e-38 329 273
-0.013462093 0.69800001 -0.041610107 7.5550026e-39 309 274
-0.012238266 0.69800001 -0.041610107 3.3125743e-39 310 274
-0.01101444 0.69800001 -0.041610107 3.5891626e-39 311 274
-0.0097765867 0.69700003 -0.041550495 2.7644396e-39 312 274
-0.0085422397 0.69599998 -0.041490879 2.4882128e-39 313 274
-0.0073008798 0.69400001 -0.041371655 3.6824302e-39 314 274
-0.0060840664 0.69400001 -0.041371655 4.973169e-39 315 274
-0.0048812795 0.69599998 -0.041490879 7.6457507e-39 316 274
-0.0036504399 0.69400001 -0.041371655 8.9364895e-39 317 274
-0.0024336267 0.69400001 -0.041371655 9.1187129e-39 318 274
-0.0012168133 0.69400001 -0.041371655 9.0265173e-39 319 274
0 0.69400001 -0.041371655 9.1190661e-39 320 274
0.0012220733 0.69700003 -0.041550495 9.3034587e-39 321 274
0.0024546667 0.69999999 -0.041729331 9.5807729e-39 322 274
0.0036819996 0.69999999 -0.041729331 8.0130884e-39 323 274
0.0049163462 0.70099998 -0.041788943 4.6954961e-39 324 274
0.0061454331 0.70099998 -0.041788943 3.8653767e-39 325 274
0.0073955595 0.70300001 -0.041908171 2.0243354e-39 326 274
0.0086036054 0.70099998 -0.041788943 8.1096057e-39 327 274
0.0098326923 0.70099998 -0.041788943 1.21608e-38 328 274
-0.013462093 0.69800001 -0.042833932 8.4744421e-39 309 275
-0.012238266 0.69800001 -0.042833932 3.2221751e-39 310 275
-0.01101444 0.69800001 -0.042833932 3.2221751e-39 311 275
-0.0097906133 0.69800001 -0.042833932 2.8559191e-39 312 275
-0.0085545136 0.69700003 -0.042772565 2.7637235e-39 313 275
-0.00733244 0.69700003 -0.042772565 2.8569883e-39 314 275
-0.0061103669 0.69700003 -0.042772565 4.3321184e-39 315 275
-0.0048882933 0.69700003 -0.042772565 7.4631545e-39 316 275
-0.00366622 0.69700003 -0.042772565 8.5698622e-39 317 275
-0.0024441467 0.69700003 -0.042772565 9.2112659e-39 318 275
-0.0012203199 0.69599998 -0.042711195 9.2112659e-39 319 275
0 0.69599998 -0.042711195 9.3949299e-39 320 275
0.0012220733 0.69700003 -0.042772565 9.5793225e-39 321 275
0.0024546667 0.69999999 -0.042956665 9.7637194e-39 322 275
0.0036819996 0.69999999 -0.042956665 8.1038393e-39 323 275
0.0049163462 0.70099998 -0.043018032 4.6040137e-39 324 275
0.0061454331 0.70099998 -0.043018032 3.4980263e-39 325 275
0.0073745195 0.70099998 -0.043018032 2.0246913e-39 326 275
0.0086036054 0.70099998 -0.043018032 7.833016e-39 327 275
0.0098326923 0.70099998 -0.043018032 1.1884212e-38 328 275
-0.013462093 0.69800001 -0.04405776 8.8450225e-39 309 276
-0.012238266 0.69800001 -0.04405776 3.2232569e-39 310 276
-0.01101444 0.69800001 -0.04405776 3.0388657e-39 311 276
-0.0097906133 0.69800001 -0.04405776 2.9481148e-39 312 276
-0.0085545136 0.69700003 -0.043994639 2.6711691e-39 313 276
-0.00733244 0.69700003 -0.043994639 3.1317774e-39 314 276
-0.0061103669 0.69700003 -0.043994639 4.6072662e-39 315 276
-0.0048882933 0.69700003 -0.043994639 7.4631573e-39 316 276
-0.00366622 0.69700003 -0.043994639 8.7538961e-39 317 276
-0.0024441467 0.69700003 -0.043994639 9.3034643e-39 318 276
-0.0012220733 0.69700003 -0.043994639 9.3034643e-39 319 276
0 0.69700003 -0.043994639 9.5793253e-39 320 276
0.0012238267 0.69800001 -0.04405776 9.671521e-39 321 276
0.0024546667 0.69999999 -0.044183996 9.8562794e-39 322 276
0.0036819996 0.69999999 -0.044183996 8.1967566e-39 323 276
0.0049093333 0.69999999 -0.044183996 4.6047466e-39 324 276
0.0061366665 0.69999999 -0.044183996 3.5902346e-39 325 276
0.0073745195 0.70099998 -0.044247117 2.2998461e-39 326 276
0.0086036054 0.70099998 -0.044247117 7.831944e-39 327 276
0.0098326923 0.70099998 -0.044247117 1.160798e-38 328 276
-0.013462093 0.69800001 -0.045281585 9.2134449e-39 309 277
-0.012238266 0.69800001 -0.045281585 3.2232569e-39 310 277
-0.01101444 0.69800001 -0.045281585 3.1310613e-39 311 277
-0.0097906133 0.69800001 -0.045281585 2.9481148e-39 312 277
-0.0085667865 0.69800001 -0.045281585 2.7637235e-39 313 277
-0.00733244 0.69700003 -0.045216713 3.4998396e-39 314 277
-0.0061103669 0.69700003 -0.045216713 4.7905784e-39 315 277
-0.0048953067 0.69800001 -0.045281585 7.554634e-39 316 277
-0.0036714801 0.69800001 -0.045281585 9.0297641e-39 317 277
-0.0024476533 0.69800001 -0.045281585 9.5789694e-39 318 277
-0.0012220733 0.69700003 -0.045216713 9.5789694e-39 319 277
0 0.69700003 -0.045216713 9.5800414e-39 320 277
0.0012273333 0.69999999 -0.04541133 9.7644327e-39 321 277
0.0024546667 0.69999999 -0.04541133 9.9488309e-39 322 277
0.0036819996 0.69999999 -0.04541133 8.2889495e-39 323 277
0.0049093333 0.69999999 -0.04541133 4.6969423e-39 324 277
0.0061366665 0.69999999 -0.04541133 3.5902346e-39 325 277
0.0073745195 0.70099998 -0.045476202 2.3913256e-39 326 277
0.0086036054 0.70099998 -0.045476202 8.0152591e-39 327 277
0.0098326923 0.70099998 -0.045476202 1.1791295e-38 328 277
-0.013500666 0.69999999 -0.046638668 9.2148812e-39 309 278
-0.012273333 0.69999999 -0.046638668 3.4069251e-39 310 278
-0.011045999 0.69999999 -0.046638668 3.2221751e-39 311 278
-0.0097906133 0.69800001 -0.046505414 3.131427e-39 312 278
-0.0085667865 0.69800001 -0.046505414 3.0392314e-39 313 278
-0.0073429602 0.69800001 -0.046505414 3.0406607e-39 314 278
-0.006119133 0.69800001 -0.046505414 4.5154307e-39 315 278
-0.0048953067 0.69800001 -0.046505414 7.3716847e-39 316 278
-0.0036714801 0.69800001 -0.046505414 8.7546192e-39 317 278
-0.0024476533 0.69800001 -0.046505414 9.5796883e-39 318 278
-0.0012220733 0.69700003 -0.046438783 9.5796883e-39 319 278
0 0.69700003 -0.046438783 9.672237e-39 320 278
0.0012273333 0.69999999 -0.046638668 9.7644327e-39 321 278
0.0024546667 0.69999999 -0.046638668 1.0039943e-38 322 278
0.0036819996 0.69999999 -0.046638668 8.3807822e-39 323 278
0.0049093333 0.69999999 -0.046638668 4.6036634e-39 324 278
0.0061366665 0.69999999 -0.046638668 3.4973173e-39 325 278
0.0073745195 0.70099998 -0.046705291 2.3916914e-39 326 278
0.0086649731 0.70599997 -0.047038425 7.8315937e-39 327 278
-0.013462093 0.69800001 -0.047729239 9.3059951e-39 309 279
-0.012238266 0.69800001 -0.047729239 3.406572e-39 310 279
-0.011045999 0.69999999 -0.047865998 3.406572e-39 311 279
-0.0097906133 0.69800001 -0.047729239 3.1314242e-39 312 279
-0.0085667865 0.69800001 -0.047729239 2.947033e-39 313 279
-0.0073429602 0.69800001 -0.047729239 3.4994739e-39 314 279
-0.006119133 0.69800001 -0.047729239 4.6976583e-39 315 279
-0.0048953067 0.69800001 -0.047729239 7.0968929e-39 316 279
-0.0036714801 0.69800001 -0.047729239 8.5723817e-39 317 279
-0.0024476533 0.69800001 -0.047729239 9.4885745e-39 318 279
-0.0012220733 0.69700003 -0.047660861 9.4885745e-39 319 279
0 0.69700003 -0.047660861 9.4896464e-39 320 279
0.0012273333 0.69999999 -0.047865998 9.4896464e-39 321 279
0.0024546667 0.69999999 -0.047865998 9.8573542e-39 322 279
0.0036872597 0.70099998 -0.047934376 8.2903872e-39 323 279
0.0049163462 0.70099998 -0.047934376 4.6036634e-39 324 279
0.0061454331 0.70099998 -0.047934376 3.6820673e-39 325 279
0.0073955595 0.70300001 -0.048071139 2.2094511e-39 326 279
0.0086649731 0.70599997 -0.048276275 7.464602e-39 327 279
-0.013462093 0.69800001 -0.048953064 9.1226828e-39 309 280
-0.012238266 0.69800001 -0.048953064 3.4065692e-39 310 280
-0.011045999 0.69999999 -0.049093332 3.1299823e-39 311 280
-0.0097906133 0.69800001 -0.048953064 3.2232597e-39 312 280
-0.0085667865 0.69800001 -0.048953064 3.1310641e-39 313 280
-0.0073429602 0.69800001 -0.048953064 2.7655158e-39 314 280
-0.006119133 0.69800001 -0.048953064 4.0562546e-39 315 280
-0.0048953067 0.69800001 -0.048953064 7.1890913e-39 316 280
-0.0036714801 0.69800001 -0.048953064 9.0330039e-39 317 280
-0.0024476533 0.69800001 -0.048953064 9.5818421e-39 318 280
-0.0012238267 0.69800001 -0.048953064 9.4896464e-39 319 280
0 0.69800001 -0.048953064 9.7655075e-39 320 280
0.0012273333 0.69999999 -0.049093332 9.7655075e-39 321 280
0.0024546667 0.69999999 -0.049093332 1.0042464e-38 322 280
0.0036872597 0.70099998 -0.049163464 8.3833031e-39 323 280
0.0049163462 0.70099998 -0.049163464 4.6947899e-39 324 280
0.0061454331 0.70099998 -0.049163464 3.6802792e-39 325 280
0.0073955595 0.70300001 -0.049303733 2.301295e-39 326 280
-0.012273333 0.69999999 -0.050320663 3.2214563e-39 310 281
-0.011045999 0.69999999 -0.050320663 3.3140106e-39 311 281
-0.0098186666 0.69999999 -0.050320663 3.223973e-39 312 281
-0.0085913334 0.69999999 -0.050320663 3.0395817e-39 313 281
-0.0073429602 0.69800001 -0.050176892 3.4069195e-39 314 281
-0.006119133 0.69800001 -0.050176892 4.5132671e-39 315 281
-0.0048953067 0.69800001 -0.050176892 7.09653e-39 316 281
-0.0036714801 0.69800001 -0.050176892 9.0326382e-39 317 281
-0.0024476533 0.69800001 -0.050176892 9.5814876e-39 318 281
-0.0012238267 0.69800001 -0.050176892 9.5814876e-39 319 281
0 0.69800001 -0.050176892 9.5818421e-39 320 281
0.0012273333 0.69999999 -0.050320663 9.7662347e-39 321 281
0.0024546667 0.69999999 -0.050320663 9.8598737e-39 322 281
0.0036872597 0.70099998 -0.050392549 8.1081581e-39 323 281
0.0049163462 0.70099998 -0.050392549 4.7880589e-39 324 281
0.0061629666 0.70300001 -0.050536323 3.9582968e-39 325 281
0.0074060797 0.704 -0.050608214 2.3009279e-39 326 281
0.0086649731 0.70599997 -0.050751984 7.4638831e-39 327 281
-0.012273333 0.69999999 -0.051547997 2.9448652e-39 310 282
-0.011045999 0.69999999 -0.051547997 3.2218122e-39 311 282
-0.0098186666 0.69999999 -0.051547997 3.2232597e-39 312 282
-0.0085913334 0.69999999 -0.051547997 3.0385097e-39 313 282
-0.0073429602 0.69800001 -0.051400717 3.1317774e-39 314 282
-0.006119133 0.69800001 -0.051400717 4.3303205e-39 315 282
-0.0048953067 0.69800001 -0.051400717 7.3720378e-39 316 282
-0.0036714801 0.69800001 -0.051400717 9.3081461e-39 317 282
-0.0024476533 0.69800001 -0.051400717 9.8573542e-39 318 282
-0.0012238267 0.69800001 -0.051400717 9.7651585e-39 319 282
0 0.69800001 -0.051400717 9.7651543e-39 320 282
0.0012273333 0.69999999 -0.051547997 9.7651543e-39 321 282
0.0024546667 0.69999999 -0.051547997 1.0042467e-38 322 282
0.0036872597 0.70099998 -0.051621638 8.3829472e-39 323 282
0.0049163462 0.70099998 -0.051621638 4.8802573e-39 324 282
0.0061629666 0.70300001 -0.051768921 3.7739098e-39 325 282
0.0074060797 0.704 -0.051842559 2.208735e-39 326 282
0.0086649731 0.70599997 -0.051989835 7.4638859e-39 327 282
-0.012273333 0.69999999 -0.052775331 2.6693601e-39 310 283
-0.011045999 0.69999999 -0.052775331 3.2221751e-39 311 283
-0.0098186666 0.69999999 -0.052775331 3.2246947e-39 312 283
-0.0085913334 0.69999999 -0.052775331 2.9484679e-39 313 283
-0.0073429602 0.69800001 -0.052624546 3.22361e-39 314 283
-0.006119133 0.69800001 -0.052624546 4.5143489e-39 315 283
-0.0048953067 0.69800001 -0.052624546 7.4642363e-39 316 283
-0.0036714801 0.69800001 -0.052624546 9.4003445e-39 317 283
-0.0024476533 0.69800001 -0.052624546 9.9495526e-39 318 283
-0.0012238267 0.69800001 -0.052624546 9.8569982e-39 319 283
0 0.69800001 -0.052624546 9.8573514e-39 320 283
0.0012273333 0.69999999 -0.052775331 9.8573514e-39 321 283
0.0024581731 0.70099998 -0.052850723 9.8591548e-39 322 283
0.0036872597 0.70099998 -0.052850723 8.2914704e-39 323 283
0.0049303733 0.70300001 -0.053001512 4.8802545e-39 324 283
0.0061629666 0.70300001 -0.053001512 3.9582968e-39 325 283
0.0074271196 0.70599997 -0.053227689 2.2094539e-39 326 283
0.0086649731 0.70599997 -0.053227689 7.4646048e-39 327 283
-0.016730307 0.73400003 -0.056625653 1.1795623e-38 307 284
-0.013500666 0.69999999 -0.054002665 7.0039784e-39 309 284
-0.011045999 0.69999999 -0.054002665 3.1310585e-39 311 284
-0.0098186666 0.69999999 -0.054002665 3.0413824e-39 312 284
-0.0085913334 0.69999999 -0.054002665 2.9491868e-39 313 284
-0.0073429602 0.69800001 -0.053848371 3.4076384e-39 314 284
-0.006119133 0.69800001 -0.053848371 4.4221504e-39 315 284
-0.0048953067 0.69800001 -0.053848371 7.2802051e-39 316 284
-0.0036714801 0.69800001 -0.053848371 9.2163134e-39 317 284
-0.0024476533 0.69800001 -0.053848371 9.6744077e-39 318 284
-0.0012238267 0.69800001 -0.053848371 9.6744077e-39 319 284
0 0.69800001 -0.053848371 9.7662347e-39 320 284
0.0012325933 0.70300001 -0.054234106 9.7662347e-39 321 284
0.0024651866 0.70300001 -0.054234106 9.6754838e-39 322 284
0.0036977797 0.70300001 -0.054234106 8.1081581e-39 323 284
0.0049303733 0.70300001 -0.054234106 4.6054655e-39 324 284
0.0061717331 0.704 -0.054311249 3.5913136e-39 325 284
0.0074271196 0.70599997 -0.054465543 2.1183359e-39 326 284
0.0086649731 0.70599997 -0.054465543 7.1890941e-39 327 284
-0.011045999 0.69999999 -0.055229999 3.4991207e-39 311 285
-0.0098186666 0.69999999 -0.055229999 3.3172476e-39 312 285
-0.0085913334 0.69999999 -0.055229999 2.9484651e-39 313 285
-0.0073639993 0.69999999 -0.055229999 3.2250478e-39 314 285
-0.0061366665 0.69999999 -0.055229999 4.1470055e-39 315 285
-0.0049093333 0.69999999 -0.055229999 7.0961768e-39 316 285
-0.0036819996 0.69999999 -0.055229999 9.3085118e-39 317 285
-0.0024476533 0.69800001 -0.0550722 9.583291e-39 318 285
-0.0012238267 0.69800001 -0.0550722 9.4910954e-39 319 285
0 0.69999999 -0.055229999 9.7669536e-39 320 285
0.0012325933 0.70300001 -0.0554667 9.7669536e-39 321 285
0.0024651866 0.70300001 -0.0554667 9.9513477e-39 322 285
0.0037030398 0.704 -0.055545598 8.384022e-39 323 285
0.0049373866 0.704 -0.055545598 4.5139929e-39 324 285
0.0061717331 0.704 -0.055545598 3.4998396e-39 325 285
0.0074271196 0.70599997 -0.055703394 2.0261389e-39 326 285
-0.012290866 0.70099998 -0.056537982 3.2218094e-39 310 286
-0.011045999 0.69999999 -0.056457333 3.9593744e-39 311 286
-0.0098186666 0.69999999 -0.056457333 3.4094404e-39 312 286
-0.0085913334 0.69999999 -0.056457333 3.0410167e-39 313 286
-0.0073639993 0.69999999 -0.056457333 3.5898716e-39 314 286
-0.0061366665 0.69999999 -0.056457333 4.8806104e-39 315 286
-0.0049093333 0.69999999 -0.056457333 7.096174e-39 316 286
-0.0036819996 0.69999999 -0.056457333 9.0322822e-39 317 286
-0.0024476533 0.69800001 -0.056296028 9.582212e-39 318 286
-0.0012238267 0.69800001 -0.056296028 9.7666033e-39 319 286
0 0.70300001 -0.056699295 9.7669564e-39 320 286
0.0012325933 0.70300001 -0.056699295 9.7669564e-39 321 286
0.0024686933 0.704 -0.056779943 9.9517148e-39 322 286
0.0037030398 0.704 -0.056779943 8.1078022e-39 323 286
0.0049373866 0.704 -0.056779943 4.5143461e-39 324 286
0.0061892662 0.70599997 -0.056941248 3.6845854e-39 325 286
0.0074271196 0.70599997 -0.056941248 2.1194079e-39 326 286
-0.012290866 0.70099998 -0.057767071 4.880958e-39 310 287
-0.011061779 0.70099998 -0.057767071 4.880958e-39 311 287
-0.0098186666 0.69999999 -0.05768466 4.2359571e-39 312 287
-0.0085913334 0.69999999 -0.05768466 3.6827833e-39 313 287
-0.0073639993 0.69999999 -0.05768466 3.2246918e-39 314 287
-0.0061366665 0.69999999 -0.05768466 4.1470083e-39 315 287
-0.0049093333 0.69999999 -0.05768466 7.0961768e-39 316 287
-0.0036819996 0.69999999 -0.05768466 9.0322851e-39 317 287
-0.0024476533 0.69800001 -0.057519849 9.7666033e-39 318 287
-0.0012238267 0.69800001 -0.057519849 9.6744077e-39 319 287
0 0.70300001 -0.057931885 9.7662375e-39 320 287
0.0012325933 0.70300001 -0.057931885 9.7662375e-39 321 287
0.0024686933 0.704 -0.058014292 9.8595178e-39 322 287
0.0037030398 0.704 -0.058014292 8.2003566e-39 323 287
0.0049373866 0.704 -0.058014292 4.882058e-39 324 287
0.0061892662 0.70599997 -0.058179103 3.5913192e-39 325 287
0.0074271196 0.70599997 -0.058179103 2.1183387e-39 326 287
-0.012290866 0.70099998 -0.058996156 5.1586169e-39 310 288
-0.011061779 0.70099998 -0.058996156 4.9742256e-39 311 288
-0.0098326923 0.70099998 -0.058996156 3.8693326e-39 312 288
-0.0086036054 0.70099998 -0.058996156 3.5001899e-39 313 288
-0.0073639993 0.69999999 -0.058911994 3.7749846e-39 314 288
-0.0061366665 0.69999999 -0.058911994 4.6047466e-39 315 288
-0.0049163462 0.70099998 -0.058996156 7.0039784e-39 316 288
-0.0036872597 0.70099998 -0.058996156 9.0322822e-39 317 288
-0.0024546667 0.69999999 -0.058911994 9.673686e-39 318 288
-0.0012273333 0.69999999 -0.058911994 9.7658816e-39 319 288
0 0.70300001 -0.059164476 9.7662375e-39 320 288
0.0012325933 0.70300001 -0.059164476 9.9502687e-39 321 288
0.0024686933 0.704 -0.059248637 9.9513505e-39 322 288
0.0036977797 0.70300001 -0.059164476 8.2914704e-39 323 288
0.0049093333 0.69999999 -0.058911994 5.2490328e-39 324 288
0.0061366665 0.69999999 -0.058911994 4.050491e-39 325 288
-0.011061779 0.70099998 -0.060225245 6.2602799e-39 311 289
-0.0098326923 0.70099998 -0.060225245 4.5129013e-39 312 289
-0.0086281532 0.70300001 -0.06039707 3.9597275e-39 313 289
-0.0073639993 0.69999999 -0.060139328 3.7749846e-39 314 289
-0.0061366665 0.69999999 -0.060139328 4.512551e-39 315 289
-0.0049163462 0.70099998 -0.060225245 7.095095e-39 316 289
-0.0036872597 0.70099998 -0.060225245 9.2155945e-39 317 289
-0.0024546667 0.69999999 -0.060139328 9.7658844e-39 318 289
-0.0012273333 0.69999999 -0.060139328 9.7658844e-39 319 289
0 0.704 -0.060482983 9.7662375e-39 320 289
0.0012343467 0.704 -0.060482983 9.7662375e-39 321 289
0.0024686933 0.704 -0.060482983 1.0041745e-38 322 289
0.0036977797 0.70300001 -0.06039707 8.2903872e-39 323 289
0.0049093333 0.69999999 -0.060139328 4.7902099e-39 324 289
0.0061366665 0.69999999 -0.060139328 3.5916667e-39 325 289
0.0073639993 0.69999999 -0.060139328 2.1183331e-39 326 289
-0.011061779 0.70099998 -0.06145433 7.4563021e-39 311 290
-0.0098326923 0.70099998 -0.06145433 4.9738753e-39 312 290
-0.0086281532 0.70300001 -0.061629668 4.1441146e-39 313 290
-0.0073955595 0.70300001 -0.061629668 4.0497736e-39 314 290
-0.0061629666 0.70300001 -0.061629668 4.78734e-39 315 290
-0.0049303733 0.70300001 -0.061629668 6.9125016e-39 316 290
-0.0036977797 0.70300001 -0.061629668 8.9408055e-39 317 290
-0.0024651866 0.70300001 -0.061629668 9.6744077e-39 318 290
-0.0012343467 0.704 -0.061717331 9.582212e-39 319 290
0 0.704 -0.061717331 9.6740419e-39 320 290
0.0012343467 0.704 -0.061717331 9.6740419e-39 321 290
0.0024686933 0.704 -0.061717331 1.0132862e-38 322 290
0.0037030398 0.704 -0.061717331 8.4736995e-39 323 290
0.0049373866 0.704 -0.061717331 4.6983772e-39 324 290
0.0061717331 0.704 -0.061717331 3.4076384e-39 325 290
-0.01109334 0.70300001 -0.062862262 7.5510187e-39 311 291
-0.0098607466 0.70300001 -0.062862262 5.6174468e-39 312 291
-0.0086404262 0.704 -0.062951677 4.6032949e-39 313 291
-0.0074060797 0.704 -0.062951677 4.2330858e-39 314 291
-0.0061629666 0.70300001 -0.062862262 4.9706523e-39 315 291
-0.0049303733 0.70300001 -0.062862262 6.9117828e-39 316 291
-0.0037030398 0.704 -0.062951677 9.0322822e-39 317 291
-0.0024686933 0.704 -0.062951677 9.6733329e-39 318 291
-0.0012343467 0.704 -0.062951677 9.6733329e-39 319 291
0 0.70599997 -0.063130513 9.8562794e-39 320 291
0.0012378532 0.70599997 -0.063130513 9.9488337e-39 321 291
0.0024792133 0.70700002 -0.063219935 1.0041392e-38 322 291
0.0037188199 0.70700002 -0.063219935 8.4740666e-39 323 291
0.0049584266 0.70700002 -0.063219935 4.4221532e-39 324 291
-0.011109119 0.704 -0.064186029 7.82833e-39 311 292
-0.0098747732 0.704 -0.064186029 5.4355765e-39 312 292
-0.0086404262 0.704 -0.064186029 4.1448377e-39 313 292
-0.0074060797 0.704 -0.064186029 3.9593772e-39 314 292
-0.0061717331 0.704 -0.064186029 4.3277996e-39 315 292
-0.0049373866 0.704 -0.064186029 6.8192298e-39 316 292
-0.0037030398 0.704 -0.064186029 9.2163162e-39 317 292
-0.0024686933 0.704 -0.064186029 9.3985438e-39 318 292
-0.0012378532 0.70599997 -0.064368367 9.3063482e-39 319 292
0 0.70599997 -0.064368367 9.5807729e-39 320 292
0.0012378532 0.70599997 -0.064368367 9.5807729e-39 321 292
0.0024792133 0.70700002 -0.064459547 9.673686e-39 322 292
0.0037188199 0.70700002 -0.064459547 8.1985545e-39 323 292
0.0049654399 0.708 -0.06455072 4.6065193e-39 324 292
0.0062243328 0.70999998 -0.064733058 3.3157805e-39 325 292
-0.011109119 0.704 -0.065420374 7.646101e-39 311 293
-0.0098747732 0.704 -0.065420374 4.883123e-39 312 293
-0.0086404262 0.704 -0.065420374 4.3303079e-39 313 293
-0.0074060797 0.704 -0.065420374 4.0501267e-39 314 293
-0.0061717331 0.704 -0.065420374 4.7876931e-39 315 293
-0.0049373866 0.704 -0.065420374 6.91178e-39 316 293
-0.0037030398 0.704 -0.065420374 8.9404425e-39 317 293
-0.0024686933 0.704 -0.065420374 9.3978222e-39 318 293
-0.0012378532 0.70599997 -0.065606222 9.2134295e-39 319 293
0 0.70599997 -0.065606222 9.4885745e-39 320 293
0.0012396066 0.70700002 -0.065699153 9.3041832e-39 321 293
0.00248272 0.708 -0.065792084 9.0279634e-39 322 293
0.00372408 0.708 -0.065792084 8.0138101e-39 323 293
0.0049654399 0.708 -0.065792084 4.4225036e-39 324 293
0.0062243328 0.70999998 -0.065977924 3.5927429e-39 325 293
-0.011156459 0.70700002 -0.066938758 8.0134416e-39 311 294
-0.0099028256 0.70599997 -0.066844068 4.5128985e-39 312 294
-0.0086649731 0.70599997 -0.066844068 3.8675291e-39 313 294
-0.0074271196 0.70599997 -0.066844068 4.050491e-39 314 294
-0.0061717331 0.704 -0.066654719 4.6036634e-39 315 294
-0.0049373866 0.704 -0.066654719 6.9117828e-39 316 294
-0.0037030398 0.704 -0.066654719 8.9400866e-39 317 294
-0.0024686933 0.704 -0.066654719 9.3056251e-39 318 294
-0.0012378532 0.70599997 -0.066844068 9.1212339e-39 319 294
0 0.70599997 -0.066844068 8.7524528e-39 320 294
0.00124136 0.708 -0.067033432 8.5680601e-39 321 294
0.00248272 0.708 -0.067033432 8.3836688e-39 322 294
0.00372408 0.708 -0.067033432 7.2773213e-39 323 294
0.0049654399 0.708 -0.067033432 3.6885216e-39 324 294
-0.0099168532 0.70700002 -0.068178371 4.694752e-39 312 295
-0.0086649731 0.70599997 -0.06808193 3.5884045e-39 313 295
-0.0074271196 0.70599997 -0.06808193 3.1303186e-39 314 295
-0.0061892662 0.70599997 -0.06808193 4.1441118e-39 315 295
-0.0049373866 0.704 -0.067889065 6.6351917e-39 316 295
-0.0037030398 0.704 -0.067889065 8.9404425e-39 317 295
-0.0024686933 0.704 -0.067889065 9.3970977e-39 318 295
-0.0012378532 0.70599997 -0.06808193 9.1205122e-39 319 295
