# .PCD v.7 - Point Cloud Data file format
FIELDS x y z rgb imX imY
SIZE 4 4 4 4 4 4
TYPE F F F F F F
COUNT 1 1 1 1 1 1
WIDTH 851
HEIGHT 1
VIEWPOINT 0 0 0 1 0 0 0
POINTS 851
DATA ascii
-0.0024581731 0.70099998 0.039330769 3.8754338e-39 318 208
-0.0012290865 0.70099998 0.039330769 3.7832382e-39 319 208
0 0.70099998 0.039330769 3.7832382e-39 320 208
0.0012290865 0.70099998 0.039330769 3.5070114e-39 321 208
0.0024581731 0.70099998 0.039330769 3.4144599e-39 322 208
0.0036872597 0.70099998 0.039330769 3.4144599e-39 323 208
0.0049163462 0.70099998 0.039330769 3.597775e-39 324 208
0.0061454331 0.70099998 0.039330769 3.597775e-39 325 208
0.0073745195 0.70099998 0.039330769 3.4144627e-39 326 208
0.0086281532 0.70300001 0.039442986 3.5066583e-39 327 208
0.0098607466 0.70300001 0.039442986 3.6896048e-39 328 208
0.01109334 0.70300001 0.039442986 3.7818005e-39 329 208
0.012325933 0.70300001 0.039442986 3.6903237e-39 330 208
0.013558527 0.70300001 0.039442986 3.6903237e-39 331 208
0.014812159 0.704 0.039499093 3.5977722e-39 332 208
0.016046507 0.704 0.039499093 3.5055765e-39 333 208
0.017280852 0.704 0.039499093 3.597412e-39 334 208
0.018515198 0.704 0.039499093 3.6896076e-39 335 208
0.019749546 0.704 0.039499093 3.6896076e-39 336 208
0.020983893 0.704 0.039499093 3.6896076e-39 337 208
0.022218239 0.704 0.039499093 3.5055765e-39 338 208
0.023452586 0.704 0.039499093 3.5977722e-39 339 208
0.024686933 0.704 0.039499093 4.5171935e-39 340 208
0.02592128 0.704 0.039499093 5.2547585e-39 341 208
0.027155625 0.704 0.039499093 6.3592886e-39 342 208
0.028470624 0.70599997 0.039611302 6.7280725e-39 343 208
0.029708479 0.70599997 0.039611302 7.6467848e-39 344 208
0.030946331 0.70599997 0.039611302 7.7393406e-39 345 208
0.032184184 0.70599997 0.039611302 8.0141296e-39 346 208
0.033422034 0.70599997 0.039611302 8.0141296e-39 347 208
0.034659892 0.70599997 0.039611302 7.8304558e-39 348 208
0.035948593 0.70700002 0.039667413 7.9226528e-39 349 208
0.037188202 0.70700002 0.039667413 7.7393378e-39 350 208
0.038427804 0.70700002 0.039667413 7.8315334e-39 351 208
0.039723519 0.708 0.039723519 8.1981579e-39 352 208
0.040964879 0.708 0.039723519 8.1981579e-39 353 208
0.042206239 0.708 0.039723519 8.0148485e-39 354 208
0.043447599 0.708 0.039723519 8.1070441e-39 355 208
0.044688959 0.708 0.039723519 8.2903592e-39 356 208
0.045930319 0.708 0.039723519 8.1981635e-39 357 208
0.047304932 0.70999998 0.039835732 8.2903592e-39 358 208
0.048549797 0.70999998 0.039835732 8.1981635e-39 359 208
0.049864799 0.71100003 0.039891839 8.1981635e-39 360 208
0.051255193 0.713 0.040004052 8.1981635e-39 361 208
0.052505318 0.713 0.040004052 8.2900032e-39 362 208
0.053755447 0.713 0.040004052 8.2900032e-39 363 208
0.055005573 0.713 0.040004052 8.1978076e-39 364 208
0.0563346 0.71399999 0.040060159 8.2900032e-39 365 208
0.057586476 0.71399999 0.040060159 8.1066938e-39 366 208
0.058838356 0.71399999 0.040060159 7.9223025e-39 367 208
0.060090236 0.71399999 0.040060159 8.0137793e-39 368 208
0.061513945 0.71600002 0.040172372 8.0137793e-39 369 208
0.062769331 0.71600002 0.040172372 7.4623964e-39 370 208
0.064114138 0.71700001 0.040228479 7.0014182e-39 371 208
0.065553628 0.71899998 0.040340692 5.7146465e-39 372 208
0.066814266 0.71899998 0.040340692 5.1614727e-39 373 208
0.068074919 0.71899998 0.040340692 4.6101164e-39 374 208
0.069335558 0.71899998 0.040340692 4.7941475e-39 375 208
0.070988953 0.72299999 0.040565118 4.7941503e-39 376 208
0.072256617 0.72299999 0.040565118 4.886346e-39 377 208
0.073931053 0.727 0.040789545 4.4271699e-39 378 208
0.075619511 0.73100001 0.041013971 4.4271699e-39 379 208
0.076901197 0.73100001 0.041013971 4.6104849e-39 380 208
0.078182884 0.73100001 0.041013971 4.5182893e-39 381 208
0.07946457 0.73100001 0.041013971 4.4271727e-39 382 208
0.080967173 0.73299998 0.041126184 4.4271727e-39 383 208
0.082252368 0.73299998 0.041126184 4.7934441e-39 384 208
0.083651535 0.73400003 0.041182294 4.609413e-39 385 208
0.085401356 0.73799998 0.041406717 3.5963554e-39 386 208
0.086695313 0.73799998 0.041406717 1.7524428e-39 387 208
0.088346958 0.741 0.041575037 9.0341712e-42 388 208
-0.040438879 0.74400002 0.040438879 4.7949084e-39 289 209
-0.038976599 0.741 0.04027582 4.8867439e-39 290 209
-0.037575684 0.73900002 0.040167112 4.8867439e-39 291 209
-0.036230877 0.73799998 0.040112756 5.0700534e-39 292 209
-0.03474756 0.73400003 0.039895348 4.9778578e-39 293 209
-0.033415023 0.73299998 0.039840993 4.7938224e-39 294 209
-0.032129832 0.73299998 0.039840993 4.7016268e-39 295 209
-0.030634239 0.72799999 0.039569225 4.6087123e-39 296 209
-0.029317487 0.727 0.039514873 4.424321e-39 297 209
-0.02788852 0.72299999 0.039297458 4.1484558e-39 298 209
-0.026584039 0.722 0.039243106 3.9640646e-39 299 209
-0.025248 0.72000003 0.039134402 3.871513e-39 300 209
-0.023952285 0.71899998 0.039080046 3.7793174e-39 301 209
-0.022691639 0.71899998 0.039080046 3.5967212e-39 302 209
-0.021371379 0.71700001 0.038971342 3.8733081e-39 303 209
-0.020114239 0.71700001 0.038971342 3.7843396e-39 304 209
-0.0188308 0.71600002 0.038916986 4.0609265e-39 305 209
-0.017526319 0.71399999 0.038808275 4.5204571e-39 306 209
-0.01620606 0.71100003 0.038645219 4.6126528e-39 307 209
-0.014938398 0.70999998 0.038590867 4.5208088e-39 308 209
-0.013635674 0.70700002 0.038427804 4.5208088e-39 309 209
-0.012396066 0.70700002 0.038427804 4.4286104e-39 310 209
-0.011140679 0.70599997 0.038373452 4.2445793e-39 311 209
-0.0098747732 0.704 0.038264744 4.33534e-39 312 209
-0.0086281532 0.70300001 0.038210396 4.1509487e-39 313 209
-0.0073955595 0.70300001 0.038210396 3.8754366e-39 314 209
-0.0061629666 0.70300001 0.038210396 3.8754366e-39 315 209
-0.0049303733 0.70300001 0.038210396 3.4173326e-39 316 209
-0.0036977797 0.70300001 0.038210396 3.4173326e-39 317 209
-0.0024581731 0.70099998 0.038101684 3.600642e-39 318 209
-0.0012273333 0.69999999 0.038047329 3.4166109e-39 319 209
0 0.69999999 0.038047329 3.4155319e-39 320 209
0.0012290865 0.70099998 0.038101684 3.4155319e-39 321 209
0.0024581731 0.70099998 0.038101684 3.3233391e-39 322 209
0.0036819996 0.69999999 0.038047329 3.3233391e-39 323 209
0.0049093333 0.69999999 0.038047329 3.3229859e-39 324 209
0.0061454331 0.70099998 0.038101684 3.1389548e-39 325 209
0.0073745195 0.70099998 0.038101684 3.5055793e-39 326 209
0.0086036054 0.70099998 0.038101684 3.5055793e-39 327 209
0.0098326923 0.70099998 0.038101684 3.2300714e-39 328 209
0.011061779 0.70099998 0.038101684 3.3222671e-39 329 209
0.012290866 0.70099998 0.038101684 3.597775e-39 330 209
0.013519952 0.70099998 0.038101684 3.597775e-39 331 209
0.014791119 0.70300001 0.038210396 3.5048605e-39 332 209
0.016023712 0.70300001 0.038210396 3.5048605e-39 333 209
0.017256306 0.70300001 0.038210396 3.6885286e-39 334 209
0.018488899 0.70300001 0.038210396 3.7807243e-39 335 209
0.019721493 0.70300001 0.038210396 3.8729171e-39 336 209
0.020983893 0.704 0.038264744 3.8729171e-39 337 209
0.022218239 0.704 0.038264744 3.8729171e-39 338 209
0.023452586 0.704 0.038264744 3.9651127e-39 339 209
0.024686933 0.704 0.038264744 4.3356777e-39 340 209
0.02592128 0.704 0.038264744 5.4420239e-39 341 209
0.027155625 0.704 0.038264744 6.8188262e-39 342 209
0.028389972 0.704 0.038264744 7.2794442e-39 343 209
0.029624319 0.704 0.038264744 7.6467848e-39 344 209
0.030858666 0.704 0.038264744 7.7393406e-39 345 209
0.032093015 0.704 0.038264744 7.9226528e-39 346 209
0.03332736 0.704 0.038264744 7.9226528e-39 347 209
0.034659892 0.70599997 0.038373452 8.0144827e-39 348 209
0.035897743 0.70599997 0.038373452 8.1985139e-39 349 209
0.037188202 0.70700002 0.038427804 8.0152016e-39 350 209
0.038427804 0.70700002 0.038427804 8.0152016e-39 351 209
0.039667413 0.70700002 0.038427804 8.1981579e-39 352 209
0.040907022 0.70700002 0.038427804 8.1981579e-39 353 209
0.042206239 0.708 0.038482159 8.0148485e-39 354 209
0.043447599 0.708 0.038482159 8.0148485e-39 355 209
0.044688959 0.708 0.038482159 7.9222997e-39 356 209
0.045930319 0.708 0.038482159 7.9222997e-39 357 209
0.047171678 0.708 0.038482159 8.0148513e-39 358 209
0.048549797 0.70999998 0.038590867 8.0148513e-39 359 209
0.049794663 0.70999998 0.038590867 8.0137765e-39 360 209
0.051111419 0.71100003 0.038645219 8.0137765e-39 361 209
0.052358042 0.71100003 0.038645219 8.2892872e-39 362 209
0.053604662 0.71100003 0.038645219 8.2892872e-39 363 209
0.054851279 0.71100003 0.038645219 8.1978076e-39 364 209
0.056255698 0.713 0.038753927 8.1978076e-39 365 209
0.057505824 0.713 0.038753927 8.0148513e-39 366 209
0.058755953 0.713 0.038753927 8.0148513e-39 367 209
0.060006075 0.713 0.038753927 8.0141324e-39 368 209
0.061342116 0.71399999 0.038808275 7.9215767e-39 369 209
0.062593997 0.71399999 0.038808275 7.7375385e-39 370 209
0.064024724 0.71600002 0.038916986 7.5531473e-39 371 209
0.065371275 0.71700001 0.038971342 6.1738226e-39 372 209
0.066628419 0.71700001 0.038971342 5.5284531e-39 373 209
0.067885563 0.71700001 0.038971342 4.5186368e-39 374 209
0.069335558 0.71899998 0.039080046 4.5186368e-39 375 209
0.070596211 0.71899998 0.039080046 4.3356903e-39 376 209
0.072156675 0.722 0.039243106 4.3356903e-39 377 209
0.074236132 0.73000002 0.039677933 4.6108381e-39 378 209
0.075619511 0.73100001 0.039732285 4.6108381e-39 379 209
0.076901197 0.73100001 0.039732285 4.5182865e-39 380 209
0.078182884 0.73100001 0.039732285 4.6104821e-39 381 209
0.07946457 0.73100001 0.039732285 4.6104821e-39 382 209
0.080967173 0.73299998 0.039840993 4.7030365e-39 383 209
0.082252368 0.73299998 0.039840993 4.7030365e-39 384 209
0.083651535 0.73400003 0.039895348 4.7030365e-39 385 209
0.085401356 0.73799998 0.040112756 4.4271699e-39 386 209
0.086812794 0.73900002 0.040167112 3.1364311e-39 387 209
0.088346958 0.741 0.04027582 9.2701358e-40 388 209
0.089646183 0.741 0.04027582 1.9415256e-39 389 209
-0.04316356 0.74599999 0.039239597 4.7927462e-39 287 210
-0.04174336 0.74400002 0.039134398 4.425763e-39 288 210
-0.040330172 0.74199998 0.0390292 4.6097941e-39 289 210
-0.038976599 0.741 0.038976599 4.6097941e-39 290 210
-0.037524838 0.73799998 0.038818799 4.6097941e-39 291 210
-0.036034506 0.73400003 0.038608398 4.7016268e-39 292 210
-0.034700219 0.73299998 0.038555797 4.7016268e-39 293 210
-0.033278264 0.73000002 0.038398001 4.7927406e-39 294 210
-0.03186683 0.727 0.038240198 4.6087095e-39 295 210
-0.030508002 0.72500002 0.038135 4.5154363e-39 296 210
-0.029156178 0.72299999 0.038029801 4.2388508e-39 297 210
-0.027849946 0.722 0.0379772 4.0551784e-39 298 210
-0.026510401 0.72000003 0.037871998 4.0551784e-39 299 210
-0.025212931 0.71899998 0.037819397 3.8711445e-39 300 210
-0.02388566 0.71700001 0.037714198 3.8711445e-39 301 210
-0.02262852 0.71700001 0.037714198 3.5970743e-39 302 210
-0.021371379 0.71700001 0.037714198 3.7814656e-39 303 210
-0.020086186 0.71600002 0.037661601 3.9669302e-39 304 210
-0.018778199 0.71399999 0.037556399 4.1513215e-39 305 210
-0.01745268 0.71100003 0.037398599 4.5201012e-39 306 210
-0.016183265 0.70999998 0.037345998 4.5201012e-39 307 210
-0.01489632 0.708 0.0372408 4.5208088e-39 308 210
-0.013635674 0.70700002 0.037188202 4.5208088e-39 309 210
-0.012378532 0.70599997 0.037135597 4.4278887e-39 310 210
-0.011109119 0.704 0.037030395 4.3356931e-39 311 210
-0.0098747732 0.704 0.037030395 4.4260937e-39 312 210
-0.0086281532 0.70300001 0.036977798 4.4260937e-39 313 210
-0.0073955595 0.70300001 0.036977798 3.9672693e-39 314 210
-0.0061629666 0.70300001 0.036977798 4.1513019e-39 315 210
-0.0049303733 0.70300001 0.036977798 3.7846745e-39 316 210
-0.0036872597 0.70099998 0.036872596 3.6924775e-39 317 210
-0.0024581731 0.70099998 0.036872596 3.7832382e-39 318 210
-0.0012273333 0.69999999 0.036819998 3.5070114e-39 319 210
0 0.69999999 0.036819998 3.7818033e-39 320 210
0.0012273333 0.69999999 0.036819998 3.6896076e-39 321 210
0.0024546667 0.69999999 0.036819998 3.4144599e-39 322 210
0.0036819996 0.69999999 0.036819998 3.4144599e-39 323 210
0.0049093333 0.69999999 0.036819998 3.5055793e-39 324 210
0.0061366665 0.69999999 0.036819998 3.5055793e-39 325 210
0.0073639993 0.69999999 0.036819998 3.5970561e-39 326 210
0.0085913334 0.69999999 0.036819998 3.5970561e-39 327 210
0.0098186666 0.69999999 0.036819998 3.5055793e-39 328 210
0.011045999 0.69999999 0.036819998 3.3215482e-39 329 210
0.012290866 0.70099998 0.036872596 3.3211923e-39 330 210
0.013519952 0.70099998 0.036872596 3.3211923e-39 331 210
0.014749039 0.70099998 0.036872596 3.504143e-39 332 210
0.015978126 0.70099998 0.036872596 3.6881755e-39 333 210
0.017207211 0.70099998 0.036872596 3.6885286e-39 334 210
0.018436298 0.70099998 0.036872596 3.6885286e-39 335 210
0.019665385 0.70099998 0.036872596 3.5974092e-39 336 210
0.020954086 0.70300001 0.036977798 3.7818005e-39 337 210
0.02218668 0.70300001 0.036977798 3.7821564e-39 338 210
0.023419274 0.70300001 0.036977798 4.0583832e-39 339 210
0.024686933 0.704 0.037030395 4.7959356e-39 340 210
0.02592128 0.704 0.037030395 5.7175332e-39 341 210
0.027117053 0.70300001 0.036977798 6.6358769e-39 342 210
0.028349647 0.70300001 0.036977798 6.8206269e-39 343 210
0.029582238 0.70300001 0.036977798 7.6460716e-39 344 210
0.030814834 0.70300001 0.036977798 7.6460716e-39 345 210
0.032093015 0.704 0.037030395 7.9215767e-39 346 210
0.03332736 0.704 0.037030395 7.829381e-39 347 210
0.034561705 0.704 0.037030395 7.9219298e-39 348 210
0.035796054 0.704 0.037030395 7.9219298e-39 349 210
0.037135597 0.70599997 0.037135597 8.105598e-39 350 210
0.038373452 0.70599997 0.037135597 8.197795e-39 351 210
0.039611302 0.70599997 0.037135597 8.1977978e-39 352 210
0.040907022 0.70700002 0.037188202 8.105242e-39 353 210
0.042146627 0.70700002 0.037188202 8.1052448e-39 354 210
0.043386232 0.70700002 0.037188202 8.1052448e-39 355 210
0.044625837 0.70700002 0.037188202 8.1048917e-39 356 210
0.045865446 0.70700002 0.037188202 8.1048917e-39 357 210
0.047105055 0.70700002 0.037188202 7.9215795e-39 358 210
0.048413038 0.708 0.0372408 7.9215795e-39 359 210
0.049654398 0.708 0.0372408 7.9215795e-39 360 210
0.051039528 0.70999998 0.037345998 7.9215795e-39 361 210
0.052284397 0.70999998 0.037345998 8.1048945e-39 362 210
0.053604662 0.71100003 0.037398599 8.1970915e-39 363 210
0.054851279 0.71100003 0.037398599 8.1970887e-39 364 210
0.056097899 0.71100003 0.037398599 8.2896431e-39 365 210
0.057344519 0.71100003 0.037398599 8.1981607e-39 366 210
0.058755953 0.713 0.037503798 7.9219326e-39 367 210
0.060006075 0.713 0.037503798 8.0130492e-39 368 210
0.061256204 0.713 0.037503798 7.9208536e-39 369 210
0.062593997 0.71399999 0.037556399 7.644987e-39 370 210
0.063845873 0.71399999 0.037556399 7.3687602e-39 371 210
0.065097757 0.71399999 0.037556399 5.8972385e-39 372 210
0.066535495 0.71600002 0.037661601 5.0674778e-39 373 210
0.067885563 0.71700001 0.037714198 4.517918e-39 374 210
0.069142699 0.71700001 0.037714198 4.517918e-39 375 210
0.070596211 0.71899998 0.037819397 4.2431317e-39 376 210
0.071856856 0.71899998 0.037819397 4.2431317e-39 377 210
0.073524274 0.72299999 0.038029801 4.5179208e-39 378 210
0.07551606 0.73000002 0.038398001 4.5179208e-39 379 210
0.076796003 0.73000002 0.038398001 4.2427786e-39 380 210
0.078182884 0.73100001 0.038450599 4.2427786e-39 381 210
0.07946457 0.73100001 0.038450599 4.3349771e-39 382 210
0.080746263 0.73100001 0.038450599 4.4271727e-39 383 210
0.082252368 0.73299998 0.038555797 4.4278916e-39 384 210
0.083651535 0.73400003 0.038608398 4.4278916e-39 385 210
0.085169919 0.736 0.038713597 4.4278887e-39 386 210
0.086695313 0.73799998 0.038818799 4.4278887e-39 387 210
0.088346958 0.741 0.038976599 4.5172173e-39 388 210
0.089646183 0.741 0.038976599 2.5811091e-39 389 210
0.091068126 0.74199998 0.0390292 1.1179559e-41 390 210
-0.044531155 0.74699998 0.03798246 4.7016296e-39 286 211
-0.043047838 0.74400002 0.037829921 4.6090752e-39 287 211
-0.04174336 0.74400002 0.037829921 4.3335673e-39 288 211
-0.04027582 0.741 0.037677377 4.3335673e-39 289 211
-0.038713597 0.736 0.037423145 4.2424437e-39 290 211
-0.037321456 0.73400003 0.037321456 4.2424437e-39 291 211
-0.035985414 0.73299998 0.037270606 4.6094284e-39 292 211
-0.034605537 0.73100001 0.037168913 4.6094284e-39 293 211
-0.033141505 0.727 0.036965527 4.7920218e-39 294 211
-0.031779166 0.72500002 0.036863834 4.6998261e-39 295 211
-0.030423839 0.72299999 0.036762137 4.3314023e-39 296 211
-0.029115854 0.722 0.03671129 4.1470111e-39 297 211
-0.027772799 0.72000003 0.036609601 3.7796649e-39 298 211
-0.02647358 0.71899998 0.036558751 3.6874693e-39 299 211
-0.0251428 0.71700001 0.036457058 3.6878252e-39 300 211
-0.023852346 0.71600002 0.036406212 3.6878252e-39 301 211
-0.022596961 0.71600002 0.036406212 3.7796649e-39 302 211
-0.021341572 0.71600002 0.036406212 3.9644149e-39 303 211
-0.020030079 0.71399999 0.036304519 3.8747346e-39 304 211
-0.0186993 0.71100003 0.036151983 4.2438758e-39 305 211
-0.017428132 0.70999998 0.036101133 4.5204571e-39 306 211
-0.01613768 0.708 0.03599944 4.4282601e-39 307 211
-0.01487528 0.70700002 0.035948593 4.5197341e-39 308 211
-0.013616386 0.70599997 0.035897743 4.5197341e-39 309 211
-0.012378532 0.70599997 0.035897743 4.4268168e-39 310 211
-0.011109119 0.704 0.035796054 4.2424255e-39 311 211
-0.0098607466 0.70300001 0.035745207 4.4250189e-39 312 211
-0.0086281532 0.70300001 0.035745207 4.4250189e-39 313 211
-0.0073745195 0.70099998 0.035643511 3.9672693e-39 314 211
-0.0061454331 0.70099998 0.035643511 4.1513019e-39 315 211
-0.0049163462 0.70099998 0.035643511 4.1505788e-39 316 211
-0.0036872597 0.70099998 0.035643511 4.0583832e-39 317 211
-0.0024546667 0.69999999 0.035592664 3.9658344e-39 318 211
-0.0012273333 0.69999999 0.035592664 3.6896076e-39 319 211
0 0.69999999 0.035592664 3.8729199e-39 320 211
0.0012273333 0.69999999 0.035592664 3.9651155e-39 321 211
0.0024546667 0.69999999 0.035592664 3.5977722e-39 322 211
0.0036819996 0.69999999 0.035592664 3.5977722e-39 323 211
0.0049093333 0.69999999 0.035592664 3.6892517e-39 324 211
0.0061366665 0.69999999 0.035592664 3.5970561e-39 325 211
0.0073639993 0.69999999 0.035592664 3.5055821e-39 326 211
0.0085913334 0.69999999 0.035592664 3.5977778e-39 327 211
0.0098186666 0.69999999 0.035592664 3.5055821e-39 328 211
0.011045999 0.69999999 0.035592664 3.3211923e-39 329 211
0.012273333 0.69999999 0.035592664 3.3211951e-39 330 211
0.013500666 0.69999999 0.035592664 3.3211951e-39 331 211
0.014727999 0.69999999 0.035592664 3.5045073e-39 332 211
0.015955333 0.69999999 0.035592664 3.4123103e-39 333 211
0.017207211 0.70099998 0.035643511 3.6881727e-39 334 211
0.018436298 0.70099998 0.035643511 3.7803683e-39 335 211
0.019665385 0.70099998 0.035643511 3.6896076e-39 336 211
0.020894472 0.70099998 0.035643511 3.6896076e-39 337 211
0.022123558 0.70099998 0.035643511 4.2409766e-39 338 211
0.023352645 0.70099998 0.035643511 4.5179236e-39 339 211
0.024581732 0.70099998 0.035643511 5.2561921e-39 340 211
0.025810819 0.70099998 0.035643511 5.8093658e-39 341 211
0.027039904 0.70099998 0.035643511 6.9113876e-39 342 211
0.028268991 0.70099998 0.035643511 7.0961376e-39 343 211
0.029582238 0.70300001 0.035745207 7.6464373e-39 344 211
0.030814834 0.70300001 0.035745207 7.6464373e-39 345 211
0.032047424 0.70300001 0.035745207 7.9215823e-39 346 211
0.033280019 0.70300001 0.035745207 7.8290279e-39 347 211
0.034512613 0.70300001 0.035745207 8.1052448e-39 348 211
0.035796054 0.704 0.035796054 8.0130492e-39 349 211
0.037030395 0.704 0.035796054 8.1970747e-39 350 211
0.038264744 0.704 0.035796054 8.1970747e-39 351 211
0.039499093 0.704 0.035796054 8.1052448e-39 352 211
0.040849157 0.70599997 0.035897743 8.1052448e-39 353 211
0.042087011 0.70599997 0.035897743 8.1967244e-39 354 211
0.043324865 0.70599997 0.035897743 8.1045288e-39 355 211
0.044625837 0.70700002 0.035948593 8.1041728e-39 356 211
0.04580057 0.70599997 0.035897743 8.1041728e-39 357 211
0.047038425 0.70599997 0.035897743 7.8293838e-39 358 211
0.048344657 0.70700002 0.035948593 7.8293838e-39 359 211
0.049584266 0.70700002 0.035948593 8.0126961e-39 360 211
0.050895758 0.708 0.03599944 8.1048917e-39 361 211
0.052284397 0.70999998 0.036101133 8.1048945e-39 362 211
0.053529263 0.70999998 0.036101133 8.1048945e-39 363 211
0.054774132 0.70999998 0.036101133 7.9215795e-39 364 211
0.056097899 0.71100003 0.036151983 7.9215795e-39 365 211
0.057344519 0.71100003 0.036151983 7.9226528e-39 366 211
0.058591139 0.71100003 0.036151983 7.9226528e-39 367 211
0.059837762 0.71100003 0.036151983 8.0126933e-39 368 211
0.061256204 0.713 0.036253672 7.9204977e-39 369 211
0.062593997 0.71399999 0.036304519 7.7371826e-39 370 211
0.063845873 0.71399999 0.036304519 7.3687602e-39 371 211
0.065097757 0.71399999 0.036304519 6.5390079e-39 372 211
0.066349633 0.71399999 0.036304519 5.9861943e-39 373 211
0.067790881 0.71600002 0.036406212 4.5186396e-39 374 211
0.069142699 0.71700001 0.036457058 4.334247e-39 375 211
0.070399836 0.71700001 0.036457058 4.3331722e-39 376 211
0.071856856 0.71899998 0.036558751 4.3331722e-39 377 211
0.073117502 0.71899998 0.036558751 4.334247e-39 378 211
0.075309172 0.72799999 0.037016369 4.334247e-39 379 211
0.076796003 0.73000002 0.037118066 4.333891e-39 380 211
0.078075938 0.73000002 0.037118066 4.1498599e-39 381 211
0.07946457 0.73100001 0.037168913 4.3338967e-39 382 211
0.080746263 0.73100001 0.037168913 4.5182893e-39 383 211
0.082252368 0.73299998 0.037270606 4.5179334e-39 384 211
0.083651535 0.73400003 0.037321456 4.6104877e-39 385 211
0.085169919 0.736 0.037423145 4.7937972e-39 386 211
0.086695313 0.73799998 0.037524838 4.7937972e-39 387 211
0.088346958 0.741 0.037677377 4.6097633e-39 388 211
0.089646183 0.741 0.037677377 4.2409794e-39 389 211
0.091068126 0.74199998 0.037728224 2.3077844e-39 390 211
0.092369102 0.74199998 0.037728224 2.0308374e-39 391 211
0.093922555 0.74400002 0.037829921 1.1351807e-39 392 211
-0.044471547 0.74599999 0.036623627 4.7927434e-39 286 212
-0.042932119 0.74199998 0.036427252 4.6087123e-39 287 212
-0.041575037 0.741 0.036378156 4.2420906e-39 288 212
-0.04027582 0.741 0.036378156 4.149895e-39 289 212
-0.038608398 0.73400003 0.036034506 4.1498922e-39 290 212
-0.037270606 0.73299998 0.035985414 4.1498922e-39 291 212
-0.035838135 0.73000002 0.035838135 4.3339205e-39 292 212
-0.034463517 0.72799999 0.035739943 4.2417248e-39 293 212
-0.033050332 0.72500002 0.035592668 4.5165139e-39 294 212
-0.031691495 0.72299999 0.035494477 4.3321212e-39 295 212
-0.030381758 0.722 0.035445385 4.1477271e-39 296 212
-0.029035201 0.72000003 0.035347197 4.0555315e-39 297 212
-0.027772799 0.72000003 0.035347197 3.8715004e-39 298 212
-0.02647358 0.71899998 0.035298105 3.686749e-39 299 212
-0.0251428 0.71700001 0.035199918 3.5034367e-39 300 212
-0.023852346 0.71600002 0.035150826 3.5034367e-39 301 212
-0.022596961 0.71600002 0.035150826 3.5038039e-39 302 212
-0.021341572 0.71600002 0.035150826 3.7807495e-39 303 212
-0.01994592 0.71100003 0.034905359 3.7832648e-39 304 212
-0.018672999 0.70999998 0.034856264 4.0598503e-39 305 212
-0.017428132 0.70999998 0.034856264 4.4279042e-39 306 212
-0.016114887 0.70700002 0.034708988 4.4279042e-39 307 212
-0.014854239 0.70599997 0.034659892 4.243873e-39 308 212
-0.013616386 0.70599997 0.034659892 4.243873e-39 309 212
-0.012343466 0.704 0.034561705 4.5175831e-39 310 212
-0.011109119 0.704 0.034561705 4.3331918e-39 311 212
-0.0098607466 0.70300001 0.034512613 4.1502327e-39 312 212
-0.0086036054 0.70099998 0.034414422 4.1502327e-39 313 212
-0.0073745195 0.70099998 0.034414422 4.1502257e-39 314 212
-0.0061454331 0.70099998 0.034414422 4.05803e-39 315 212
-0.0049093333 0.69999999 0.034365334 4.3324589e-39 316 212
-0.0036819996 0.69999999 0.034365334 4.2399046e-39 317 212
-0.0024546667 0.69999999 0.034365334 3.7818033e-39 318 212
-0.0012273333 0.69999999 0.034365334 3.7818033e-39 319 212
0 0.69999999 0.034365334 3.7818033e-39 320 212
0.0012273333 0.69999999 0.034365334 3.7818033e-39 321 212
0.0024546667 0.69999999 0.034365334 3.7814473e-39 322 212
0.0036819996 0.69999999 0.034365334 3.6892517e-39 323 212
0.0049093333 0.69999999 0.034365334 3.6892545e-39 324 212
0.0061366665 0.69999999 0.034365334 3.6892545e-39 325 212
0.0073639993 0.69999999 0.034365334 3.6892545e-39 326 212
0.0085913334 0.69999999 0.034365334 3.5970589e-39 327 212
0.0098186666 0.69999999 0.034365334 3.5970589e-39 328 212
0.011045999 0.69999999 0.034365334 3.5970589e-39 329 212
0.012273333 0.69999999 0.034365334 3.5055821e-39 330 212
0.013500666 0.69999999 0.034365334 3.5055821e-39 331 212
0.014727999 0.69999999 0.034365334 3.5048633e-39 332 212
0.015955333 0.69999999 0.034365334 3.5048633e-39 333 212
0.017182667 0.69999999 0.034365334 3.7803683e-39 334 212
0.018436298 0.70099998 0.034414422 3.6881727e-39 335 212
0.019665385 0.70099998 0.034414422 3.5970561e-39 336 212
0.020894472 0.70099998 0.034414422 3.5970561e-39 337 212
0.022123558 0.70099998 0.034414422 3.5984784e-39 338 212
0.023352645 0.70099998 0.034414422 4.4282391e-39 339 212
0.024581732 0.70099998 0.034414422 6.54081e-39 340 212
0.025810819 0.70099998 0.034414422 7.0939838e-39 341 212
0.027039904 0.70099998 0.034414422 7.1872542e-39 342 212
0.028268991 0.70099998 0.034414422 7.3716455e-39 343 212
0.029498078 0.70099998 0.034414422 7.6464373e-39 344 212
0.030727165 0.70099998 0.034414422 7.6464373e-39 345 212
0.032047424 0.70300001 0.034512613 7.8290279e-39 346 212
0.033280019 0.70300001 0.034512613 7.8290279e-39 347 212
0.034512613 0.70300001 0.034512613 7.829737e-39 348 212
0.035745207 0.70300001 0.034512613 7.7371826e-39 349 212
0.037030395 0.704 0.034561705 7.9219326e-39 350 212
0.038264744 0.704 0.034561705 7.829737e-39 351 212
0.039499093 0.704 0.034561705 8.0126933e-39 352 212
0.040733438 0.704 0.034561705 8.0126933e-39 353 212
0.042087011 0.70599997 0.034659892 7.8293838e-39 354 212
0.043324865 0.70599997 0.034659892 7.8293838e-39 355 212
0.044562716 0.70599997 0.034659892 8.01198e-39 356 212
0.04580057 0.70599997 0.034659892 8.01198e-39 357 212
0.047038425 0.70599997 0.034659892 8.0116241e-39 358 212
0.048276275 0.70599997 0.034659892 8.0116241e-39 359 212
0.049584266 0.70700002 0.034708988 7.7368323e-39 360 212
0.050823875 0.70700002 0.034708988 7.8290279e-39 361 212
0.052137118 0.708 0.034758076 7.8290279e-39 362 212
0.053378478 0.708 0.034758076 7.9215823e-39 363 212
0.054774132 0.70999998 0.034856264 7.6467904e-39 364 212
0.056018997 0.70999998 0.034856264 7.6467904e-39 365 212
0.057263866 0.70999998 0.034856264 7.8300999e-39 366 212
0.058591139 0.71100003 0.034905359 7.6460688e-39 367 212
0.059837762 0.71100003 0.034905359 8.0126961e-39 368 212
0.061084379 0.71100003 0.034905359 7.9205005e-39 369 212
0.062506333 0.713 0.035003547 7.4616747e-39 370 212
0.063845873 0.71399999 0.035052639 7.3694791e-39 371 212
0.065097757 0.71399999 0.035052639 6.9999735e-39 372 212
0.066349633 0.71399999 0.035052639 6.5389953e-39 373 212
0.067601517 0.71399999 0.035052639 4.9767283e-39 374 212
0.069046266 0.71600002 0.035150826 4.7923357e-39 375 212
0.070399836 0.71700001 0.035199918 4.5161243e-39 376 212
0.07165698 0.71700001 0.035199918 4.6083199e-39 377 212
0.073117502 0.71899998 0.035298105 4.3331722e-39 378 212
0.074378148 0.71899998 0.035298105 4.3331722e-39 379 212
0.075638793 0.71899998 0.035298105 4.0576671e-39 380 212
0.078075938 0.73000002 0.035838135 3.9651127e-39 381 212
0.079355866 0.73000002 0.035838135 3.9658372e-39 382 212
0.080635801 0.73000002 0.035838135 4.0580328e-39 383 212
0.082027942 0.73100001 0.035887226 4.0576825e-39 384 212
0.083651535 0.73400003 0.036034506 4.0576825e-39 385 212
0.085169919 0.736 0.036132693 4.3331918e-39 386 212
0.086695313 0.73799998 0.036230877 4.4253874e-39 387 212
0.08810851 0.73900002 0.036279973 4.3349771e-39 388 212
0.089646183 0.741 0.036378156 4.4271727e-39 389 212
0.091068126 0.74199998 0.036427252 4.7945259e-39 390 212
0.092369102 0.74199998 0.036427252 2.2130482e-39 391 212
0.093922555 0.74400002 0.036525439 9.3802919e-42 392 212
0.095483027 0.74599999 0.036623627 4.9944267e-39 393 212
-0.045840897 0.74699998 0.035362978 4.7023485e-39 285 213
-0.044352323 0.74400002 0.035220962 4.6090752e-39 286 213
-0.042932119 0.74199998 0.03512628 4.5168796e-39 287 213
-0.041575037 0.741 0.035078939 4.2413717e-39 288 213
-0.040167112 0.73900002 0.034984261 4.2413717e-39 289 213
-0.038555797 0.73299998 0.034700219 3.9665799e-39 290 213
-0.037168913 0.73100001 0.034605537 3.9665799e-39 291 213
-0.035739943 0.72799999 0.034463517 4.241722e-39 292 213
-0.03441618 0.727 0.03441618 4.4261133e-39 293 213
-0.032959159 0.72299999 0.03422682 4.242794e-39 294 213
-0.031647664 0.722 0.034179479 4.1505984e-39 295 213
-0.0302976 0.72000003 0.034084801 3.8740115e-39 296 213
-0.029035201 0.72000003 0.034084801 3.6896203e-39 297 213
-0.027734226 0.71899998 0.03403746 3.8714976e-39 298 213
-0.02639994 0.71700001 0.033942781 3.6871049e-39 299 213
-0.0251428 0.71700001 0.033942781 3.686749e-39 300 213
-0.023852346 0.71600002 0.03389544 3.5945534e-39 301 213
-0.022596961 0.71600002 0.03389544 3.6874693e-39 302 213
-0.021192541 0.71100003 0.033658739 3.9644149e-39 303 213
-0.019917866 0.70999998 0.033611398 4.0576825e-39 304 213
-0.0186204 0.708 0.033516716 4.3342708e-39 305 213
-0.017354494 0.70700002 0.033469379 4.4275412e-39 306 213
-0.016114887 0.70700002 0.033469379 4.4275412e-39 307 213
-0.014854239 0.70599997 0.033422034 4.2442262e-39 308 213
-0.013577812 0.704 0.03332736 4.1520305e-39 309 213
-0.012343466 0.704 0.03332736 4.2424227e-39 310 213
-0.01109334 0.70300001 0.033280019 4.1502257e-39 311 213
-0.0098607466 0.70300001 0.033280019 4.0580328e-39 312 213
-0.0086036054 0.70099998 0.03318534 4.0580328e-39 313 213
-0.0073639993 0.69999999 0.033137999 4.0576797e-39 314 213
-0.0061366665 0.69999999 0.033137999 3.9654841e-39 315 213
-0.0049093333 0.69999999 0.033137999 4.1480747e-39 316 213
-0.0036819996 0.69999999 0.033137999 4.055879e-39 317 213
-0.0024546667 0.69999999 0.033137999 3.8729199e-39 318 213
-0.0012273333 0.69999999 0.033137999 3.8729199e-39 319 213
0 0.69999999 0.033137999 3.6896076e-39 320 213
0.0012273333 0.69999999 0.033137999 3.6896076e-39 321 213
0.0024546667 0.69999999 0.033137999 3.8729199e-39 322 213
0.0036819996 0.69999999 0.033137999 3.7807243e-39 323 213
0.0049093333 0.69999999 0.033137999 3.6892517e-39 324 213
0.0061366665 0.69999999 0.033137999 3.6892517e-39 325 213
0.0073429602 0.69800001 0.033043321 3.5055793e-39 326 213
0.0085667865 0.69800001 0.033043321 3.5055793e-39 327 213
0.0097906133 0.69800001 0.033043321 3.5970561e-39 328 213
0.011045999 0.69999999 0.033137999 3.5970561e-39 329 213
0.012273333 0.69999999 0.033137999 3.3222671e-39 330 213
0.013500666 0.69999999 0.033137999 3.3222671e-39 331 213
0.014727999 0.69999999 0.033137999 3.5048605e-39 332 213
0.015955333 0.69999999 0.033137999 3.5048605e-39 333 213
0.017182667 0.69999999 0.033137999 3.5048605e-39 334 213
0.018409999 0.69999999 0.033137999 3.5048605e-39 335 213
0.019637333 0.69999999 0.033137999 3.6885286e-39 336 213
0.020864666 0.69999999 0.033137999 3.6885286e-39 337 213
0.022091998 0.69999999 0.033137999 3.4133669e-39 338 213
0.023319334 0.69999999 0.033137999 4.7963013e-39 339 213
0.024546666 0.69999999 0.033137999 7.0010679e-39 340 213
0.025773998 0.69999999 0.033137999 7.1854606e-39 341 213
0.027001332 0.69999999 0.033137999 7.2783751e-39 342 213
0.028228667 0.69999999 0.033137999 7.463125e-39 343 213
0.029498078 0.70099998 0.03318534 7.8297496e-39 344 213
0.030727165 0.70099998 0.03318534 7.8297496e-39 345 213
0.031956252 0.70099998 0.03318534 7.6464345e-39 346 213
0.03318534 0.70099998 0.03318534 7.5542389e-39 347 213
0.034414422 0.70099998 0.03318534 8.0126933e-39 348 213
0.035745207 0.70300001 0.033280019 7.9204977e-39 349 213
0.036977798 0.70300001 0.033280019 8.0119744e-39 350 213
0.038264744 0.704 0.03332736 8.0119744e-39 351 213
0.039499093 0.704 0.03332736 7.7371854e-39 352 213
0.040733438 0.704 0.03332736 7.829381e-39 353 213
0.041967787 0.704 0.03332736 7.7371882e-39 354 213
0.043202132 0.704 0.03332736 7.7371882e-39 355 213
0.044562716 0.70599997 0.033422034 8.01198e-39 356 213
0.04580057 0.70599997 0.033422034 7.9194257e-39 357 213
0.047038425 0.70599997 0.033422034 7.9190627e-39 358 213
0.048276275 0.70599997 0.033422034 8.1030938e-39 359 213
0.049584266 0.70700002 0.033469379 7.7364693e-39 360 213
0.050823875 0.70700002 0.033469379 8.0126961e-39 361 213
0.05206348 0.70700002 0.033469379 7.8293838e-39 362 213
0.053378478 0.708 0.033516716 7.8293838e-39 363 213
0.054619838 0.708 0.033516716 7.6460716e-39 364 213
0.056018997 0.70999998 0.033611398 7.6460716e-39 365 213
0.057263866 0.70999998 0.033611398 7.8290279e-39 366 213
0.058508728 0.70999998 0.033611398 7.8290279e-39 367 213
0.059753593 0.70999998 0.033611398 7.7368351e-39 368 213
0.061084379 0.71100003 0.033658739 7.8290307e-39 369 213
0.062506333 0.713 0.033753417 7.4620404e-39 370 213
0.063756458 0.713 0.033753417 7.1858137e-39 371 213
0.065006584 0.713 0.033753417 6.7255572e-39 372 213
0.066349633 0.71399999 0.033800758 5.9879922e-39 373 213
0.067601517 0.71399999 0.033800758 4.9770969e-39 374 213
0.069046266 0.71600002 0.03389544 4.6083143e-39 375 213
0.070301652 0.71600002 0.03389544 4.3324561e-39 376 213
0.07165698 0.71700001 0.033942781 4.3324561e-39 377 213
0.072914116 0.71700001 0.033942781 4.2402605e-39 378 213
0.074378148 0.71899998 0.03403746 4.2402605e-39 379 213
0.075638793 0.71899998 0.03403746 3.7818033e-39 380 213
0.077220306 0.722 0.034179479 3.7818033e-39 381 213
0.079355866 0.73000002 0.034558199 3.6896048e-39 382 213
0.080635801 0.73000002 0.034558199 3.7818005e-39 383 213
0.082027942 0.73100001 0.034605537 4.0573112e-39 384 213
0.083537564 0.73299998 0.034700219 4.0573112e-39 385 213
0.085169919 0.736 0.034842238 4.1495124e-39 386 213
0.086695313 0.73799998 0.034936916 4.1495124e-39 387 213
0.08810851 0.73900002 0.034984261 4.6083368e-39 388 213
0.089646183 0.741 0.035078939 4.792728e-39 389 213
0.091068126 0.74199998 0.03512628 4.7023274e-39 390 213
0.092369102 0.74199998 0.03512628 4.6101318e-39 391 213
0.093670078 0.74199998 0.03512628 3.5960051e-39 392 213
0.09522704 0.74400002 0.035220962 1.9361236e-39 393 213
0.096791007 0.74599999 0.03531564 8.6362305e-40 394 213
-0.045779534 0.74599999 0.034007654 4.701624e-39 285 214
-0.044173479 0.741 0.033779722 4.7927406e-39 286 214
-0.042758539 0.73900002 0.033688545 4.6087095e-39 287 214
-0.041182294 0.73400003 0.033460613 4.4261161e-39 288 214
-0.039895348 0.73400003 0.033460613 4.4261161e-39 289 214
-0.038555797 0.73299998 0.033415023 4.5193837e-39 290 214
-0.037168913 0.73100001 0.033323854 4.4271881e-39 291 214
-0.035739943 0.72799999 0.033187091 4.6119339e-39 292 214
-0.034321502 0.72500002 0.033050332 4.6119339e-39 293 214
-0.032913569 0.722 0.032913569 4.520806e-39 294 214
-0.031647664 0.722 0.032913569 4.2445793e-39 295 214
-0.0302976 0.72000003 0.0328224 4.0598293e-39 296 214
-0.028994869 0.71899998 0.032776814 3.783241e-39 297 214
-0.027734226 0.71899998 0.032776814 4.055163e-39 298 214
-0.02639994 0.71700001 0.032685637 3.6863805e-39 299 214
-0.025107734 0.71600002 0.032640055 3.8700613e-39 300 214
-0.02378572 0.71399999 0.032548878 3.6860301e-39 301 214
-0.022439159 0.71100003 0.032412119 3.6867518e-39 302 214
-0.021162732 0.70999998 0.032366529 3.8711445e-39 303 214
-0.01986176 0.708 0.03227536 3.7814656e-39 304 214
-0.018594101 0.70700002 0.032229774 4.2424437e-39 305 214
-0.017329946 0.70599997 0.032184184 4.1523963e-39 306 214
-0.016092092 0.70599997 0.032184184 4.1523963e-39 307 214
-0.014812159 0.704 0.032093015 4.060195e-39 308 214
-0.013577812 0.704 0.032093015 3.9679994e-39 309 214
-0.012325933 0.70300001 0.032047424 3.8747206e-39 310 214
-0.011061779 0.70099998 0.031956252 3.7821662e-39 311 214
-0.0098326923 0.70099998 0.031956252 3.5995756e-39 312 214
-0.0085913334 0.69999999 0.031910665 3.5995756e-39 313 214
-0.0073639993 0.69999999 0.031910665 3.9654841e-39 314 214
-0.0061366665 0.69999999 0.031910665 3.781453e-39 315 214
-0.0049093333 0.69999999 0.031910665 3.8725668e-39 316 214
-0.0036819996 0.69999999 0.031910665 3.8725668e-39 317 214
-0.0024546667 0.69999999 0.031910665 3.5055793e-39 318 214
-0.0012273333 0.69999999 0.031910665 3.5055793e-39 319 214
0 0.69800001 0.031819493 3.597412e-39 320 214
0.0012238267 0.69800001 0.031819493 3.6896076e-39 321 214
0.0024476533 0.69800001 0.031819493 3.5970561e-39 322 214
0.0036714801 0.69800001 0.031819493 3.5970561e-39 323 214
0.0048953067 0.69800001 0.031819493 3.7803683e-39 324 214
0.006119133 0.69800001 0.031819493 3.7803683e-39 325 214
0.0073429602 0.69800001 0.031819493 3.5970561e-39 326 214
0.0085667865 0.69800001 0.031819493 3.5970561e-39 327 214
0.0097906133 0.69800001 0.031819493 3.5055793e-39 328 214
0.01101444 0.69800001 0.031819493 3.5055793e-39 329 214
0.012238266 0.69800001 0.031819493 3.6892517e-39 330 214
0.013462093 0.69800001 0.031819493 3.5970561e-39 331 214
0.014727999 0.69999999 0.031910665 3.5048577e-39 332 214
0.015955333 0.69999999 0.031910665 3.5048577e-39 333 214
0.017182667 0.69999999 0.031910665 3.6885286e-39 334 214
0.018409999 0.69999999 0.031910665 3.6885286e-39 335 214
0.019637333 0.69999999 0.031910665 3.6874553e-39 336 214
0.020864666 0.69999999 0.031910665 3.8718479e-39 337 214
0.022091998 0.69999999 0.031910665 3.5070114e-39 338 214
0.023319334 0.69999999 0.031910665 5.073977e-39 339 214
0.024546666 0.69999999 0.031910665 7.3712924e-39 340 214
0.025773998 0.69999999 0.031910665 7.1869011e-39 341 214
0.027001332 0.69999999 0.031910665 7.2790939e-39 342 214
0.028228667 0.69999999 0.031910665 7.2790939e-39 343 214
0.029455997 0.69999999 0.031910665 7.6460814e-39 344 214
0.030683333 0.69999999 0.031910665 7.6460814e-39 345 214
0.031910665 0.69999999 0.031910665 7.6457156e-39 346 214
0.033137999 0.69999999 0.031910665 7.6457156e-39 347 214
0.034414422 0.70099998 0.031956252 7.7364693e-39 348 214
0.035643511 0.70099998 0.031956252 7.7364693e-39 349 214
0.036977798 0.70300001 0.032047424 7.6446366e-39 350 214
0.038210396 0.70300001 0.032047424 7.6446366e-39 351 214
0.039442986 0.70300001 0.032047424 7.4620404e-39 352 214
0.040675577 0.70300001 0.032047424 7.5542361e-39 353 214
0.041967787 0.704 0.032093015 7.7371854e-39 354 214
0.043202132 0.704 0.032093015 7.7371854e-39 355 214
0.044562716 0.70599997 0.032184184 7.6449926e-39 356 214
0.04580057 0.70599997 0.032184184 7.6449926e-39 357 214
0.047038425 0.70599997 0.032184184 7.9190627e-39 358 214
0.048276275 0.70599997 0.032184184 8.1030938e-39 359 214
0.04951413 0.70599997 0.032184184 7.7364693e-39 360 214
0.050751984 0.70599997 0.032184184 7.7364693e-39 361 214
0.05206348 0.70700002 0.032229774 7.7368323e-39 362 214
0.053303085 0.70700002 0.032229774 7.9215823e-39 363 214
0.054619838 0.708 0.03227536 7.5542389e-39 364 214
0.055861197 0.708 0.03227536 7.5542389e-39 365 214
0.057102561 0.708 0.03227536 7.6457184e-39 366 214
0.058343921 0.708 0.03227536 7.6457184e-39 367 214
0.059753593 0.70999998 0.032366529 7.6453625e-39 368 214
0.060998458 0.70999998 0.032366529 7.5531669e-39 369 214
0.062331002 0.71100003 0.032412119 7.1854606e-39 370 214
0.063577622 0.71100003 0.032412119 7.0932649e-39 371 214
0.065006584 0.713 0.032503292 6.8170242e-39 372 214
0.066256717 0.713 0.032503292 6.356046e-39 373 214
0.067601517 0.71399999 0.032548878 5.0681967e-39 374 214
0.069046266 0.71600002 0.032640055 4.8841655e-39 375 214
0.070301652 0.71600002 0.032640055 4.1487809e-39 376 214
0.071557038 0.71600002 0.032640055 4.1487809e-39 377 214
0.072914116 0.71700001 0.032685637 3.7818033e-39 378 214
0.07417126 0.71700001 0.032685637 3.7818033e-39 379 214
0.075638793 0.71899998 0.032776814 3.6903237e-39 380 214
0.0770064 0.72000003 0.0328224 3.6903237e-39 381 214
0.079029746 0.727 0.033141505 3.6896048e-39 382 214
0.080414876 0.72799999 0.033187091 3.6896048e-39 383 214
0.081915736 0.73000002 0.033278264 3.6903265e-39 384 214
0.083537564 0.73299998 0.033415023 3.7825221e-39 385 214
0.084938474 0.73400003 0.033460613 3.9651183e-39 386 214
0.086695313 0.73799998 0.033642959 3.9651183e-39 387 214
0.087989271 0.73799998 0.033642959 3.9644121e-39 388 214
0.089404218 0.73900002 0.033688545 4.1488033e-39 389 214
0.090945393 0.741 0.033779722 3.9672861e-39 390 214
0.092369102 0.74199998 0.033825304 4.0594818e-39 391 214
0.093670078 0.74199998 0.033825304 4.5197369e-39 392 214
0.09522704 0.74400002 0.033916477 1.9382592e-39 393 214
0.096791007 0.74599999 0.034007654 1.3337559e-41 394 214
0.098230496 0.74699998 0.034053236 4.9015066e-39 395 214
-0.0456568 0.74400002 0.032612 4.7941784e-39 285 215
-0.044173479 0.741 0.032480497 4.7019799e-39 286 215
-0.042758539 0.73900002 0.032392833 4.7019799e-39 287 215
-0.041182294 0.73400003 0.032173667 4.520104e-39 288 215
-0.039840993 0.73299998 0.032129832 4.520104e-39 289 215
-0.038555797 0.73299998 0.032129832 4.3375078e-39 290 215
-0.037118066 0.73000002 0.031998333 4.4297034e-39 291 215
-0.035690852 0.727 0.03186683 4.2474632e-39 292 215
-0.03422682 0.72299999 0.031691495 4.2474632e-39 293 215
-0.032913569 0.722 0.031647664 4.3389371e-39 294 215
-0.03156 0.72000003 0.03156 4.1545459e-39 295 215
-0.0302976 0.72000003 0.03156 4.2449422e-39 296 215
-0.028994869 0.71899998 0.031516165 3.7843242e-39 297 215
-0.027657079 0.71700001 0.031428497 3.9644093e-39 298 215
-0.02639994 0.71700001 0.031428497 3.5037899e-39 299 215
-0.025107734 0.71600002 0.031384666 3.5945534e-39 300 215
-0.02378572 0.71399999 0.031296998 3.5945534e-39 301 215
-0.022439159 0.71100003 0.031165501 3.5938345e-39 302 215
-0.021162732 0.70999998 0.031121666 3.8700613e-39 303 215
-0.019833706 0.70700002 0.030990168 3.8722193e-39 304 215
-0.018567799 0.70599997 0.030946331 4.4250343e-39 305 215
-0.017329946 0.70599997 0.030946331 4.1516774e-39 306 215
-0.016046507 0.704 0.030858666 4.1516774e-39 307 215
-0.014791119 0.70300001 0.030814834 4.1520305e-39 308 215
-0.013558527 0.70300001 0.030814834 3.9672805e-39 309 215
-0.012290866 0.70099998 0.030727165 3.8747206e-39 310 215
-0.011061779 0.70099998 0.030727165 3.7821662e-39 311 215
-0.0098326923 0.70099998 0.030727165 3.598854e-39 312 215
-0.0085913334 0.69999999 0.030683333 3.7828851e-39 313 215
-0.0073639993 0.69999999 0.030683333 3.7814501e-39 314 215
-0.0061366665 0.69999999 0.030683333 3.7814501e-39 315 215
-0.0049093333 0.69999999 0.030683333 3.7814473e-39 316 215
-0.0036819996 0.69999999 0.030683333 3.5970561e-39 317 215
-0.0024546667 0.69999999 0.030683333 3.3222671e-39 318 215
-0.0012273333 0.69999999 0.030683333 3.3222671e-39 319 215
0 0.69800001 0.030595668 3.6892517e-39 320 215
0.0012238267 0.69800001 0.030595668 3.5970561e-39 321 215
0.0024476533 0.69800001 0.030595668 3.5055765e-39 322 215
0.0036714801 0.69800001 0.030595668 3.3215454e-39 323 215
0.0048953067 0.69800001 0.030595668 3.5970561e-39 324 215
0.006119133 0.69800001 0.030595668 3.5970561e-39 325 215
0.0073429602 0.69800001 0.030595668 3.3215482e-39 326 215
0.0085667865 0.69800001 0.030595668 3.3215482e-39 327 215
0.0097906133 0.69800001 0.030595668 3.5048577e-39 328 215
0.01101444 0.69800001 0.030595668 3.5048577e-39 329 215
0.012238266 0.69800001 0.030595668 3.7807243e-39 330 215
0.013462093 0.69800001 0.030595668 3.7807243e-39 331 215
0.01468592 0.69800001 0.030595668 3.5052122e-39 332 215
0.015909746 0.69800001 0.030595668 3.5052122e-39 333 215
0.017182667 0.69999999 0.030683333 3.6885286e-39 334 215
0.018409999 0.69999999 0.030683333 3.5041374e-39 335 215
0.019637333 0.69999999 0.030683333 3.7796495e-39 336 215
0.020864666 0.69999999 0.030683333 3.7796495e-39 337 215
0.022091998 0.69999999 0.030683333 4.0576615e-39 338 215
0.023319334 0.69999999 0.030683333 5.7171828e-39 339 215
0.024546666 0.69999999 0.030683333 7.1879773e-39 340 215
0.025773998 0.69999999 0.030683333 7.003586e-39 341 215
0.027001332 0.69999999 0.030683333 7.4620404e-39 342 215
0.028228667 0.69999999 0.030683333 7.4620404e-39 343 215
0.029455997 0.69999999 0.030683333 7.6457184e-39 344 215
0.030683333 0.69999999 0.030683333 7.5535228e-39 345 215
0.031910665 0.69999999 0.030683333 7.7368351e-39 346 215
0.033137999 0.69999999 0.030683333 7.7368351e-39 347 215
0.034365334 0.69999999 0.030683333 7.7368323e-39 348 215
0.035592664 0.69999999 0.030683333 7.6446366e-39 349 215
0.036872596 0.70099998 0.030727165 7.6446394e-39 350 215
0.038210396 0.70300001 0.030814834 7.6446394e-39 351 215
0.039442986 0.70300001 0.030814834 7.6449926e-39 352 215
0.040675577 0.70300001 0.030814834 7.7371882e-39 353 215
0.041967787 0.704 0.030858666 7.4620404e-39 354 215
0.043202132 0.704 0.030858666 7.4620404e-39 355 215
0.044436477 0.704 0.030858666 7.7364693e-39 356 215
0.045670826 0.704 0.030858666 7.7364693e-39 357 215
0.046905171 0.704 0.030858666 7.9197816e-39 358 215
0.048139516 0.704 0.030858666 7.9197816e-39 359 215
0.04951413 0.70599997 0.030946331 7.7364693e-39 360 215
0.050751984 0.70599997 0.030946331 7.9205005e-39 361 215
0.051989835 0.70599997 0.030946331 7.6460716e-39 362 215
0.053227689 0.70599997 0.030946331 7.6460716e-39 363 215
0.054542694 0.70700002 0.030990168 7.7368323e-39 364 215
0.055782299 0.70700002 0.030990168 7.7368323e-39 365 215
0.057102561 0.708 0.031034 7.6457184e-39 366 215
0.058343921 0.708 0.031034 7.6457184e-39 367 215
0.059585281 0.708 0.031034 7.4609712e-39 368 215
0.060826641 0.708 0.031034 7.3687756e-39 369 215
0.062331002 0.71100003 0.031165501 7.1854634e-39 370 215
0.063577622 0.71100003 0.031165501 7.0932677e-39 371 215
0.064824238 0.71100003 0.031165501 6.9088667e-39 372 215
0.066256717 0.713 0.031253166 6.2634973e-39 373 215
0.067506835 0.713 0.031253166 5.1603965e-39 374 215
0.068853401 0.71399999 0.031296998 4.791614e-39 375 215
0.070301652 0.71600002 0.031384666 3.9654659e-39 376 215
0.071557038 0.71600002 0.031384666 3.9654659e-39 377 215
0.072812423 0.71600002 0.031384666 3.6903237e-39 378 215
0.07417126 0.71700001 0.031428497 3.6903237e-39 379 215
0.075428396 0.71700001 0.031428497 3.4144599e-39 380 215
0.0770064 0.72000003 0.03156 3.4144599e-39 381 215
0.078486212 0.722 0.031647664 3.6896076e-39 382 215
0.080083504 0.72500002 0.031779166 3.6896076e-39 383 215
0.081691302 0.72799999 0.031910665 3.7818005e-39 384 215
0.083309628 0.73100001 0.032042164 3.7818005e-39 385 215
0.084822752 0.73299998 0.032129832 3.9651127e-39 386 215
0.086460374 0.736 0.032261331 3.8729171e-39 387 215
0.087989271 0.73799998 0.032348998 4.055879e-39 388 215
0.089283235 0.73799998 0.032348998 4.240629e-39 389 215
0.090699933 0.73900002 0.032392833 4.1502327e-39 390 215
0.092244618 0.741 0.032480497 4.2424283e-39 391 215
0.093670078 0.74199998 0.032524332 4.1520249e-39 392 215
0.094971053 0.74199998 0.032524332 4.1520249e-39 393 215
0.096531518 0.74400002 0.032612 2.0347905e-39 394 215
0.098099001 0.74599999 0.032699663 7.4405165e-40 395 215
-0.046771921 0.741 0.03118128 5.1647503e-39 284 216
-0.045472696 0.741 0.03118128 4.9803591e-39 285 216
-0.044054255 0.73900002 0.03109712 4.9796374e-39 286 216
-0.042700678 0.73799998 0.031055039 5.0721918e-39 287 216
-0.041182294 0.73400003 0.030886721 4.797044e-39 288 216
-0.039840993 0.73299998 0.030844638 4.8892396e-39 289 216
-0.038450599 0.73100001 0.03076048 4.6151667e-39 290 216
-0.037016369 0.72799999 0.030634239 4.6151667e-39 291 216
-0.035592668 0.72500002 0.030508002 4.6155198e-39 292 216
-0.034179479 0.722 0.030381758 4.5233242e-39 293 216
-0.0328224 0.72000003 0.0302976 4.7973943e-39 294 216
-0.031516165 0.71899998 0.030255521 4.7051987e-39 295 216
-0.030171359 0.71700001 0.030171359 4.6122856e-39 296 216
-0.028873893 0.71600002 0.03012928 4.33534e-39 297 216
-0.027618507 0.71600002 0.03012928 4.1491565e-39 298 216
-0.026363119 0.71600002 0.03012928 3.6878196e-39 299 216
-0.025037598 0.71399999 0.030045118 3.4112411e-39 300 216
-0.023752406 0.713 0.030003037 3.3190455e-39 301 216
-0.022439159 0.71100003 0.029918881 3.3186895e-39 302 216
-0.021073313 0.70700002 0.029750559 3.4108852e-39 303 216
-0.019805651 0.70599997 0.029708479 3.8718633e-39 304 216
-0.018567799 0.70599997 0.029708479 4.1488089e-39 305 216
-0.017280852 0.704 0.029624319 4.0591286e-39 306 216
-0.016046507 0.704 0.029624319 4.0591286e-39 307 216
-0.014791119 0.70300001 0.029582238 4.4257434e-39 308 216
-0.013519952 0.70099998 0.029498078 4.1491565e-39 309 216
-0.012290866 0.70099998 0.029498078 3.7821662e-39 310 216
-0.011045999 0.69999999 0.029455997 3.7821662e-39 311 216
