# .PCD v.7 - Point Cloud Data file format
FIELDS x y z rgb imX imY
SIZE 4 4 4 4 4 4
TYPE F F F F F F
COUNT 1 1 1 1 1 1
WIDTH 837
HEIGHT 1
VIEWPOINT 0 0 0 1 0 0 0
POINTS 837
DATA ascii
0.016639132 0.73000002 -0.040957868 2.6733257e-39 333 272
0.017943613 0.73100001 -0.041013971 2.3052663e-39 334 272
0.019225299 0.73100001 -0.041013971 2.3052663e-39 335 272
0.020506985 0.73100001 -0.041013971 2.8562849e-39 336 272
0.021848286 0.73299998 -0.041126184 3.2254275e-39 337 272
0.023133477 0.73299998 -0.041126184 3.7811124e-39 338 272
0.024418673 0.73299998 -0.041126184 4.9796556e-39 339 272
0.025738932 0.73400003 -0.041182294 6.5440947e-39 340 272
0.02702588 0.73400003 -0.041182294 7.3738553e-39 341 272
0.028389972 0.736 -0.041294504 8.9364867e-39 342 272
0.029680425 0.736 -0.041294504 9.2134323e-39 343 272
0.031055039 0.73799998 -0.041406717 1.2254071e-38 344 272
0.032524332 0.74199998 -0.041631144 1.4835548e-38 345 272
0.033825304 0.74199998 -0.041631144 1.5385479e-38 346 272
-0.055263311 0.73299998 -0.042411376 1.7046095e-38 277 273
-0.053757198 0.73000002 -0.0422378 1.3545918e-38 278 273
-0.052261602 0.727 -0.042064216 1.1886755e-38 279 273
-0.050986931 0.727 -0.042064216 1.1338267e-38 280 273
-0.0495755 0.72500002 -0.041948501 1.2168028e-38 281 273
-0.048304334 0.72500002 -0.041948501 1.3826095e-38 282 273
-0.046903417 0.72299999 -0.041832779 1.2904499e-38 283 273
-0.045572639 0.722 -0.041774917 1.2346982e-38 284 273
-0.044306733 0.722 -0.041774917 1.1333191e-38 285 273
-0.042921603 0.72000003 -0.041659199 1.1238474e-38 286 273
-0.041601337 0.71899998 -0.041601337 1.0777496e-38 287 273
-0.040340692 0.71899998 -0.041601337 1.0133941e-38 288 273
-0.039080046 0.71899998 -0.041601337 1.0041745e-38 289 273
-0.037714198 0.71700001 -0.041485619 9.5840071e-39 290 273
-0.036457058 0.71700001 -0.041485619 9.7683997e-39 291 273
-0.035199918 0.71700001 -0.041485619 1.0043896e-38 292 273
-0.033942781 0.71700001 -0.041485619 1.0043896e-38 293 273
-0.032640055 0.71600002 -0.041427758 1.0870414e-38 294 273
-0.031296998 0.71399999 -0.041312039 1.0778219e-38 295 273
-0.030045118 0.71399999 -0.041312039 1.1144476e-38 296 273
-0.028793238 0.71399999 -0.041312039 1.1236673e-38 297 273
-0.02754136 0.71399999 -0.041312039 1.1513619e-38 298 273
-0.026252659 0.713 -0.041254178 1.1974238e-38 299 273
-0.025002534 0.713 -0.041254178 1.1791279e-38 300 273
-0.023752406 0.713 -0.041254178 8.2874851e-39 301 273
-0.022502279 0.713 -0.041254178 6.3506762e-39 302 273
-0.021281958 0.71399999 -0.041312039 6.3506762e-39 303 273
-0.020086186 0.71600002 -0.041427758 5.2490328e-39 304 273
-0.018778199 0.71399999 -0.041312039 4.8806104e-39 305 273
-0.017526319 0.71399999 -0.041312039 4.4210742e-39 306 273
-0.016320027 0.71600002 -0.041427758 4.1444873e-39 307 273
-0.015085679 0.71700001 -0.041485619 3.8678977e-39 308 273
-0.013867113 0.71899998 -0.041601337 3.775702e-39 309 273
-0.012606465 0.71899998 -0.041601337 3.8686235e-39 310 273
-0.01134582 0.71899998 -0.041601337 3.8686235e-39 311 273
-0.010085173 0.71899998 -0.041601337 3.5009354e-39 312 273
-0.0088245263 0.71899998 -0.041601337 3.5009354e-39 313 273
-0.0075638802 0.71899998 -0.041601337 3.2250744e-39 314 273
-0.0063120001 0.72000003 -0.041659199 3.2250744e-39 315 273
-0.0050496003 0.72000003 -0.041659199 3.1328732e-39 316 273
-0.0037872 0.72000003 -0.041659199 3.1328732e-39 317 273
-0.0025248001 0.72000003 -0.041659199 3.2243457e-39 318 273
-0.0012624001 0.72000003 -0.041659199 3.2243457e-39 319 273
0 0.722 -0.041774917 3.0403132e-39 320 273
0.0012659066 0.722 -0.041774917 3.2243457e-39 321 273
0.0025353199 0.72299999 -0.041832779 2.7651654e-39 322 273
0.0038135003 0.72500002 -0.041948501 2.8573625e-39 323 273
0.0050846669 0.72500002 -0.041948501 2.7662402e-39 324 273
0.0063733663 0.727 -0.042064216 2.7662402e-39 325 273
0.0076480396 0.727 -0.042064216 2.7662374e-39 326 273
0.0089227129 0.727 -0.042064216 2.7662374e-39 327 273
0.010211413 0.72799999 -0.042122077 3.1343011e-39 328 273
0.01148784 0.72799999 -0.042122077 3.2264967e-39 329 273
0.012764266 0.72799999 -0.042122077 3.6849483e-39 330 273
0.014079267 0.73000002 -0.0422378 3.6849483e-39 331 273
0.0153592 0.73000002 -0.0422378 3.1339325e-39 332 273
0.016639132 0.73000002 -0.0422378 3.4101593e-39 333 273
0.017943613 0.73100001 -0.042295661 3.685677e-39 334 273
0.019225299 0.73100001 -0.042295661 4.2388508e-39 335 273
0.020506985 0.73100001 -0.042295661 5.0668164e-39 336 273
0.021848286 0.73299998 -0.042411376 5.8043814e-39 337 273
0.023133477 0.73299998 -0.042411376 6.9110765e-39 338 273
0.024418673 0.73299998 -0.042411376 7.925227e-39 339 273
0.025738932 0.73400003 -0.042469237 9.3989124e-39 340 273
0.02709952 0.736 -0.042584959 9.491108e-39 341 273
0.028389972 0.736 -0.042584959 9.4003417e-39 342 273
0.029680425 0.736 -0.042584959 9.1237548e-39 343 273
0.031223357 0.74199998 -0.042932119 1.1334635e-38 344 273
0.032524332 0.74199998 -0.042932119 1.400831e-38 345 273
0.033916477 0.74400002 -0.043047838 1.4925943e-38 346 273
0.035220962 0.74400002 -0.043047838 1.5110334e-38 347 273
-0.055263311 0.73299998 -0.043696571 1.612701e-38 277 274
-0.053978115 0.73299998 -0.043696571 1.2990566e-38 278 274
-0.052261602 0.727 -0.043338891 9.6715238e-39 279 274
-0.050846666 0.72500002 -0.043219667 7.3767224e-39 280 274
-0.0495755 0.72500002 -0.043219667 9.9582e-39 281 274
-0.048171077 0.72299999 -0.043100435 1.2260944e-38 282 274
-0.046838548 0.722 -0.043040827 1.3275095e-38 283 274
-0.045572639 0.722 -0.043040827 1.3731731e-38 284 274
-0.044183999 0.72000003 -0.042921603 1.1980375e-38 285 274
-0.042861983 0.71899998 -0.042861983 1.1516134e-38 286 274
-0.041601337 0.71899998 -0.042861983 1.1055156e-38 287 274
-0.040228479 0.71700001 -0.042742759 1.0228279e-38 288 274
-0.038971342 0.71700001 -0.042742759 9.8598555e-39 289 274
-0.037661601 0.71600002 -0.042683143 9.7673095e-39 290 274
-0.036406212 0.71600002 -0.042683143 9.9517008e-39 291 274
-0.035150826 0.71600002 -0.042683143 1.0226846e-38 292 274
-0.033800758 0.71399999 -0.042563915 1.0503074e-38 293 274
-0.032548878 0.71399999 -0.042563915 1.0868966e-38 294 274
-0.031296998 0.71399999 -0.042563915 1.1790923e-38 295 274
-0.030045118 0.71399999 -0.042563915 1.3357879e-38 296 274
-0.028752912 0.713 -0.042504307 1.3726301e-38 297 274
-0.027502786 0.713 -0.042504307 1.335716e-38 298 274
-0.026252659 0.713 -0.042504307 1.2988017e-38 299 274
-0.025002534 0.713 -0.042504307 1.2252606e-38 300 274
-0.023752406 0.713 -0.042504307 1.0039552e-38 301 274
-0.022502279 0.713 -0.042504307 6.9070688e-39 302 274
-0.021252153 0.713 -0.042504307 4.6025368e-39 303 274
-0.020030079 0.71399999 -0.042563915 4.7869603e-39 304 274
-0.018751899 0.713 -0.042504307 4.8791559e-39 305 274
-0.017501773 0.713 -0.042504307 4.419282e-39 306 274
-0.016274439 0.71399999 -0.042563915 4.3270863e-39 307 274
-0.01506464 0.71600002 -0.042683143 3.9597458e-39 308 274
-0.013828539 0.71700001 -0.042742759 3.9597458e-39 309 274
-0.0125714 0.71700001 -0.042742759 3.6842351e-39 310 274
-0.01134582 0.71899998 -0.042861983 3.6842351e-39 311 274
-0.010085173 0.71899998 -0.042861983 3.4994865e-39 312 274
-0.0088245263 0.71899998 -0.042861983 3.4994865e-39 313 274
-0.0075743999 0.72000003 -0.042921603 2.9488336e-39 314 274
-0.0063120001 0.72000003 -0.042921603 2.9488336e-39 315 274
-0.0050496003 0.72000003 -0.042921603 3.0403076e-39 316 274
-0.0037872 0.72000003 -0.042921603 3.0403076e-39 317 274
-0.0025248001 0.72000003 -0.042921603 3.2239786e-39 318 274
-0.0012624001 0.72000003 -0.042921603 3.1314242e-39 319 274
0 0.722 -0.043040827 3.2246975e-39 320 274
0.0012676599 0.72299999 -0.043100435 2.948112e-39 321 274
0.0025353199 0.72299999 -0.043100435 2.856638e-39 322 274
0.0038135003 0.72500002 -0.043219667 2.5800525e-39 323 274
0.0050846669 0.72500002 -0.043219667 2.3052635e-39 324 274
0.0063733663 0.727 -0.043338891 2.2130679e-39 325 274
0.0076480396 0.727 -0.043338891 2.1205163e-39 326 274
0.0089227129 0.727 -0.043338891 2.3052663e-39 327 274
0.010211413 0.72799999 -0.043398503 2.5825735e-39 328 274
0.01148784 0.72799999 -0.043398503 3.1357458e-39 329 274
0.012764266 0.72799999 -0.043398503 3.8733081e-39 330 274
0.014040692 0.72799999 -0.043398503 4.9796556e-39 331 274
0.0153592 0.73000002 -0.043517731 6.4526221e-39 332 274
0.016639132 0.73000002 -0.043517731 7.5589683e-39 333 274
0.017943613 0.73100001 -0.043577347 8.5723957e-39 334 274
0.019225299 0.73100001 -0.043577347 9.2177651e-39 335 274
0.020563092 0.73299998 -0.043696571 9.8616856e-39 336 274
0.021848286 0.73299998 -0.043696571 9.6776545e-39 337 274
0.023133477 0.73299998 -0.043696571 9.6754867e-39 338 274
0.024451986 0.73400003 -0.043756187 9.398541e-39 339 274
0.025738932 0.73400003 -0.043756187 8.8464448e-39 340 274
0.02709952 0.736 -0.043875411 8.8464448e-39 341 274
0.028389972 0.736 -0.043875411 8.9379216e-39 342 274
0.029761078 0.73799998 -0.043994635 8.9379216e-39 343 274
0.031055039 0.73799998 -0.043994635 1.0690352e-38 344 274
0.032612 0.74400002 -0.044352323 1.2810851e-38 345 274
0.033916477 0.74400002 -0.044352323 1.437457e-38 346 274
-0.052261602 0.727 -0.044613566 6.446462e-39 279 275
-0.050846666 0.72500002 -0.044490833 5.4413344e-39 280 275
-0.0495755 0.72500002 -0.044490833 7.6543883e-39 281 275
-0.048171077 0.72299999 -0.044368099 9.8667471e-39 282 275
-0.046838548 0.722 -0.044306733 1.1802855e-38 283 275
-0.045446403 0.72000003 -0.044183999 1.3550234e-38 284 275
-0.044122629 0.71899998 -0.044122629 1.2812669e-38 285 275
-0.042742759 0.71700001 -0.043999899 1.2439535e-38 286 275
-0.041427758 0.71600002 -0.043938532 1.1425383e-38 287 275
-0.040172372 0.71600002 -0.043938532 1.1148427e-38 288 275
-0.038808275 0.71399999 -0.043815799 1.0595254e-38 289 275
-0.037556399 0.71399999 -0.043815799 9.8595024e-39 290 275
-0.036304519 0.71399999 -0.043815799 9.6751111e-39 291 275
-0.035003547 0.713 -0.043754432 9.8573514e-39 292 275
-0.033753417 0.713 -0.043754432 1.0410524e-38 293 275
-0.032503292 0.713 -0.043754432 1.2711803e-38 294 275
-0.031253166 0.713 -0.043754432 1.3541923e-38 295 275
-0.030003037 0.713 -0.043754432 1.4556773e-38 296 275
-0.028752912 0.713 -0.043754432 1.4464575e-38 297 275
-0.027502786 0.713 -0.043754432 1.4003596e-38 298 275
-0.026179021 0.71100003 -0.043631699 1.3542977e-38 299 275
-0.024932399 0.71100003 -0.043631699 1.2990892e-38 300 275
-0.023685781 0.71100003 -0.043631699 1.2068935e-38 301 275
-0.022439159 0.71100003 -0.043631699 1.0866796e-38 302 275
-0.021252153 0.713 -0.043754432 7.7325037e-39 303 275
-0.020002026 0.713 -0.043754432 5.0620898e-39 304 275
-0.018751899 0.713 -0.043754432 4.508916e-39 305 275
-0.017501773 0.713 -0.043754432 3.5927527e-39 306 275
-0.016274439 0.71399999 -0.043815799 3.5927527e-39 307 275
-0.01506464 0.71600002 -0.043938532 3.4083741e-39 308 275
-0.013828539 0.71700001 -0.043999899 3.3158183e-39 309 275
-0.0125714 0.71700001 -0.043999899 3.2236255e-39 310 275
-0.01131426 0.71700001 -0.043999899 3.2236255e-39 311 275
-0.01005712 0.71700001 -0.043999899 3.0403132e-39 312 275
-0.0088245263 0.71899998 -0.044122629 2.9481176e-39 313 275
-0.0075638802 0.71899998 -0.044122629 2.8562821e-39 314 275
-0.0063120001 0.72000003 -0.044183999 2.8562821e-39 315 275
-0.0050496003 0.72000003 -0.044183999 2.6733257e-39 316 275
-0.0037872 0.72000003 -0.044183999 2.5807714e-39 317 275
-0.0025248001 0.72000003 -0.044183999 2.5807714e-39 318 275
-0.0012659066 0.722 -0.044306733 2.6733257e-39 319 275
0 0.722 -0.044306733 3.1335794e-39 320 275
0.0012659066 0.722 -0.044306733 3.4098062e-39 321 275
0.0025353199 0.72299999 -0.044368099 3.8693424e-39 322 275
0.0038029798 0.72299999 -0.044368099 4.0540938e-39 323 275
0.0050706398 0.72299999 -0.044368099 4.2392039e-39 324 275
0.0063733663 0.727 -0.044613566 4.5154307e-39 325 275
0.0076480396 0.727 -0.044613566 4.6998261e-39 326 275
0.0089227129 0.727 -0.044613566 5.4373912e-39 327 275
0.010211413 0.72799999 -0.044674929 6.7256119e-39 328 275
0.01148784 0.72799999 -0.044674929 7.3709813e-39 329 275
0.012764266 0.72799999 -0.044674929 7.8315937e-39 330 275
0.014040692 0.72799999 -0.044674929 8.3847661e-39 331 275
0.0153592 0.73000002 -0.044797666 9.0283348e-39 332 275
0.016639132 0.73000002 -0.044797666 9.2127261e-39 333 275
0.017943613 0.73100001 -0.044859033 9.0312032e-39 334 275
0.019225299 0.73100001 -0.044859033 9.3081489e-39 335 275
0.020563092 0.73299998 -0.044981763 8.8485972e-39 336 275
0.021848286 0.73299998 -0.044981763 8.7560415e-39 337 275
0.023133477 0.73299998 -0.044981763 8.7545995e-39 338 275
0.024451986 0.73400003 -0.045043133 8.5702097e-39 339 275
0.025809066 0.736 -0.045165867 8.9368426e-39 340 275
0.02709952 0.736 -0.045165867 9.1212339e-39 341 275
0.028389972 0.736 -0.045165867 8.9386405e-39 342 275
0.029680425 0.736 -0.045165867 8.9386405e-39 343 275
0.030970879 0.736 -0.045165867 1.0782185e-38 344 275
0.032743499 0.74699998 -0.045840897 1.2810488e-38 345 275
-0.05419904 0.736 -0.046456318 4.234127e-39 278 276
-0.052333489 0.72799999 -0.045951359 5.1557232e-39 279 276
-0.051057063 0.72799999 -0.045951359 3.8718661e-39 280 276
-0.050122537 0.73299998 -0.046266954 5.7157787e-39 281 276
-0.048837345 0.73299998 -0.046266954 7.3796357e-39 282 276
-0.046838548 0.722 -0.045572639 9.4079395e-39 283 276
-0.045383278 0.71899998 -0.045383278 1.226095e-38 284 276
-0.043999899 0.71700001 -0.045257039 1.3274741e-38 285 276
-0.042742759 0.71700001 -0.045257039 1.3824283e-38 286 276
-0.041427758 0.71600002 -0.045193922 1.1980372e-38 287 276
-0.040060159 0.71399999 -0.045067675 1.1425736e-38 288 276
-0.038808275 0.71399999 -0.045067675 1.0780367e-38 289 276
-0.037503798 0.713 -0.045004558 1.0319759e-38 290 276
-0.036253672 0.713 -0.045004558 9.5821924e-39 291 276
-0.034905359 0.71100003 -0.044878319 9.4878458e-39 292 276
-0.033658739 0.71100003 -0.044878319 1.0225411e-38 293 276
-0.032412119 0.71100003 -0.044878319 1.4096543e-38 294 276
-0.031165501 0.71100003 -0.044878319 1.5110334e-38 295 276
-0.029918881 0.71100003 -0.044878319 1.4833375e-38 296 276
-0.028672259 0.71100003 -0.044878319 1.4464952e-38 297 276
-0.027425639 0.71100003 -0.044878319 1.4097962e-38 298 276
-0.026179021 0.71100003 -0.044878319 1.3821374e-38 299 276
-0.024932399 0.71100003 -0.044878319 1.3545157e-38 300 276
-0.023652466 0.70999998 -0.044815198 1.3452961e-38 301 276
-0.022407599 0.70999998 -0.044815198 1.2896919e-38 302 276
-0.021192541 0.71100003 -0.044878319 1.0960811e-38 303 276
-0.020002026 0.713 -0.045004558 7.8268825e-39 304 276
-0.018751899 0.713 -0.045004558 5.2454049e-39 305 276
-0.017501773 0.713 -0.045004558 3.5934562e-39 306 276
-0.016274439 0.71399999 -0.045067675 3.1328367e-39 307 276
-0.01506464 0.71600002 -0.045193922 3.7746314e-39 308 276
-0.013809253 0.71600002 -0.045193922 3.7746314e-39 309 276
-0.0125714 0.71700001 -0.045257039 3.4987648e-39 310 276
-0.01131426 0.71700001 -0.045257039 3.5913192e-39 311 276
-0.01005712 0.71700001 -0.045257039 3.407644e-39 312 276
-0.0087999795 0.71700001 -0.045257039 3.4998396e-39 313 276
-0.0075638802 0.71899998 -0.045383278 3.407288e-39 314 276
-0.0063032326 0.71899998 -0.045383278 3.1310613e-39 315 276
-0.0050496003 0.72000003 -0.045446403 2.8562821e-39 316 276
-0.0037872 0.72000003 -0.045446403 2.8562821e-39 317 276
-0.0025248001 0.72000003 -0.045446403 2.6729726e-39 318 276
-0.0012659066 0.722 -0.045572639 3.2261464e-39 319 276
0 0.722 -0.045572639 3.7793146e-39 320 276
0.0012659066 0.722 -0.045572639 4.7938252e-39 321 276
0.0025318132 0.722 -0.045572639 5.7154102e-39 322 276
0.0038029798 0.72299999 -0.04563576 6.5451709e-39 323 276
0.0050706398 0.72299999 -0.04563576 7.9248613e-39 324 276
0.0063558333 0.72500002 -0.045761999 8.6624263e-39 325 276
0.0076480396 0.727 -0.045888241 9.3999914e-39 326 276
0.0089227129 0.727 -0.045888241 9.8609695e-39 327 276
0.010211413 0.72799999 -0.045951359 1.0044632e-38 328 276
0.01148784 0.72799999 -0.045951359 9.7684054e-39 329 276
0.012764266 0.72799999 -0.045951359 9.6762027e-39 330 276
0.014079267 0.73000002 -0.046077598 9.3996158e-39 331 276
0.0153592 0.73000002 -0.046077598 9.4885745e-39 332 276
0.016639132 0.73000002 -0.046077598 8.9354007e-39 333 276
0.017943613 0.73100001 -0.046140719 8.6602585e-39 334 276
0.019225299 0.73100001 -0.046140719 8.5680629e-39 335 276
0.020563092 0.73299998 -0.046266954 8.8428547e-39 336 276
0.021848286 0.73299998 -0.046266954 8.9350504e-39 337 276
0.023133477 0.73299998 -0.046266954 8.7521024e-39 338 276
0.024451986 0.73400003 -0.046330083 8.5677098e-39 339 276
0.025809066 0.736 -0.046456318 8.6627795e-39 340 276
0.02709952 0.736 -0.046456318 8.8471707e-39 341 276
0.028389972 0.736 -0.046456318 8.5705656e-39 342 276
0.029680425 0.736 -0.046456318 8.201423e-39 343 276
0.030970879 0.736 -0.046456318 1.0872931e-38 344 276
-0.055640277 0.73799998 -0.047876518 4.9724137e-39 277 277
-0.05419904 0.736 -0.047746774 6.0776991e-39 278 277
-0.052764814 0.73400003 -0.047617026 6.5390374e-39 279 277
-0.051407732 0.73299998 -0.04755215 5.0675325e-39 280 277
-0.050122537 0.73299998 -0.04755215 4.0537407e-39 281 277
-0.048837345 0.73299998 -0.04755215 4.0613119e-39 282 277
-0.046449307 0.71600002 -0.046449307 6.7349851e-39 283 277
-0.045193922 0.71600002 -0.046449307 9.4986876e-39 284 277
-0.043938532 0.71600002 -0.046449307 1.1434794e-38 285 277
-0.042683143 0.71600002 -0.046449307 1.3642788e-38 286 277
-0.041312039 0.71399999 -0.046319555 1.2997419e-38 287 277
-0.040060159 0.71399999 -0.046319555 1.2623929e-38 288 277
-0.038753927 0.713 -0.046254687 1.1333191e-38 289 277
-0.037398599 0.71100003 -0.046124939 1.123919e-38 290 277
-0.036151983 0.71100003 -0.046124939 1.0870768e-38 291 277
-0.034856264 0.70999998 -0.046060063 1.0043899e-38 292 277
-0.033611398 0.70999998 -0.046060063 1.0227932e-38 293 277
-0.032412119 0.71100003 -0.046124939 1.1701263e-38 294 277
-0.031165501 0.71100003 -0.046124939 1.2992001e-38 295 277
-0.029918881 0.71100003 -0.046124939 1.3451889e-38 296 277
-0.028672259 0.71100003 -0.046124939 1.3451889e-38 297 277
-0.027425639 0.71100003 -0.046124939 1.3176379e-38 298 277
-0.026142199 0.70999998 -0.046060063 1.2807595e-38 299 277
-0.024897331 0.70999998 -0.046060063 1.2808321e-38 300 277
-0.023652466 0.70999998 -0.046060063 1.2623929e-38 301 277
-0.022407599 0.70999998 -0.046060063 1.2347712e-38 302 277
-0.021192541 0.71100003 -0.046124939 1.1702343e-38 303 277
-0.020002026 0.713 -0.046254687 1.0777869e-38 304 277
-0.018751899 0.713 -0.046254687 8.7492059e-39 305 277
-0.017501773 0.713 -0.046254687 6.8156201e-39 306 277
-0.016274439 0.71399999 -0.046319555 5.5248812e-39 307 277
-0.01506464 0.71600002 -0.046449307 4.3274339e-39 308 277
-0.013809253 0.71600002 -0.046449307 4.2352382e-39 309 277
-0.0125714 0.71700001 -0.046514176 3.1342955e-39 310 277
-0.01131426 0.71700001 -0.046514176 3.2268498e-39 311 277
-0.01005712 0.71700001 -0.046514176 3.8714976e-39 312 277
-0.0087999795 0.71700001 -0.046514176 4.23992e-39 313 277
-0.0075638802 0.71899998 -0.046643924 5.3437494e-39 314 277
-0.0063032326 0.71899998 -0.046643924 5.435945e-39 315 277
-0.0050496003 0.72000003 -0.0467088 5.7125389e-39 316 277
-0.0037872 0.72000003 -0.0467088 6.0809613e-39 317 277
-0.0025248001 0.72000003 -0.0467088 6.3604265e-39 318 277
-0.0012659066 0.722 -0.046838548 7.0979915e-39 319 277
0 0.722 -0.046838548 8.1099742e-39 320 277
0.0012659066 0.722 -0.046838548 8.3865625e-39 321 277
0.0025318132 0.722 -0.046838548 9.0297641e-39 322 277
0.0038029798 0.72299999 -0.046903417 9.0297641e-39 323 277
0.0050706398 0.72299999 -0.046903417 9.3045461e-39 324 277
0.0063558333 0.72500002 -0.047033165 9.3967418e-39 325 277
0.0076270006 0.72500002 -0.047033165 9.3063454e-39 326 277
0.0089227129 0.727 -0.047162913 9.2141484e-39 327 277
0.010211413 0.72799999 -0.047227785 9.1212311e-39 328 277
0.01148784 0.72799999 -0.047227785 8.9368398e-39 329 277
0.012799333 0.73000002 -0.047357533 8.7528087e-39 330 277
0.014079267 0.73000002 -0.047357533 8.7528087e-39 331 277
0.01538024 0.73100001 -0.047422405 8.8432078e-39 332 277
0.016661927 0.73100001 -0.047422405 9.119436e-39 333 277
0.017992707 0.73299998 -0.04755215 9.0283194e-39 334 277
0.019277899 0.73299998 -0.04755215 9.120515e-39 335 277
0.020563092 0.73299998 -0.04755215 9.2137826e-39 336 277
0.021878093 0.73400003 -0.047617026 9.3981753e-39 337 277
0.023165042 0.73400003 -0.047617026 9.3056251e-39 338 277
0.024451986 0.73400003 -0.047617026 7.9226907e-39 339 277
0.025809066 0.736 -0.047746774 7.2780429e-39 340 277
0.027173158 0.73799998 -0.047876518 5.9873041e-39 341 277
0.028505694 0.73900002 -0.047941394 4.4260741e-39 342 277
0.029801406 0.73900002 -0.047941394 4.9792478e-39 343 277
-0.056934237 0.73799998 -0.049170475 3.775688e-39 276 278
-0.055640277 0.73799998 -0.049170475 5.8039919e-39 277 278
-0.054346316 0.73799998 -0.049170475 6.1731443e-39 278 278
-0.053052358 0.73799998 -0.049170475 5.9887531e-39 279 278
-0.051618133 0.736 -0.049037226 4.5150677e-39 280 278
-0.050327681 0.736 -0.049037226 3.1321333e-39 281 278
-0.049170475 0.73799998 -0.049170475 2.1241162e-39 282 278
-0.047876518 0.73799998 -0.049170475 4.3364512e-39 283 278
-0.045193922 0.71600002 -0.047704693 6.5509512e-39 284 278
-0.043815799 0.71399999 -0.047571439 8.9480362e-39 285 278
-0.042563915 0.71399999 -0.047571439 1.2352789e-38 286 278
-0.041312039 0.71399999 -0.047571439 1.3459135e-38 287 278
-0.040004052 0.713 -0.047504812 1.3548419e-38 288 278
-0.038645219 0.71100003 -0.047371563 1.1704507e-38 289 278
-0.037398599 0.71100003 -0.047371563 1.1793443e-38 290 278
-0.036101133 0.70999998 -0.047304932 1.1701247e-38 291 278
-0.034856264 0.70999998 -0.047304932 1.1150241e-38 292 278
-0.033611398 0.70999998 -0.047304932 1.1150241e-38 293 278
-0.032366529 0.70999998 -0.047304932 1.0780382e-38 294 278
-0.031121666 0.70999998 -0.047304932 1.0780382e-38 295 278
-0.029876797 0.70999998 -0.047304932 1.1610147e-38 296 278
-0.028631933 0.70999998 -0.047304932 1.216332e-38 297 278
-0.027387066 0.70999998 -0.047304932 1.2162967e-38 298 278
-0.026142199 0.70999998 -0.047304932 1.170199e-38 299 278
-0.024897331 0.70999998 -0.047304932 1.1519043e-38 300 278
-0.023652466 0.70999998 -0.047304932 1.1426848e-38 301 278
-0.022407599 0.70999998 -0.047304932 1.1335371e-38 302 278
-0.021192541 0.71100003 -0.047371563 1.115134e-38 303 278
-0.020002026 0.713 -0.047504812 1.133285e-38 304 278
-0.018751899 0.713 -0.047504812 1.0872232e-38 305 278
-0.017501773 0.713 -0.047504812 9.4892905e-39 306 278
-0.016274439 0.71399999 -0.047571439 8.1063561e-39 307 278
-0.01506464 0.71600002 -0.047704693 6.7252237e-39 308 278
-0.013809253 0.71600002 -0.047704693 6.1720499e-39 309 278
-0.012553867 0.71600002 -0.047704693 5.5284952e-39 310 278
-0.01131426 0.71700001 -0.04777132 5.6206908e-39 311 278
-0.01005712 0.71700001 -0.04777132 6.4486564e-39 312 278
-0.0087999795 0.71700001 -0.04777132 6.8174375e-39 313 278
-0.0075638802 0.71899998 -0.04790457 7.2794891e-39 314 278
-0.0063032326 0.71899998 -0.04790457 8.0170541e-39 315 278
-0.0050496003 0.72000003 -0.0479712 8.5695118e-39 316 278
-0.0037872 0.72000003 -0.0479712 8.8457386e-39 317 278
-0.0025248001 0.72000003 -0.0479712 8.8482567e-39 318 278
-0.0012659066 0.722 -0.048104454 9.1252024e-39 319 278
0 0.722 -0.048104454 9.3092181e-39 320 278
0.0012659066 0.722 -0.048104454 9.0326326e-39 321 278
0.0025353199 0.72299999 -0.048171077 9.3070475e-39 322 278
0.0038135003 0.72500002 -0.048304334 8.9386251e-39 323 278
0.0050846669 0.72500002 -0.048304334 9.1197821e-39 324 278
0.0063558333 0.72500002 -0.048304334 9.1197821e-39 325 278
0.0076270006 0.72500002 -0.048304334 8.7517283e-39 326 278
0.0089227129 0.727 -0.048437584 8.4751428e-39 327 278
0.010211413 0.72799999 -0.048504211 8.7506591e-39 328 278
0.01148784 0.72799999 -0.048504211 8.8428547e-39 329 278
0.012799333 0.73000002 -0.048637468 8.7524584e-39 330 278
0.014079267 0.73000002 -0.048637468 9.0286851e-39 331 278
0.01538024 0.73100001 -0.048704091 8.9386405e-39 332 278
0.016661927 0.73100001 -0.048704091 9.2152288e-39 333 278
0.017992707 0.73299998 -0.048837345 9.4914429e-39 334 278
0.019277899 0.73299998 -0.048837345 9.6761929e-39 335 278
0.020563092 0.73299998 -0.048837345 9.95277e-39 336 278
0.021878093 0.73400003 -0.048903972 9.8605744e-39 337 278
0.023165042 0.73400003 -0.048903972 9.672237e-39 338 278
0.024518613 0.736 -0.049037226 7.0907594e-39 339 278
0.025914267 0.73900002 -0.049237106 4.603648e-39 340 278
0.027209979 0.73900002 -0.049237106 3.7738873e-39 341 278
0.028582839 0.741 -0.049370356 2.8580295e-39 342 278
-0.056934237 0.73799998 -0.050464436 5.7096452e-39 276 279
-0.055640277 0.73799998 -0.050464436 5.8940365e-39 277 279
-0.054346316 0.73799998 -0.050464436 5.6188915e-39 278 279
-0.053052358 0.73799998 -0.050464436 4.9735221e-39 279 279
-0.051758397 0.73799998 -0.050464436 4.4174813e-39 280 279
-0.050464436 0.73799998 -0.050464436 3.8643075e-39 281 279
-0.049170475 0.73799998 -0.050464436 3.5913304e-39 282 279
-0.047876518 0.73799998 -0.050464436 3.868276e-39 283 279
-0.045067675 0.71399999 -0.048823316 3.4177375e-39 284 279
-0.043815799 0.71399999 -0.048823316 6.2761622e-39 285 279
-0.042504307 0.713 -0.048754938 9.4064906e-39 286 279
-0.041254178 0.713 -0.048754938 1.1526991e-38 287 279
-0.040004052 0.713 -0.048754938 1.3181458e-38 288 279
-0.038645219 0.71100003 -0.048618179 1.2812316e-38 289 279
-0.037345998 0.70999998 -0.048549797 1.3178563e-38 290 279
-0.036101133 0.70999998 -0.048549797 1.2256608e-38 291 279
-0.034758076 0.708 -0.048413038 1.1793462e-38 292 279
-0.033516716 0.708 -0.048413038 1.1516876e-38 293 279
-0.03227536 0.708 -0.048413038 1.1057329e-38 294 279
-0.031034 0.708 -0.048413038 9.7665907e-39 295 279
-0.02979264 0.708 -0.048413038 7.5567822e-39 296 279
-0.028631933 0.70999998 -0.048549797 9.3084992e-39 297 279
-0.027387066 0.70999998 -0.048549797 1.0413775e-38 298 279
-0.026142199 0.70999998 -0.048549797 1.0690002e-38 299 279
-0.024897331 0.70999998 -0.048549797 1.0874393e-38 300 279
-0.023652466 0.70999998 -0.048549797 1.0782197e-38 301 279
-0.022407599 0.70999998 -0.048549797 1.0873674e-38 302 279
-0.021192541 0.71100003 -0.048618179 1.0873674e-38 303 279
-0.020002026 0.713 -0.048754938 1.0506321e-38 304 279
-0.018751899 0.713 -0.048754938 1.0414124e-38 305 279
-0.017526319 0.71399999 -0.048823316 1.0965497e-38 306 279
-0.016274439 0.71399999 -0.048823316 1.0596714e-38 307 279
-0.01506464 0.71600002 -0.048960082 1.059672e-38 308 279
-0.013809253 0.71600002 -0.048960082 1.0504524e-38 309 279
-0.012553867 0.71600002 -0.048960082 1.0319421e-38 310 279
-0.01131426 0.71700001 -0.04902846 1.0319421e-38 311 279
-0.01005712 0.71700001 -0.04902846 1.0043197e-38 312 279
-0.0087999795 0.71700001 -0.04902846 9.6740545e-39 313 279
-0.0075638802 0.71899998 -0.049165215 8.9368426e-39 314 279
-0.0063032326 0.71899998 -0.049165215 8.9368426e-39 315 279
-0.0050496003 0.72000003 -0.0492336 8.2025188e-39 316 279
-0.0037872 0.72000003 -0.0492336 8.2025188e-39 317 279
-0.0025248001 0.72000003 -0.0492336 8.2018041e-39 318 279
-0.0012659066 0.722 -0.04937036 8.0170541e-39 319 279
0 0.722 -0.04937036 8.4755113e-39 320 279
0.0012676599 0.72299999 -0.049438741 8.4755113e-39 321 279
0.0025353199 0.72299999 -0.049438741 8.8439267e-39 322 279
0.0038135003 0.72500002 -0.0495755 8.9361237e-39 323 279
0.0050846669 0.72500002 -0.0495755 8.7531744e-39 324 279
0.0063558333 0.72500002 -0.0495755 8.8453701e-39 325 279
0.0076480396 0.727 -0.049712259 8.847521e-39 326 279
0.0089227129 0.727 -0.049712259 8.7553254e-39 327 279
0.010211413 0.72799999 -0.049780637 9.398897e-39 328 279
0.011519399 0.73000002 -0.0499174 9.8598737e-39 329 279
0.012799333 0.73000002 -0.0499174 9.8591548e-39 330 279
0.014098554 0.73100001 -0.049985781 9.7666005e-39 331 279
0.01538024 0.73100001 -0.049985781 9.8598681e-39 332 279
0.016707512 0.73299998 -0.050122537 9.8598681e-39 333 279
0.017992707 0.73299998 -0.050122537 9.4939596e-39 334 279
0.019277899 0.73299998 -0.050122537 9.678711e-39 335 279
0.020591147 0.73400003 -0.050190922 1.0412323e-38 336 279
0.021878093 0.73400003 -0.050190922 9.9513449e-39 337 279
0.023228159 0.736 -0.050327681 7.3741902e-39 338 279
0.024585238 0.73799998 -0.050464436 3.7782005e-39 339 279
0.025984399 0.741 -0.050669577 3.4094278e-39 340 279
0.027283618 0.741 -0.050669577 4.4232196e-39 341 279
0.028621411 0.74199998 -0.050737958 5.8061443e-39 342 279
-0.057912603 0.73400003 -0.051477864 5.5259743e-39 275 280
-0.056779943 0.736 -0.051618133 5.6188915e-39 276 280
-0.055489492 0.736 -0.051618133 5.2504692e-39 277 280
-0.05419904 0.736 -0.051618133 4.6969423e-39 278 280
-0.052908584 0.736 -0.051618133 4.235604e-39 279 280
-0.051758397 0.73799998 -0.051758397 3.1307082e-39 280 280
-0.050464436 0.73799998 -0.051758397 3.1307082e-39 281 280
-0.049170475 0.73799998 -0.051758397 2.9481148e-39 282 280
-0.047876518 0.73799998 -0.051758397 3.0403104e-39 283 280
-0.043815799 0.71399999 -0.050075196 3.9680274e-39 285 280
-0.042504307 0.713 -0.050005067 6.2750818e-39 286 280
-0.041138459 0.71100003 -0.049864799 8.6721696e-39 287 280
-0.039891839 0.71100003 -0.049864799 1.1985449e-38 288 280
-0.038590867 0.70999998 -0.049794663 1.3276188e-38 289 280
-0.037345998 0.70999998 -0.049794663 1.3549521e-38 290 280
-0.036101133 0.70999998 -0.049794663 1.1981835e-38 291 280
-0.034758076 0.708 -0.049654398 1.1517597e-38 292 280
-0.033516716 0.708 -0.049654398 1.1425402e-38 293 280
-0.03227536 0.708 -0.049654398 1.1239567e-38 294 280
-0.031034 0.708 -0.049654398 1.0409805e-38 295 280
-0.02979264 0.708 -0.049654398 8.1060057e-39 296 280
-0.02855128 0.708 -0.049654398 8.4751484e-39 297 280
-0.027387066 0.70999998 -0.049794663 9.3085118e-39 298 280
-0.026142199 0.70999998 -0.049794663 9.9538812e-39 299 280
-0.024897331 0.70999998 -0.049794663 9.8627646e-39 300 280
-0.023652466 0.70999998 -0.049794663 9.8627646e-39 301 280
-0.022407599 0.70999998 -0.049794663 1.0137912e-38 302 280
-0.021252153 0.713 -0.050005067 1.0045358e-38 303 280
-0.020002026 0.713 -0.050005067 1.0136828e-38 304 280
-0.018778199 0.71399999 -0.050075196 1.0044632e-38 305 280
-0.017526319 0.71399999 -0.050075196 9.8616674e-39 306 280
-0.016274439 0.71399999 -0.050075196 1.0138613e-38 307 280
-0.01506464 0.71600002 -0.050215468 1.0229008e-38 308 280
-0.013809253 0.71600002 -0.050215468 1.0044617e-38 309 280
-0.012553867 0.71600002 -0.050215468 9.8595052e-39 310 280
-0.01131426 0.71700001 -0.0502856 9.6747552e-39 311 280
-0.01005712 0.71700001 -0.0502856 9.3070475e-39 312 280
-0.0087999795 0.71700001 -0.0502856 9.0308207e-39 313 280
-0.0075638802 0.71899998 -0.050425861 8.8460735e-39 314 280
-0.0063032326 0.71899998 -0.050425861 8.7538779e-39 315 280
-0.0050496003 0.72000003 -0.050496001 8.7528059e-39 316 280
-0.0037872 0.72000003 -0.050496001 8.6606089e-39 317 280
-0.0025318132 0.722 -0.050636265 8.8439267e-39 318 280
-0.0012659066 0.722 -0.050636265 8.9361237e-39 319 280
0 0.72299999 -0.050706398 9.0283194e-39 320 280
0.0012676599 0.72299999 -0.050706398 9.120515e-39 321 280
0.0025353199 0.72299999 -0.050706398 9.3045461e-39 322 280
0.0038135003 0.72500002 -0.050846666 9.4892961e-39 323 280
0.0050846669 0.72500002 -0.050846666 9.3992627e-39 324 280
0.0063733663 0.727 -0.050986931 9.583654e-39 325 280
0.0076480396 0.727 -0.050986931 1.0136459e-38 326 280
0.0089349858 0.72799999 -0.051057063 9.9520665e-39 327 280
0.010239467 0.73000002 -0.051197331 9.7691018e-39 328 280
0.011519399 0.73000002 -0.051197331 9.7691018e-39 329 280
0.012799333 0.73000002 -0.051197331 1.004425e-38 330 280
0.014098554 0.73100001 -0.051267464 1.004425e-38 331 280
0.01538024 0.73100001 -0.051267464 1.0044614e-38 332 280
0.016707512 0.73299998 -0.051407732 9.9524169e-39 333 280
0.017992707 0.73299998 -0.051407732 9.9524197e-39 334 280
0.019277899 0.73299998 -0.051407732 1.0044617e-38 335 280
0.020591147 0.73400003 -0.051477864 1.0319411e-38 336 280
0.021937706 0.736 -0.051618133 9.3048993e-39 337 280
0.023228159 0.736 -0.051618133 7.462423e-39 338 280
0.024618553 0.73900002 -0.051828533 5.6181503e-39 339 280
0.026019465 0.74199998 -0.05203893 4.3306583e-39 340 280
0.027320439 0.74199998 -0.05203893 5.7135927e-39 341 280
-0.059199546 0.73400003 -0.052764814 4.7883952e-39 274 281
-0.057912603 0.73400003 -0.052764814 5.9869384e-39 275 281
-0.056625653 0.73400003 -0.052764814 5.4341346e-39 276 281
-0.055338707 0.73400003 -0.052764814 5.065352e-39 277 281
-0.054051761 0.73400003 -0.052764814 4.5128985e-39 278 281
-0.052908584 0.736 -0.052908584 3.9597247e-39 279 281
-0.051758397 0.73799998 -0.053052358 3.1314116e-39 280 281
-0.050464436 0.73799998 -0.053052358 3.039216e-39 281 281
-0.049170475 0.73799998 -0.053052358 3.223973e-39 282 281
-0.042504307 0.713 -0.051255193 2.8649211e-39 286 281
-0.041138459 0.71100003 -0.051111419 5.9073755e-39 287 281
-0.039891839 0.71100003 -0.051111419 9.4994093e-39 288 281
-0.038590867 0.70999998 -0.051039528 1.1619909e-38 289 281
-0.037345998 0.70999998 -0.051039528 1.170669e-38 290 281
-0.036101133 0.70999998 -0.051039528 1.0415951e-38 291 281
-0.034758076 0.708 -0.050895758 1.0872595e-38 292 281
-0.033516716 0.708 -0.050895758 1.0964791e-38 293 281
-0.03227536 0.708 -0.050895758 1.0964775e-38 294 281
-0.031034 0.708 -0.050895758 1.0688187e-38 295 281
-0.02979264 0.708 -0.050895758 9.7665907e-39 296 281
-0.02855128 0.708 -0.050895758 9.1212213e-39 297 281
-0.027387066 0.70999998 -0.051039528 9.304193e-39 298 281
-0.026142199 0.70999998 -0.051039528 1.0134312e-38 299 281
-0.024897331 0.70999998 -0.051039528 9.8602451e-39 300 281
-0.023652466 0.70999998 -0.051039528 9.8602451e-39 301 281
-0.022407599 0.70999998 -0.051039528 9.9513477e-39 302 281
-0.021252153 0.713 -0.051255193 9.9513477e-39 303 281
-0.020002026 0.713 -0.051255193 9.9495526e-39 304 281
-0.018751899 0.713 -0.051255193 9.5807701e-39 305 281
-0.017526319 0.71399999 -0.05132708 9.4882213e-39 306 281
-0.016274439 0.71399999 -0.05132708 8.9350476e-39 307 281
-0.01506464 0.71600002 -0.051470853 8.2900341e-39 308 281
-0.013809253 0.71600002 -0.051470853 8.4740666e-39 309 281
-0.012553867 0.71600002 -0.051470853 8.3836688e-39 310 281
-0.01129848 0.71600002 -0.051470853 8.6602557e-39 311 281
-0.01005712 0.71700001 -0.051542737 8.7524584e-39 312 281
-0.0087999795 0.71700001 -0.051542737 8.7524584e-39 313 281
-0.0075638802 0.71899998 -0.05168651 8.570581e-39 314 281
-0.0063032326 0.71899998 -0.05168651 8.6627767e-39 315 281
-0.0050496003 0.72000003 -0.051758397 8.7553254e-39 316 281
-0.0037872 0.72000003 -0.051758397 8.847521e-39 317 281
-0.0025318132 0.722 -0.051902171 8.8485902e-39 318 281
-0.0012659066 0.722 -0.051902171 8.9407873e-39 319 281
0 0.72299999 -0.051974058 8.9407873e-39 320 281
0.0012676599 0.72299999 -0.051974058 9.2173728e-39 321 281
0.0025353199 0.72299999 -0.051974058 9.3088523e-39 322 281
0.0038135003 0.72500002 -0.052117832 9.6772747e-39 323 281
0.0050846669 0.72500002 -0.052117832 1.0044264e-38 324 281
0.0063733663 0.727 -0.052261602 1.0044264e-38 325 281
0.0076585598 0.72799999 -0.052333489 9.7683997e-39 326 281
0.0089595336 0.73000002 -0.052477267 9.6762027e-39 327 281
0.010239467 0.73000002 -0.052477267 9.9517148e-39 328 281
0.01153518 0.73100001 -0.052549154 9.9517148e-39 329 281
0.012816866 0.73100001 -0.052549154 9.8609541e-39 330 281
0.014137126 0.73299998 -0.052692924 1.0044985e-38 331 281
0.015422319 0.73299998 -0.052692924 1.0136815e-38 332 281
0.016707512 0.73299998 -0.052692924 1.0044619e-38 333 281
0.017992707 0.73299998 -0.052692924 1.0043896e-38 334 281
0.019304199 0.73400003 -0.052764814 9.9517008e-39 335 281
0.020591147 0.73400003 -0.052764814 9.8573542e-39 336 281
0.021937706 0.736 -0.052908584 9.1197891e-39 337 281
0.023291279 0.73799998 -0.053052358 7.7375778e-39 338 281
0.024685178 0.741 -0.053268019 6.9078157e-39 339 281
-0.059199546 0.73400003 -0.054051761 5.2493551e-39 274 282
-0.057912603 0.73400003 -0.054051761 6.1709513e-39 275 282
-0.056625653 0.73400003 -0.054051761 5.7099928e-39 276 282
-0.055338707 0.73400003 -0.054051761 5.2490146e-39 277 282
-0.054051761 0.73400003 -0.054051761 4.5132502e-39 278 282
-0.052908584 0.736 -0.05419904 4.144109e-39 279 282
-0.051618133 0.736 -0.05419904 3.4079915e-39 280 282
-0.050464436 0.73799998 -0.054346316 3.5001871e-39 281 282
-0.049170475 0.73799998 -0.054346316 3.5941876e-39 282 282
-0.041138459 0.71100003 -0.052358042 3.6914349e-39 287 282
-0.039891839 0.71100003 -0.052358042 6.552026e-39 288 282
-0.038590867 0.70999998 -0.052284397 9.5941231e-39 289 282
-0.037345998 0.70999998 -0.052284397 1.1612333e-38 290 282
-0.036101133 0.70999998 -0.052284397 1.0690377e-38 291 282
-0.034758076 0.708 -0.052137118 1.1149175e-38 292 282
-0.033516716 0.708 -0.052137118 1.105662e-38 293 282
-0.03227536 0.708 -0.052137118 1.0965131e-38 294 282
-0.031034 0.708 -0.052137118 1.0872934e-38 295 282
-0.02979264 0.708 -0.052137118 1.0320127e-38 296 282
-0.02855128 0.708 -0.052137118 9.3985298e-39 297 282
-0.027387066 0.70999998 -0.052284397 8.9357706e-39 298 282
-0.026142199 0.70999998 -0.052284397 9.304193e-39 299 282
-0.024897331 0.70999998 -0.052284397 9.0297669e-39 300 282
-0.023652466 0.70999998 -0.052284397 9.213798e-39 301 282
-0.022407599 0.70999998 -0.052284397 9.2145043e-39 302 282
-0.021252153 0.713 -0.052505318 9.2145043e-39 303 282
-0.020002026 0.713 -0.052505318 9.120515e-39 304 282
-0.018751899 0.713 -0.052505318 8.9361237e-39 305 282
-0.017526319 0.71399999 -0.052578956 8.9364895e-39 306 282
-0.016274439 0.71399999 -0.052578956 8.7524584e-39 307 282
-0.01506464 0.71600002 -0.052726239 8.7531716e-39 308 282
-0.013809253 0.71600002 -0.052726239 8.9379216e-39 309 282
-0.012553867 0.71600002 -0.052726239 9.0304704e-39 310 282
-0.01129848 0.71600002 -0.052726239 8.9382747e-39 311 282
-0.01005712 0.71700001 -0.052799881 8.9382747e-39 312 282
-0.0087999795 0.71700001 -0.052799881 8.9382747e-39 313 282
-0.0075638802 0.71899998 -0.05294716 8.663127e-39 314 282
-0.0063032326 0.71899998 -0.05294716 8.847877e-39 315 282
-0.0050496003 0.72000003 -0.053020801 8.8478742e-39 316 282
-0.0037977197 0.722 -0.053168077 8.8478742e-39 317 282
-0.0025318132 0.722 -0.053168077 8.846442e-39 318 282
-0.0012676599 0.72299999 -0.053241719 8.4780197e-39 319 282
0 0.72299999 -0.053241719 9.0290382e-39 320 282
0.0012676599 0.72299999 -0.053241719 9.3978222e-39 321 282
0.0025353199 0.72299999 -0.053241719 9.8598709e-39 322 282
0.0038135003 0.72500002 -0.053388998 1.0044264e-38 323 282
0.0050846669 0.72500002 -0.053388998 9.9520637e-39 324 282
0.0063733663 0.727 -0.053536277 1.0044619e-38 325 282
0.0076795998 0.73000002 -0.053757198 1.0043548e-38 326 282
0.0089595336 0.73000002 -0.053757198 9.8591548e-39 327 282
0.010253493 0.73100001 -0.053830836 9.4910954e-39 328 282
0.011566739 0.73299998 -0.053978115 9.398541e-39 329 282
0.012851933 0.73299998 -0.053978115 9.0308389e-39 330 282
0.014137126 0.73299998 -0.053978115 8.8460889e-39 331 282
0.01544336 0.73400003 -0.054051761 9.0293914e-39 332 282
0.016730307 0.73400003 -0.054051761 8.5684132e-39 333 282
0.018017253 0.73400003 -0.054051761 7.8311985e-39 334 282
0.019304199 0.73400003 -0.054051761 7.2780247e-39 335 282
0.020647252 0.736 -0.05419904 6.4497116e-39 336 282
0.021997318 0.73799998 -0.054346316 5.8043422e-39 337 282
-0.057912603 0.73400003 -0.055338707 6.3538978e-39 275 283
-0.056625653 0.73400003 -0.055338707 5.8025415e-39 276 283
-0.055338707 0.73400003 -0.055338707 5.4341177e-39 277 283
-0.054051761 0.73400003 -0.055338707 4.88203e-39 278 283
-0.052908584 0.736 -0.055489492 4.3288562e-39 279 283
-0.051618133 0.736 -0.055489492 3.868248e-39 280 283
-0.038645219 0.71100003 -0.053604662 7.565815e-39 289 283
-0.037345998 0.70999998 -0.053529263 1.0689301e-38 290 283
-0.036101133 0.70999998 -0.053529263 1.0873692e-38 291 283
-0.034758076 0.708 -0.053378478 1.1057695e-38 292 283
-0.033516716 0.708 -0.053378478 1.09655e-38 293 283
-0.03227536 0.708 -0.053378478 1.1057327e-38 294 283
-0.031034 0.708 -0.053378478 1.0965131e-38 295 283
-0.029876797 0.70999998 -0.053529263 1.0780382e-38 296 283
-0.028631933 0.70999998 -0.053529263 1.0135013e-38 297 283
-0.027387066 0.70999998 -0.053529263 9.6718895e-39 298 283
-0.026142199 0.70999998 -0.053529263 9.4871395e-39 299 283
-0.024897331 0.70999998 -0.053529263 9.3045489e-39 300 283
-0.023685781 0.71100003 -0.053604662 9.3045489e-39 301 283
-0.022439159 0.71100003 -0.053604662 9.1212339e-39 302 283
-0.021252153 0.713 -0.053755447 9.0290382e-39 303 283
-0.020002026 0.713 -0.053755447 9.3041832e-39 304 283
-0.018778199 0.71399999 -0.053830836 9.3963788e-39 305 283
-0.017526319 0.71399999 -0.053830836 9.1233821e-39 306 283
-0.016320027 0.71600002 -0.053981625 9.399969e-39 307 283
-0.01506464 0.71600002 -0.053981625 9.3099215e-39 308 283
-0.013809253 0.71600002 -0.053981625 9.2177259e-39 309 283
-0.012553867 0.71600002 -0.053981625 9.2162882e-39 310 283
-0.01131426 0.71700001 -0.054057021 9.0315368e-39 311 283
-0.01005712 0.71700001 -0.054057021 9.0304704e-39 312 283
-0.0088245263 0.71899998 -0.054207806 8.8457204e-39 313 283
-0.0075743999 0.72000003 -0.054283202 8.4783854e-39 314 283
-0.0063120001 0.72000003 -0.054283202 8.4783854e-39 315 283
-0.0050636264 0.722 -0.054433983 8.6609788e-39 316 283
-0.0037977197 0.722 -0.054433983 8.2921963e-39 317 283
-0.0025318132 0.722 -0.054433983 8.1074547e-39 318 283
-0.0012676599 0.72299999 -0.054509375 7.8305077e-39 319 283
0 0.72299999 -0.054509375 8.4744449e-39 320 283
0.0012676599 0.72299999 -0.054509375 9.3038455e-39 321 283
0.0025353199 0.72299999 -0.054509375 9.5829379e-39 322 283
0.0038135003 0.72500002 -0.054660168 9.9513617e-39 323 283
0.0050846669 0.72500002 -0.054660168 1.0227579e-38 324 283
0.006408433 0.73100001 -0.055112526 1.0043548e-38 325 283
0.00769012 0.73100001 -0.055112526 1.0042461e-38 326 283
0.0089718066 0.73100001 -0.055112526 9.5818421e-39 327 283
0.010295574 0.73400003 -0.055338707 9.0286669e-39 328 283
0.011582521 0.73400003 -0.055338707 8.8442742e-39 329 283
0.012869466 0.73400003 -0.055338707 8.1989076e-39 330 283
0.014156413 0.73400003 -0.055338707 7.3687882e-39 331 283
0.01544336 0.73400003 -0.055338707 6.2642427e-39 332 283
0.016730307 0.73400003 -0.055338707 5.342285e-39 333 283
0.018017253 0.73400003 -0.055338707 4.4210518e-39 334 283
0.019356798 0.736 -0.055489492 3.3150644e-39 335 283
0.020647252 0.736 -0.055489492 2.303446e-39 336 283
-0.056625653 0.73400003 -0.056625653 5.7117752e-39 276 284
-0.038590867 0.70999998 -0.054774132 5.5364265e-39 289 284
-0.037345998 0.70999998 -0.054774132 8.3912499e-39 290 284
-0.036101133 0.70999998 -0.054774132 9.589793e-39 291 284
-0.034758076 0.708 -0.054619838 1.114774e-38 292 284
-0.033516716 0.708 -0.054619838 1.1239935e-38 293 284
-0.03227536 0.708 -0.054619838 1.0964775e-38 294 284
-0.031034 0.708 -0.054619838 1.0964775e-38 295 284
-0.02979264 0.708 -0.054619838 1.0871862e-38 296 284
-0.028631933 0.70999998 -0.054774132 1.0410524e-38 297 284
-0.027387066 0.70999998 -0.054774132 1.0041748e-38 298 284
-0.026142199 0.70999998 -0.054774132 9.7648026e-39 299 284
-0.024897331 0.70999998 -0.054774132 9.5814904e-39 300 284
-0.023685781 0.71100003 -0.054851279 9.4892933e-39 301 284
-0.022439159 0.71100003 -0.054851279 9.3059783e-39 302 284
-0.021252153 0.713 -0.055005573 9.3059783e-39 303 284
-0.020030079 0.71399999 -0.05508272 9.2137854e-39 304 284
-0.018778199 0.71399999 -0.05508272 9.3981781e-39 305 284
-0.017526319 0.71399999 -0.05508272 9.3084964e-39 306 284
-0.016320027 0.71600002 -0.055237014 9.4932464e-39 307 284
-0.01506464 0.71600002 -0.055237014 9.4932436e-39 308 284
-0.013809253 0.71600002 -0.055237014 9.1241023e-39 309 284
-0.012553867 0.71600002 -0.055237014 9.0286725e-39 310 284
-0.01131426 0.71700001 -0.055314157 8.8439211e-39 311 284
-0.01005712 0.71700001 -0.055314157 8.4751484e-39 312 284
-0.0088245263 0.71899998 -0.055468451 8.1982014e-39 313 284
-0.0075743999 0.72000003 -0.055545598 7.8305105e-39 314 284
-0.0063120001 0.72000003 -0.055545598 7.6464793e-39 315 284
-0.0050636264 0.722 -0.055699892 7.4628041e-39 316 284
-0.0037977197 0.722 -0.055699892 7.278773e-39 317 284
-0.0025318132 0.722 -0.055699892 7.4620825e-39 318 284
-0.0012676599 0.72299999 -0.055777039 7.5542781e-39 319 284
0 0.72299999 -0.055777039 8.1996475e-39 320 284
0.0012711667 0.72500002 -0.055931333 8.7528213e-39 321 284
0.0025493465 0.727 -0.056085624 9.0286823e-39 322 284
0.0038240198 0.727 -0.056085624 8.5680629e-39 323 284
0.0051057064 0.72799999 -0.056162767 8.38295e-39 324 284
0.006434733 0.73400003 -0.056625653 7.7375806e-39 325 284
0.0077111595 0.73299998 -0.056548502 7.0003686e-39 326 284
0.0089963535 0.73299998 -0.056548502 6.2624435e-39 327 284
-0.039835732 0.70999998 -0.056018997 2.9506329e-39 288 285
-0.038590867 0.70999998 -0.056018997 4.3335673e-39 289 285
-0.037345998 0.70999998 -0.056018997 6.455506e-39 290 285
-0.03599944 0.708 -0.055861197 8.7607554e-39 291 285
-0.034758076 0.708 -0.055861197 1.050454e-38 292 285
-0.033516716 0.708 -0.055861197 1.0873324e-38 293 285
-0.03227536 0.708 -0.055861197 1.0872945e-38 294 285
-0.031034 0.708 -0.055861197 1.0688913e-38 295 285
-0.02979264 0.708 -0.055861197 1.0962979e-38 296 285
-0.028631933 0.70999998 -0.056018997 1.0778587e-38 297 285
-0.027387066 0.70999998 -0.056018997 1.0409802e-38 298 285
-0.026142199 0.70999998 -0.056018997 1.0225411e-38 299 285
-0.024897331 0.70999998 -0.056018997 1.0042096e-38 300 285
-0.023685781 0.71100003 -0.056097899 9.9499001e-39 301 285
-0.022439159 0.71100003 -0.056097899 9.9491813e-39 302 285
-0.021252153 0.713 -0.056255698 9.9491813e-39 303 285
-0.020030079 0.71399999 -0.0563346 9.6740391e-39 304 285
-0.018778199 0.71399999 -0.0563346 9.9502659e-39 305 285
-0.017575413 0.71600002 -0.056492399 9.8598709e-39 306 285
-0.016320027 0.71600002 -0.056492399 9.8598709e-39 307 285
-0.01506464 0.71600002 -0.056492399 9.6744077e-39 308 285
-0.013809253 0.71600002 -0.056492399 8.9368426e-39 309 285
-0.012553867 0.71600002 -0.056492399 8.6573859e-39 310 285
-0.01131426 0.71700001 -0.056571297 8.2886019e-39 311 285
-0.010085173 0.71899998 -0.056729097 7.8279937e-39 312 285
-0.0088245263 0.71899998 -0.056729097 7.5517656e-39 313 285
-0.0075743999 0.72000003 -0.056808002 7.2762647e-39 314 285
-0.0063295332 0.722 -0.056965802 7.1840691e-39 315 285
-0.0050636264 0.722 -0.056965802 6.6341351e-39 316 285
-0.0038029798 0.72299999 -0.057044696 6.6341351e-39 317 285
-0.0025353199 0.72299999 -0.057044696 6.3589775e-39 318 285
-0.0012676599 0.72299999 -0.057044696 6.7281202e-39 319 285
0 0.72299999 -0.057044696 7.9237655e-39 320 285
0.0012711667 0.72500002 -0.057202499 8.1081581e-39 321 285
0.0025528532 0.72799999 -0.057439197 7.7386526e-39 322 285
0.0038292799 0.72799999 -0.057439197 7.0007288e-39 323 285
0.0051197335 0.73000002 -0.057597004 5.7117934e-39 324 285
-0.039835732 0.70999998 -0.057263866 3.7771468e-39 288 286
-0.038590867 0.70999998 -0.057263866 3.3165273e-39 289 286
-0.037345998 0.70999998 -0.057263866 3.966933e-39 290 286
-0.03599944 0.708 -0.057102561 6.8249975e-39 291 286
-0.034758076 0.708 -0.057102561 9.3095922e-39 292 286
-0.033516716 0.708 -0.057102561 9.9549616e-39 293 286
-0.03227536 0.708 -0.057102561 1.0871509e-38 294 286
-0.031034 0.708 -0.057102561 1.105554e-38 295 286
-0.02979264 0.708 -0.057102561 1.1055893e-38 296 286
-0.028631933 0.70999998 -0.057263866 1.0779666e-38 297 286
-0.027387066 0.70999998 -0.057263866 1.0410521e-38 298 286
-0.026142199 0.70999998 -0.057263866 1.0134294e-38 299 286
-0.024932399 0.71100003 -0.057344519 1.0225411e-38 300 286
-0.023752406 0.713 -0.057505824 1.0133215e-38 301 286
-0.022502279 0.713 -0.057505824 1.0042096e-38 302 286
-0.021252153 0.713 -0.057505824 1.0042096e-38 303 286
-0.020002026 0.713 -0.057505824 9.9499001e-39 304 286
-0.018778199 0.71399999 -0.057586476 1.0226846e-38 305 286
-0.017526319 0.71399999 -0.057586476 1.0412679e-38 306 286
-0.016320027 0.71600002 -0.057747785 1.0412679e-38 307 286
-0.01506464 0.71600002 -0.057747785 9.6740391e-39 308 286
-0.013809253 0.71600002 -0.057747785 8.659527e-39 309 286
-0.0125714 0.71700001 -0.057828441 8.5644602e-39 310 286
-0.01131426 0.71700001 -0.057828441 8.1038421e-39 311 286
-0.010085173 0.71899998 -0.057989739 7.6443087e-39 312 286
-0.0088367993 0.72000003 -0.058070403 7.5521131e-39 313 286
-0.0075954394 0.722 -0.058231708 7.0925769e-39 314 286
