# .PCD v.7 - Point Cloud Data file format
FIELDS x y z rgb imX imY
SIZE 4 4 4 4 4 4
TYPE F F F F F F
COUNT 1 1 1 1 1 1
WIDTH 818
HEIGHT 1
VIEWPOINT 0 0 0 1 0 0 0
POINTS 818
DATA ascii
-0.019048214 0.67900002 -0.0011905134 1.2444965e-38 304 241
-0.017857701 0.67900002 -0.0011905134 1.2352768e-38 305 241
-0.016667187 0.67900002 -0.0011905134 1.2352768e-38 306 241
-0.015453878 0.67799997 -0.0011887599 1.2168378e-38 307 241
-0.014265119 0.67799997 -0.0011887599 1.2352768e-38 308 241
-0.013076359 0.67799997 -0.0011887599 1.2168378e-38 309 241
-0.011887599 0.67799997 -0.0011887599 1.2352049e-38 310 241
-0.01066728 0.676 -0.0011852533 1.2352049e-38 311 241
-0.0094820261 0.676 -0.0011852533 1.2535362e-38 312 241
-0.0082967728 0.676 -0.0011852533 1.2351331e-38 313 241
-0.0071115191 0.676 -0.0011852533 1.2351328e-38 314 241
-0.0059262668 0.676 -0.0011852533 1.2351328e-38 315 241
-0.0047410131 0.676 -0.0011852533 1.2351325e-38 316 241
-0.0035557596 0.676 -0.0011852533 1.2259129e-38 317 241
-0.0023705065 0.676 -0.0011852533 1.2259129e-38 318 241
-0.0011852533 0.676 -0.0011852533 1.2351325e-38 319 241
0 0.67799997 -0.0011887599 1.2351325e-38 320 241
0.0011887599 0.67799997 -0.0011887599 1.2259129e-38 321 241
0.0023775198 0.67799997 -0.0011887599 1.2259129e-38 322 241
0.0035662798 0.67799997 -0.0011887599 1.2166934e-38 323 241
0.0047550397 0.67799997 -0.0011887599 1.2258046e-38 324 241
0.0059437994 0.67799997 -0.0011887599 1.2258046e-38 325 241
0.0071325595 0.67799997 -0.0011887599 1.2258402e-38 326 241
0.0083335936 0.67900002 -0.0011905134 1.2350599e-38 327 241
0.0095381327 0.68000001 -0.0011922666 1.2167284e-38 328 241
0.0107304 0.68000001 -0.0011922666 1.2167284e-38 329 241
0.011957732 0.68199998 -0.0011957732 1.2350596e-38 330 241
0.013153506 0.68199998 -0.0011957732 1.2258399e-38 331 241
0.014370319 0.68300003 -0.0011975267 1.2350952e-38 332 241
0.015567848 0.68300003 -0.0011975267 1.2350952e-38 333 241
0.016765373 0.68300003 -0.0011975267 1.2350952e-38 334 241
0.0179892 0.68400002 -0.00119928 1.2258755e-38 335 241
0.019244585 0.68599999 -0.0012027866 1.2350232e-38 336 241
0.020477179 0.68699998 -0.0012045399 1.2350232e-38 337 241
0.021713281 0.68800002 -0.0012062934 1.2441349e-38 338 241
0.022986198 0.69 -0.0012097999 1.2257317e-38 339 241
0.024231065 0.69099998 -0.0012115532 1.2257317e-38 340 241
0.02551626 0.69300002 -0.00121506 1.2257317e-38 341 241
0.026769891 0.69400001 -0.0012168133 1.2348434e-38 342 241
0.027986705 0.69400001 -0.0012168133 1.2256238e-38 343 241
0.02932976 0.69700003 -0.0012220733 1.1980375e-38 344 241
0.030595668 0.69800001 -0.0012238267 1.2164766e-38 345 241
0.031956252 0.70099998 -0.0012290865 1.2257327e-38 346 241
-0.049093332 0.69999999 -0.0024546667 1.36446e-38 280 242
-0.047865998 0.69999999 -0.0024546667 1.3552404e-38 281 242
-0.046638668 0.69999999 -0.0024546667 1.3552035e-38 282 242
-0.045281585 0.69800001 -0.0024476533 1.3367643e-38 283 242
-0.04405776 0.69800001 -0.0024476533 1.3458038e-38 284 242
-0.042833932 0.69800001 -0.0024476533 1.3274007e-38 285 242
-0.041490879 0.69599998 -0.0024406398 1.318181e-38 286 242
-0.040154841 0.69400001 -0.0024336267 1.318181e-38 287 242
-0.03888192 0.69300002 -0.00243012 1.2814467e-38 288 242
-0.037666857 0.69300002 -0.00243012 1.2722271e-38 289 242
-0.036346599 0.69099998 -0.0024231065 1.2630075e-38 290 242
-0.03498251 0.68800002 -0.0024125867 1.2630075e-38 291 242
-0.033727121 0.68699998 -0.0024090798 1.2630075e-38 292 242
-0.032475237 0.68599999 -0.0024055731 1.2630075e-38 293 242
-0.031135695 0.68300003 -0.0023950534 1.2630078e-38 294 242
-0.029894331 0.68199998 -0.0023915465 1.2630078e-38 295 242
-0.02869856 0.68199998 -0.0023915465 1.2721555e-38 296 242
-0.027502786 0.68199998 -0.0023915465 1.2629359e-38 297 242
-0.026229866 0.68000001 -0.0023845332 1.2629357e-38 298 242
-0.025037598 0.68000001 -0.0023845332 1.2629357e-38 299 242
-0.023845334 0.68000001 -0.0023845332 1.2629357e-38 300 242
-0.022653066 0.68000001 -0.0023845332 1.2537161e-38 301 242
-0.021523919 0.68199998 -0.0023915465 1.2536442e-38 302 242
-0.020328145 0.68199998 -0.0023915465 1.2536442e-38 303 242
-0.019076265 0.68000001 -0.0023845332 1.2169453e-38 304 242
-0.017857701 0.67900002 -0.0023810267 1.2261649e-38 305 242
-0.016667187 0.67900002 -0.0023810267 1.2169453e-38 306 242
-0.015476674 0.67900002 -0.0023810267 1.2169453e-38 307 242
-0.014265119 0.67799997 -0.0023775198 1.2168378e-38 308 242
-0.013076359 0.67799997 -0.0023775198 1.2168378e-38 309 242
-0.011887599 0.67799997 -0.0023775198 1.2168378e-38 310 242
-0.010698839 0.67799997 -0.0023775198 1.2168378e-38 311 242
-0.0095100794 0.67799997 -0.0023775198 1.2535362e-38 312 242
-0.0083213197 0.67799997 -0.0023775198 1.2351331e-38 313 242
-0.0071325595 0.67799997 -0.0023775198 1.253464e-38 314 242
-0.0059437994 0.67799997 -0.0023775198 1.253464e-38 315 242
-0.0047550397 0.67799997 -0.0023775198 1.2351325e-38 316 242
-0.0035662798 0.67799997 -0.0023775198 1.2259129e-38 317 242
-0.0023775198 0.67799997 -0.0023775198 1.2442442e-38 318 242
-0.0011887599 0.67799997 -0.0023775198 1.2442442e-38 319 242
0 0.67799997 -0.0023775198 1.2442442e-38 320 242
0.0011887599 0.67799997 -0.0023775198 1.2442442e-38 321 242
0.0023775198 0.67799997 -0.0023775198 1.2259485e-38 322 242
0.0035715401 0.67900002 -0.0023810267 1.2259485e-38 323 242
0.0047620535 0.67900002 -0.0023810267 1.2167287e-38 324 242
0.0059525664 0.67900002 -0.0023810267 1.2167287e-38 325 242
0.0071430802 0.67900002 -0.0023810267 1.2350596e-38 326 242
0.0083335936 0.67900002 -0.0023810267 1.2350596e-38 327 242
0.0095381327 0.68000001 -0.0023845332 1.2350596e-38 328 242
0.010761959 0.68199998 -0.0023915465 1.2350596e-38 329 242
0.011957732 0.68199998 -0.0023915465 1.2349876e-38 330 242
0.013153506 0.68199998 -0.0023915465 1.2349876e-38 331 242
0.014370319 0.68300003 -0.0023950534 1.2258399e-38 332 242
0.015567848 0.68300003 -0.0023950534 1.2258399e-38 333 242
0.016789921 0.68400002 -0.0023985601 1.2349876e-38 334 242
0.018041799 0.68599999 -0.0024055731 1.225768e-38 335 242
0.019272638 0.68699998 -0.0024090798 1.2349876e-38 336 242
0.020506985 0.68800002 -0.0024125867 1.225768e-38 337 242
0.021713281 0.68800002 -0.0024125867 1.2257317e-38 338 242
0.022986198 0.69 -0.0024195998 1.2257317e-38 339 242
0.024231065 0.69099998 -0.0024231065 1.2257315e-38 340 242
0.02551626 0.69300002 -0.00243012 1.2257315e-38 341 242
0.026769891 0.69400001 -0.0024336267 1.2348431e-38 342 242
0.028067358 0.69599998 -0.0024406398 1.2256236e-38 343 242
0.029371841 0.69800001 -0.0024476533 1.2256238e-38 344 242
0.030683333 0.69999999 -0.0024546667 1.2348434e-38 345 242
0.031956252 0.70099998 -0.0024581731 1.2441723e-38 346 242
-0.050320663 0.69999999 -0.0036819996 1.3737149e-38 279 243
-0.049093332 0.69999999 -0.0036819996 1.3737502e-38 280 243
-0.047865998 0.69999999 -0.0036819996 1.3737502e-38 281 243
-0.046638668 0.69999999 -0.0036819996 1.3644587e-38 282 243
-0.045281585 0.69800001 -0.0036714801 1.3459836e-38 283 243
-0.04405776 0.69800001 -0.0036714801 1.3458041e-38 284 243
-0.042833932 0.69800001 -0.0036714801 1.327401e-38 285 243
-0.041550495 0.69700003 -0.00366622 1.3181456e-38 286 243
-0.040270556 0.69599998 -0.0036609597 1.3181456e-38 287 243
-0.038938027 0.69400001 -0.0036504399 1.2997782e-38 288 243
-0.037666857 0.69300002 -0.0036451798 1.2813751e-38 289 243
-0.036346599 0.69099998 -0.0036346598 1.2813751e-38 290 243
-0.035084199 0.69 -0.0036293997 1.2813751e-38 291 243
-0.033776212 0.68800002 -0.0036188802 1.2722271e-38 292 243
-0.032522578 0.68699998 -0.0036136196 1.2722271e-38 293 243
-0.03118128 0.68400002 -0.00359784 1.2630078e-38 294 243
-0.029938167 0.68300003 -0.0035925799 1.2630078e-38 295 243
-0.02869856 0.68199998 -0.00358732 1.2813751e-38 296 243
-0.027502786 0.68199998 -0.00358732 1.2629359e-38 297 243
-0.026307013 0.68199998 -0.00358732 1.2629357e-38 298 243
-0.025111238 0.68199998 -0.00358732 1.2629357e-38 299 243
-0.023845334 0.68000001 -0.0035767998 1.2629357e-38 300 243
-0.022653066 0.68000001 -0.0035767998 1.2537161e-38 301 243
-0.021523919 0.68199998 -0.00358732 1.2537161e-38 302 243
-0.020328145 0.68199998 -0.00358732 1.2537161e-38 303 243
-0.019076265 0.68000001 -0.0035767998 1.2261653e-38 304 243
-0.017883999 0.68000001 -0.0035767998 1.2261653e-38 305 243
-0.016691733 0.68000001 -0.0035767998 1.2261649e-38 306 243
-0.015476674 0.67900002 -0.0035715401 1.2169453e-38 307 243
-0.01428616 0.67900002 -0.0035715401 1.2352049e-38 308 243
-0.013095647 0.67900002 -0.0035715401 1.2352049e-38 309 243
-0.011887599 0.67799997 -0.0035662798 1.2444245e-38 310 243
-0.010698839 0.67799997 -0.0035662798 1.2352049e-38 311 243
-0.0095100794 0.67799997 -0.0035662798 1.253464e-38 312 243
-0.0083213197 0.67799997 -0.0035662798 1.253464e-38 313 243
-0.0071325595 0.67799997 -0.0035662798 1.253464e-38 314 243
-0.0059437994 0.67799997 -0.0035662798 1.253464e-38 315 243
-0.0047550397 0.67799997 -0.0035662798 1.2351325e-38 316 243
-0.0035662798 0.67799997 -0.0035662798 1.2259129e-38 317 243
-0.0023775198 0.67799997 -0.0035662798 1.2534996e-38 318 243
-0.0011887599 0.67799997 -0.0035662798 1.2534996e-38 319 243
0 0.67900002 -0.0035715401 1.2442442e-38 320 243
0.0011905134 0.67900002 -0.0035715401 1.2442442e-38 321 243
0.0023810267 0.67900002 -0.0035715401 1.2259485e-38 322 243
0.0035715401 0.67900002 -0.0035715401 1.2259485e-38 323 243
0.0047620535 0.67900002 -0.0035715401 1.2350599e-38 324 243
0.0059525664 0.67900002 -0.0035715401 1.2350599e-38 325 243
0.0071430802 0.67900002 -0.0035715401 1.2534627e-38 326 243
0.0083458666 0.68000001 -0.0035767998 1.2442432e-38 327 243
0.009566186 0.68199998 -0.00358732 1.2625744e-38 328 243
0.010761959 0.68199998 -0.00358732 1.2533547e-38 329 243
0.011957732 0.68199998 -0.00358732 1.2349876e-38 330 243
0.013172794 0.68300003 -0.0035925799 1.2349876e-38 331 243
0.014370319 0.68300003 -0.0035925799 1.225768e-38 332 243
0.01559064 0.68400002 -0.00359784 1.225768e-38 333 243
0.016839013 0.68599999 -0.00360836 1.2256964e-38 334 243
0.018068098 0.68699998 -0.0036136196 1.2440995e-38 335 243
0.019272638 0.68699998 -0.0036136196 1.2440993e-38 336 243
0.020506985 0.68800002 -0.0036188802 1.2440993e-38 337 243
0.021713281 0.68800002 -0.0036188802 1.2258033e-38 338 243
0.022986198 0.69 -0.0036293997 1.2258033e-38 339 243
0.024231065 0.69099998 -0.0036346598 1.2441702e-38 340 243
0.02551626 0.69300002 -0.0036451798 1.2257312e-38 341 243
0.026769891 0.69400001 -0.0036504399 1.2348428e-38 342 243
0.028107686 0.69700003 -0.00366622 1.2256233e-38 343 243
0.029371841 0.69800001 -0.0036714801 1.2163684e-38 344 243
0.030683333 0.69999999 -0.0036819996 1.2348434e-38 345 243
0.031956252 0.70099998 -0.0036872597 1.2533194e-38 346 243
-0.050105009 0.69700003 -0.0048882933 1.3831144e-38 279 244
-0.048882935 0.69700003 -0.0048882933 1.3832216e-38 280 244
-0.047729239 0.69800001 -0.0048953067 1.3555627e-38 281 244
-0.046638668 0.69999999 -0.0049093333 1.3645306e-38 282 244
-0.04541133 0.69999999 -0.0049093333 1.3460555e-38 283 244
-0.044183996 0.69999999 -0.0049093333 1.3550237e-38 284 244
-0.042833932 0.69800001 -0.0048953067 1.327401e-38 285 244
-0.041610107 0.69800001 -0.0048953067 1.3089979e-38 286 244
-0.040328421 0.69700003 -0.0048882933 1.3089979e-38 287 244
-0.038938027 0.69400001 -0.0048672534 1.2814467e-38 288 244
-0.037666857 0.69300002 -0.00486024 1.2722271e-38 289 244
-0.036346599 0.69099998 -0.0048462129 1.2722274e-38 290 244
-0.035084199 0.69 -0.0048391996 1.2722274e-38 291 244
-0.033776212 0.68800002 -0.0048251734 1.2722274e-38 292 244
-0.032522578 0.68699998 -0.0048181596 1.2630078e-38 293 244
-0.031318039 0.68699998 -0.0048181596 1.2630078e-38 294 244
-0.029938167 0.68300003 -0.0047901068 1.2630078e-38 295 244
-0.028740639 0.68300003 -0.0047901068 1.2721555e-38 296 244
-0.027502786 0.68199998 -0.004783093 1.2721555e-38 297 244
-0.026307013 0.68199998 -0.004783093 1.2629359e-38 298 244
-0.025111238 0.68199998 -0.004783093 1.2536805e-38 299 244
-0.023915464 0.68199998 -0.004783093 1.2353493e-38 300 244
-0.022719691 0.68199998 -0.004783093 1.2353493e-38 301 244
-0.021523919 0.68199998 -0.004783093 1.2536805e-38 302 244
-0.020328145 0.68199998 -0.004783093 1.2444609e-38 303 244
-0.019132372 0.68199998 -0.004783093 1.2444609e-38 304 244
-0.017883999 0.68000001 -0.0047690663 1.2444609e-38 305 244
-0.016691733 0.68000001 -0.0047690663 1.2169097e-38 306 244
-0.015499466 0.68000001 -0.0047690663 1.2076902e-38 307 244
-0.01428616 0.67900002 -0.0047620535 1.2352049e-38 308 244
-0.013095647 0.67900002 -0.0047620535 1.2352049e-38 309 244
-0.011905133 0.67900002 -0.0047620535 1.2444242e-38 310 244
-0.010714619 0.67900002 -0.0047620535 1.2444242e-38 311 244
-0.009524107 0.67900002 -0.0047620535 1.2535359e-38 312 244
-0.0083335936 0.67900002 -0.0047620535 1.2535359e-38 313 244
-0.0071430802 0.67900002 -0.0047620535 1.2535715e-38 314 244
-0.0059525664 0.67900002 -0.0047620535 1.2351325e-38 315 244
-0.0047620535 0.67900002 -0.0047620535 1.2351325e-38 316 244
-0.0035715401 0.67900002 -0.0047620535 1.2351325e-38 317 244
-0.0023810267 0.67900002 -0.0047620535 1.2351325e-38 318 244
-0.0011905134 0.67900002 -0.0047620535 1.2259129e-38 319 244
0 0.68000001 -0.0047690663 1.2442797e-38 320 244
0.0011922666 0.68000001 -0.0047690663 1.2442797e-38 321 244
0.0023845332 0.68000001 -0.0047690663 1.2442797e-38 322 244
0.0035767998 0.68000001 -0.0047690663 1.2442797e-38 323 244
0.0047690663 0.68000001 -0.0047690663 1.2442076e-38 324 244
0.0059613334 0.68000001 -0.0047690663 1.2442076e-38 325 244
0.0071535995 0.68000001 -0.0047690663 1.2625388e-38 326 244
0.0083458666 0.68000001 -0.0047690663 1.2625388e-38 327 244
0.009566186 0.68199998 -0.004783093 1.2533191e-38 328 244
0.010761959 0.68199998 -0.004783093 1.2533191e-38 329 244
0.011975267 0.68300003 -0.0047901068 1.2349876e-38 330 244
0.013172794 0.68300003 -0.0047901068 1.225768e-38 331 244
0.01439136 0.68400002 -0.0047971201 1.225768e-38 332 244
0.015636226 0.68599999 -0.0048111463 1.225768e-38 333 244
0.016839013 0.68599999 -0.0048111463 1.2165485e-38 334 244
0.018068098 0.68699998 -0.0048181596 1.225768e-38 335 244
0.019300694 0.68800002 -0.0048251734 1.225768e-38 336 244
0.020506985 0.68800002 -0.0048251734 1.225768e-38 337 244
0.021776399 0.69 -0.0048391996 1.225768e-38 338 244
0.023019511 0.69099998 -0.0048462129 1.225768e-38 339 244
0.024231065 0.69099998 -0.0048462129 1.2258036e-38 340 244
0.025553079 0.69400001 -0.0048672534 1.2165482e-38 341 244
0.026847038 0.69599998 -0.0048812795 1.2165119e-38 342 244
0.028148014 0.69800001 -0.0048953067 1.2165119e-38 343 244
0.029371841 0.69800001 -0.0048953067 1.2165122e-38 344 244
0.030683333 0.69999999 -0.0049093333 1.2165122e-38 345 244
0.031956252 0.70099998 -0.0049163462 1.2349879e-38 346 244
-0.050105009 0.69700003 -0.0061103669 1.5577469e-38 279 245
-0.048882935 0.69700003 -0.0061103669 1.5944802e-38 280 245
-0.047729239 0.69800001 -0.006119133 1.5391628e-38 281 245
-0.046705291 0.70099998 -0.0061454331 1.4195959e-38 282 245
-0.04541133 0.69999999 -0.0061366665 1.3734981e-38 283 245
-0.044183996 0.69999999 -0.0061366665 1.3642069e-38 284 245
-0.042833932 0.69800001 -0.006119133 1.3457319e-38 285 245
-0.041610107 0.69800001 -0.006119133 1.3274007e-38 286 245
-0.040328421 0.69700003 -0.0061103669 1.3089614e-38 287 245
-0.039050236 0.69599998 -0.0061015999 1.2998138e-38 288 245
-0.037721213 0.69400001 -0.0060840664 1.2998138e-38 289 245
-0.036451802 0.69300002 -0.0060753003 1.2813751e-38 290 245
-0.035135046 0.69099998 -0.0060577663 1.2813751e-38 291 245
-0.0338744 0.69 -0.0060489997 1.2630078e-38 292 245
-0.032569919 0.68800002 -0.0060314666 1.2630078e-38 293 245
-0.031318039 0.68699998 -0.0060226996 1.2630078e-38 294 245
-0.029982001 0.68400002 -0.0059964 1.2630078e-38 295 245
-0.028740639 0.68300003 -0.0059876335 1.2813748e-38 296 245
-0.027543113 0.68300003 -0.0059876335 1.2629357e-38 297 245
-0.026345588 0.68300003 -0.0059876335 1.2812669e-38 298 245
-0.025111238 0.68199998 -0.005978866 1.2812669e-38 299 245
-0.023915464 0.68199998 -0.005978866 1.262864e-38 300 245
-0.022719691 0.68199998 -0.005978866 1.262864e-38 301 245
-0.02155548 0.68300003 -0.0059876335 1.2536805e-38 302 245
-0.020328145 0.68199998 -0.005978866 1.2536805e-38 303 245
-0.019132372 0.68199998 -0.005978866 1.2444965e-38 304 245
-0.017936599 0.68199998 -0.005978866 1.2444965e-38 305 245
-0.016740825 0.68199998 -0.005978866 1.2444961e-38 306 245
-0.015499466 0.68000001 -0.0059613334 1.2352765e-38 307 245
-0.014307199 0.68000001 -0.0059613334 1.2352047e-38 308 245
-0.013114933 0.68000001 -0.0059613334 1.2444242e-38 309 245
-0.011922667 0.68000001 -0.0059613334 1.2444598e-38 310 245
-0.010714619 0.67900002 -0.0059525664 1.2444598e-38 311 245
-0.009524107 0.67900002 -0.0059525664 1.262791e-38 312 245
-0.0083335936 0.67900002 -0.0059525664 1.262791e-38 313 245
-0.0071430802 0.67900002 -0.0059525664 1.2627192e-38 314 245
-0.0059525664 0.67900002 -0.0059525664 1.2627192e-38 315 245
-0.0047620535 0.67900002 -0.0059525664 1.2535715e-38 316 245
-0.0035715401 0.67900002 -0.0059525664 1.2351325e-38 317 245
-0.0023810267 0.67900002 -0.0059525664 1.2351325e-38 318 245
-0.0011922666 0.68000001 -0.0059613334 1.2351325e-38 319 245
0 0.68000001 -0.0059613334 1.2442797e-38 320 245
0.0011922666 0.68000001 -0.0059613334 1.2442797e-38 321 245
0.0023845332 0.68000001 -0.0059613334 1.2442079e-38 322 245
0.0035767998 0.68000001 -0.0059613334 1.2442079e-38 323 245
0.004783093 0.68199998 -0.005978866 1.2350602e-38 324 245
0.005978866 0.68199998 -0.005978866 1.2350602e-38 325 245
0.00717464 0.68199998 -0.005978866 1.2349879e-38 326 245
0.0083704125 0.68199998 -0.005978866 1.2349879e-38 327 245
0.0095802136 0.68300003 -0.0059876335 1.2349876e-38 328 245
0.01077774 0.68300003 -0.0059876335 1.225768e-38 329 245
0.011975267 0.68300003 -0.0059876335 1.225768e-38 330 245
0.01319208 0.68400002 -0.0059964 1.2349876e-38 331 245
0.01439136 0.68400002 -0.0059964 1.225768e-38 332 245
0.015636226 0.68599999 -0.0060139326 1.2165485e-38 333 245
0.01686356 0.68699998 -0.0060226996 1.2165485e-38 334 245
0.018068098 0.68699998 -0.0060226996 1.2165485e-38 335 245
0.019300694 0.68800002 -0.0060314666 1.225768e-38 336 245
0.020566599 0.69 -0.0060489997 1.2349876e-38 337 245
0.021776399 0.69 -0.0060489997 1.2350232e-38 338 245
0.02308614 0.69300002 -0.0060753003 1.2258036e-38 339 245
0.024301201 0.69300002 -0.0060753003 1.2258036e-38 340 245
0.025553079 0.69400001 -0.0060840664 1.2165482e-38 341 245
0.026885614 0.69700003 -0.0061103669 1.2257317e-38 342 245
0.028148014 0.69800001 -0.006119133 1.2165122e-38 343 245
0.029455997 0.69999999 -0.0061366665 1.2348434e-38 344 245
0.030683333 0.69999999 -0.0061366665 1.2348434e-38 345 245
0.031956252 0.70099998 -0.0061454331 1.299345e-38 346 245
0.03332736 0.704 -0.0061717331 1.4007962e-38 347 245
-0.050105009 0.69700003 -0.00733244 1.4826933e-38 279 246
-0.048882935 0.69700003 -0.00733244 1.5738813e-38 280 246
-0.047729239 0.69800001 -0.0073429602 1.7029551e-38 281 246
-0.046705291 0.70099998 -0.0073745195 1.4558259e-38 282 246
-0.04541133 0.69999999 -0.0073639993 1.474229e-38 283 246
-0.044183996 0.69999999 -0.0073639993 1.355059e-38 284 246
-0.042956665 0.69999999 -0.0073639993 1.3458394e-38 285 246
-0.041610107 0.69800001 -0.0073429602 1.3089979e-38 286 246
-0.040386278 0.69800001 -0.0073429602 1.3089979e-38 287 246
-0.039050236 0.69599998 -0.0073219193 1.2814469e-38 288 246
-0.037721213 0.69400001 -0.0073008798 1.2814469e-38 289 246
-0.036451802 0.69300002 -0.0072903596 1.2722274e-38 290 246
-0.035135046 0.69099998 -0.0072693196 1.2630078e-38 291 246
-0.0338744 0.69 -0.0072587994 1.2721555e-38 292 246
-0.032664597 0.69 -0.0072587994 1.2721555e-38 293 246
-0.031363625 0.68800002 -0.0072377604 1.2630078e-38 294 246
-0.030113498 0.68699998 -0.0072272392 1.2722274e-38 295 246
-0.02878272 0.68400002 -0.0071956799 1.2630078e-38 296 246
-0.027543113 0.68300003 -0.0071851597 1.2630078e-38 297 246
-0.026345588 0.68300003 -0.0071851597 1.2721552e-38 298 246
-0.02514806 0.68300003 -0.0071851597 1.2721552e-38 299 246
-0.023915464 0.68199998 -0.00717464 1.2629357e-38 300 246
-0.022719691 0.68199998 -0.00717464 1.2537161e-38 301 246
-0.02155548 0.68300003 -0.0071851597 1.2536808e-38 302 246
-0.020357953 0.68300003 -0.0071851597 1.2444612e-38 303 246
-0.019132372 0.68199998 -0.00717464 1.2444609e-38 304 246
-0.017936599 0.68199998 -0.00717464 1.2444609e-38 305 246
-0.016740825 0.68199998 -0.00717464 1.2261653e-38 306 246
-0.015545053 0.68199998 -0.00717464 1.2169097e-38 307 246
-0.01434928 0.68199998 -0.00717464 1.2352047e-38 308 246
-0.013114933 0.68000001 -0.0071535995 1.2444242e-38 309 246
-0.011922667 0.68000001 -0.0071535995 1.2444961e-38 310 246
-0.0107304 0.68000001 -0.0071535995 1.2352765e-38 311 246
-0.0095381327 0.68000001 -0.0071535995 1.2627557e-38 312 246
-0.0083458666 0.68000001 -0.0071535995 1.2535362e-38 313 246
-0.0071535995 0.68000001 -0.0071535995 1.2535359e-38 314 246
-0.0059613334 0.68000001 -0.0071535995 1.2535359e-38 315 246
-0.0047690663 0.68000001 -0.0071535995 1.2351325e-38 316 246
-0.0035767998 0.68000001 -0.0071535995 1.2351325e-38 317 246
-0.0023845332 0.68000001 -0.0071535995 1.2351325e-38 318 246
-0.0011922666 0.68000001 -0.0071535995 1.2259129e-38 319 246
0 0.68000001 -0.0071535995 1.2442442e-38 320 246
0.0011922666 0.68000001 -0.0071535995 1.2442442e-38 321 246
0.0023915465 0.68199998 -0.00717464 1.2442797e-38 322 246
0.00358732 0.68199998 -0.00717464 1.2442797e-38 323 246
0.004783093 0.68199998 -0.00717464 1.2442079e-38 324 246
0.005978866 0.68199998 -0.00717464 1.2349882e-38 325 246
0.00717464 0.68199998 -0.00717464 1.2533194e-38 326 246
0.0083704125 0.68199998 -0.00717464 1.2533194e-38 327 246
0.0095802136 0.68300003 -0.0071851597 1.2440995e-38 328 246
0.01077774 0.68300003 -0.0071851597 1.2533191e-38 329 246
0.0119928 0.68400002 -0.0071956799 1.2349876e-38 330 246
0.013230653 0.68599999 -0.0072167199 1.225768e-38 331 246
0.01443344 0.68599999 -0.0072167199 1.2165485e-38 332 246
0.015659019 0.68699998 -0.0072272392 1.225768e-38 333 246
0.01686356 0.68699998 -0.0072272392 1.225768e-38 334 246
0.0180944 0.68800002 -0.0072377604 1.225768e-38 335 246
0.019300694 0.68800002 -0.0072377604 1.225768e-38 336 246
0.020566599 0.69 -0.0072587994 1.2349876e-38 337 246
0.021807959 0.69099998 -0.0072693196 1.225768e-38 338 246
0.023119451 0.69400001 -0.0073008798 1.225768e-38 339 246
0.024336265 0.69400001 -0.0073008798 1.225768e-38 340 246
0.025626717 0.69599998 -0.0073219193 1.2165485e-38 341 246
0.026924185 0.69800001 -0.0073429602 1.2256961e-38 342 246
0.028228667 0.69999999 -0.0073639993 1.2256961e-38 343 246
0.029455997 0.69999999 -0.0073639993 1.2256236e-38 344 246
0.030727165 0.70099998 -0.0073745195 1.1887453e-38 345 246
0.032047424 0.70300001 -0.0073955595 1.3729568e-38 346 246
0.03332736 0.704 -0.0074060797 1.5020307e-38 347 246
-0.050176892 0.69800001 -0.0085667865 1.5086941e-38 279 247
-0.048953064 0.69800001 -0.0085667865 1.4988265e-38 280 247
-0.047865998 0.69999999 -0.0085913334 1.6647426e-38 281 247
-0.046705291 0.70099998 -0.0086036054 1.5198933e-38 282 247
-0.045476202 0.70099998 -0.0086036054 1.5568076e-38 283 247
-0.044247117 0.70099998 -0.0086036054 1.3825735e-38 284 247
-0.042956665 0.69999999 -0.0085913334 1.373318e-38 285 247
-0.041729331 0.69999999 -0.0085913334 1.318253e-38 286 247
-0.040386278 0.69800001 -0.0085667865 1.3090333e-38 287 247
-0.039106347 0.69700003 -0.0085545136 1.2997782e-38 288 247
-0.037829921 0.69599998 -0.0085422397 1.2997782e-38 289 247
-0.036451802 0.69300002 -0.0085054198 1.2722274e-38 290 247
-0.035236739 0.69300002 -0.0085054198 1.2722274e-38 291 247
-0.033923492 0.69099998 -0.008480873 1.2629359e-38 292 247
-0.032664597 0.69 -0.0084686 1.2721555e-38 293 247
-0.031454802 0.69 -0.0084686 1.2629722e-38 294 247
-0.030157333 0.68800002 -0.0084440531 1.2629722e-38 295 247
-0.028908957 0.68699998 -0.0084317802 1.2721555e-38 296 247
-0.027583439 0.68400002 -0.0083949603 1.2721555e-38 297 247
-0.02638416 0.68400002 -0.0083949603 1.2721552e-38 298 247
-0.025184879 0.68400002 -0.0083949603 1.2629357e-38 299 247
-0.023950534 0.68300003 -0.0083826864 1.2812672e-38 300 247
-0.022753006 0.68300003 -0.0083826864 1.262864e-38 301 247
-0.02155548 0.68300003 -0.0083826864 1.2536805e-38 302 247
-0.020357953 0.68300003 -0.0083826864 1.2444609e-38 303 247
-0.019160427 0.68300003 -0.0083826864 1.2444609e-38 304 247
-0.017936599 0.68199998 -0.0083704125 1.2444609e-38 305 247
-0.016740825 0.68199998 -0.0083704125 1.2444961e-38 306 247
-0.015545053 0.68199998 -0.0083704125 1.2444961e-38 307 247
-0.01434928 0.68199998 -0.0083704125 1.2444242e-38 308 247
-0.013153506 0.68199998 -0.0083704125 1.2444242e-38 309 247
-0.011922667 0.68000001 -0.0083458666 1.2444961e-38 310 247
-0.0107304 0.68000001 -0.0083458666 1.2352765e-38 311 247
-0.009566186 0.68199998 -0.0083704125 1.2535362e-38 312 247
-0.0083704125 0.68199998 -0.0083704125 1.2351331e-38 313 247
-0.00717464 0.68199998 -0.0083704125 1.2534643e-38 314 247
-0.0059613334 0.68000001 -0.0083458666 1.2534643e-38 315 247
-0.0047690663 0.68000001 -0.0083458666 1.253464e-38 316 247
-0.0035767998 0.68000001 -0.0083458666 1.2626836e-38 317 247
-0.0023845332 0.68000001 -0.0083458666 1.2351325e-38 318 247
-0.0011957732 0.68199998 -0.0083704125 1.2351325e-38 319 247
0 0.68199998 -0.0083704125 1.2351325e-38 320 247
0.0011957732 0.68199998 -0.0083704125 1.2259129e-38 321 247
0.0023915465 0.68199998 -0.0083704125 1.2259485e-38 322 247
0.00358732 0.68199998 -0.0083704125 1.2259485e-38 323 247
0.004783093 0.68199998 -0.0083704125 1.2349882e-38 324 247
0.005978866 0.68199998 -0.0083704125 1.2349882e-38 325 247
0.0071851597 0.68300003 -0.0083826864 1.2533194e-38 326 247
0.0083826864 0.68300003 -0.0083826864 1.2533194e-38 327 247
0.0095942402 0.68400002 -0.0083949603 1.2440993e-38 328 247
0.01079352 0.68400002 -0.0083949603 1.2533547e-38 329 247
0.0119928 0.68400002 -0.0083949603 1.2625021e-38 330 247
0.013230653 0.68599999 -0.0084195063 1.2532825e-38 331 247
0.01443344 0.68599999 -0.0084195063 1.2441349e-38 332 247
0.015659019 0.68699998 -0.0084317802 1.2441349e-38 333 247
0.016888106 0.68800002 -0.0084440531 1.225768e-38 334 247
0.0180944 0.68800002 -0.0084440531 1.225768e-38 335 247
0.019356798 0.69 -0.0084686 1.2440993e-38 336 247
0.020596405 0.69099998 -0.008480873 1.2533547e-38 337 247
0.021871079 0.69300002 -0.0085054198 1.225768e-38 338 247
0.023119451 0.69400001 -0.0085176928 1.225768e-38 339 247
0.024336265 0.69400001 -0.0085176928 1.2257317e-38 340 247
0.025626717 0.69599998 -0.0085422397 1.2441349e-38 341 247
0.026924185 0.69800001 -0.0085667865 1.2257317e-38 342 247
0.028228667 0.69999999 -0.0085913334 1.2165122e-38 343 247
0.029455997 0.69999999 -0.0085913334 1.2164037e-38 344 247
0.030727165 0.70099998 -0.0086036054 1.1795613e-38 345 247
0.032047424 0.70300001 -0.0086281532 1.3915387e-38 346 247
0.03332736 0.704 -0.0086404262 1.5021736e-38 347 247
0.034659892 0.70599997 -0.0086649731 1.6586186e-38 348 247
-0.050176892 0.69800001 -0.0097906133 1.6452942e-38 279 248
-0.048953064 0.69800001 -0.0097906133 1.5623547e-38 280 248
-0.047865998 0.69999999 -0.0098186666 1.7559656e-38 281 248
-0.046705291 0.70099998 -0.0098326923 1.5288245e-38 282 248
-0.045476202 0.70099998 -0.0098326923 1.6302397e-38 283 248
-0.044247117 0.70099998 -0.0098326923 1.4100887e-38 284 248
-0.042956665 0.69999999 -0.0098186666 1.382466e-38 285 248
-0.041729331 0.69999999 -0.0098186666 1.3181456e-38 286 248
-0.040386278 0.69800001 -0.0097906133 1.3181456e-38 287 248
-0.039106347 0.69700003 -0.0097765867 1.2997785e-38 288 248
-0.037829921 0.69599998 -0.0097625591 1.2997785e-38 289 248
-0.036451802 0.69300002 -0.0097204801 1.2721918e-38 290 248
-0.035236739 0.69300002 -0.0097204801 1.2629722e-38 291 248
-0.033923492 0.69099998 -0.0096924258 1.2721199e-38 292 248
-0.032711938 0.69099998 -0.0096924258 1.2629003e-38 293 248
-0.031454802 0.69 -0.0096783992 1.290487e-38 294 248
-0.030157333 0.68800002 -0.0096503468 1.290487e-38 295 248
-0.028908957 0.68699998 -0.0096363192 1.2721555e-38 296 248
-0.027704418 0.68699998 -0.0096363192 1.2721555e-38 297 248
-0.026461305 0.68599999 -0.0096222926 1.2812672e-38 298 248
-0.025258519 0.68599999 -0.0096222926 1.2812672e-38 299 248
-0.0239856 0.68400002 -0.0095942402 1.2629359e-38 300 248
-0.022786319 0.68400002 -0.0095942402 1.2536805e-38 301 248
-0.02158704 0.68400002 -0.0095942402 1.2353493e-38 302 248
-0.020357953 0.68300003 -0.0095802136 1.2353493e-38 303 248
-0.019160427 0.68300003 -0.0095802136 1.2353493e-38 304 248
-0.017962901 0.68300003 -0.0095802136 1.2353493e-38 305 248
-0.016740825 0.68199998 -0.009566186 1.2444965e-38 306 248
-0.015545053 0.68199998 -0.009566186 1.2444965e-38 307 248
-0.01434928 0.68199998 -0.009566186 1.2444961e-38 308 248
-0.013153506 0.68199998 -0.009566186 1.2352765e-38 309 248
-0.011957732 0.68199998 -0.009566186 1.2444242e-38 310 248
-0.010761959 0.68199998 -0.009566186 1.2444242e-38 311 248
-0.009566186 0.68199998 -0.009566186 1.2535362e-38 312 248
-0.0083704125 0.68199998 -0.009566186 1.2535362e-38 313 248
-0.00717464 0.68199998 -0.009566186 1.2626838e-38 314 248
-0.005978866 0.68199998 -0.009566186 1.2626838e-38 315 248
-0.004783093 0.68199998 -0.009566186 1.2535359e-38 316 248
-0.00358732 0.68199998 -0.009566186 1.2535359e-38 317 248
-0.0023915465 0.68199998 -0.009566186 1.2351325e-38 318 248
-0.0011957732 0.68199998 -0.009566186 1.2259129e-38 319 248
0 0.68199998 -0.009566186 1.2442797e-38 320 248
0.0011957732 0.68199998 -0.009566186 1.2442797e-38 321 248
0.0023915465 0.68199998 -0.009566186 1.2259485e-38 322 248
0.0035925799 0.68300003 -0.0095802136 1.2259485e-38 323 248
0.0047901068 0.68300003 -0.0095802136 1.2442079e-38 324 248
0.0059876335 0.68300003 -0.0095802136 1.2442079e-38 325 248
0.0071851597 0.68300003 -0.0095802136 1.2349879e-38 326 248
0.0083826864 0.68300003 -0.0095802136 1.2349879e-38 327 248
0.0095942402 0.68400002 -0.0095942402 1.2349876e-38 328 248
0.01079352 0.68400002 -0.0095942402 1.2349876e-38 329 248
0.012027865 0.68599999 -0.0096222926 1.2441349e-38 330 248
0.013249939 0.68699998 -0.0096363192 1.2441349e-38 331 248
0.014454478 0.68699998 -0.0096363192 1.225768e-38 332 248
0.015659019 0.68699998 -0.0096363192 1.225768e-38 333 248
0.016888106 0.68800002 -0.0096503468 1.2257683e-38 334 248
0.018146999 0.69 -0.0096783992 1.2257683e-38 335 248
0.019384852 0.69099998 -0.0096924258 1.2440995e-38 336 248
0.020656019 0.69300002 -0.0097204801 1.2440995e-38 337 248
0.021871079 0.69300002 -0.0097204801 1.2349876e-38 338 248
0.023119451 0.69400001 -0.0097345067 1.225768e-38 339 248
0.0244064 0.69599998 -0.0097625591 1.2165482e-38 340 248
0.025663542 0.69700003 -0.0097765867 1.2258036e-38 341 248
0.027001332 0.69999999 -0.0098186666 1.2257317e-38 342 248
0.028228667 0.69999999 -0.0098186666 1.2257317e-38 343 248
0.029498078 0.70099998 -0.0098326923 1.2439908e-38 344 248
0.030814834 0.70300001 -0.0098607466 1.2347712e-38 345 248
0.032047424 0.70300001 -0.0098607466 1.4191622e-38 346 248
0.03332736 0.704 -0.0098747732 1.5482361e-38 347 248
0.034561705 0.704 -0.0098747732 1.6861698e-38 348 248
-0.048071139 0.70300001 -0.01109334 1.7188359e-38 281 249
-0.046838548 0.70300001 -0.01109334 1.5379717e-38 282 249
-0.04560595 0.70300001 -0.01109334 1.6301675e-38 283 249
-0.044247117 0.70099998 -0.011061779 1.4100527e-38 284 249
-0.042956665 0.69999999 -0.011045999 1.4007972e-38 285 249
-0.041729331 0.69999999 -0.011045999 1.3457322e-38 286 249
-0.040386278 0.69800001 -0.01101444 1.3365127e-38 287 249
-0.039106347 0.69700003 -0.01099866 1.3181458e-38 288 249
-0.037829921 0.69599998 -0.010982879 1.3089261e-38 289 249
-0.036504399 0.69400001 -0.01095132 1.2813751e-38 290 249
-0.035236739 0.69300002 -0.010935539 1.2813751e-38 291 249
-0.033923492 0.69099998 -0.01090398 1.2721555e-38 292 249
-0.032711938 0.69099998 -0.01090398 1.2721555e-38 293 249
-0.031500384 0.69099998 -0.01090398 1.2629722e-38 294 249
-0.030244999 0.69 -0.010888199 1.2629722e-38 295 249
-0.028951041 0.68800002 -0.010856641 1.2721555e-38 296 249
-0.027704418 0.68699998 -0.010840859 1.2721555e-38 297 249
-0.026499879 0.68699998 -0.010840859 1.2812672e-38 298 249
-0.025258519 0.68599999 -0.010825079 1.2812672e-38 299 249
-0.024055731 0.68599999 -0.010825079 1.2629357e-38 300 249
-0.022852944 0.68599999 -0.010825079 1.2629357e-38 301 249
-0.021650158 0.68599999 -0.010825079 1.2629357e-38 302 249
-0.020387759 0.68400002 -0.01079352 1.2629357e-38 303 249
-0.01918848 0.68400002 -0.01079352 1.2537161e-38 304 249
-0.017962901 0.68300003 -0.01077774 1.2537161e-38 305 249
-0.016765373 0.68300003 -0.01077774 1.2444961e-38 306 249
-0.015545053 0.68199998 -0.010761959 1.2444961e-38 307 249
-0.01434928 0.68199998 -0.010761959 1.2444242e-38 308 249
-0.013153506 0.68199998 -0.010761959 1.2444242e-38 309 249
-0.011957732 0.68199998 -0.010761959 1.2444242e-38 310 249
-0.010761959 0.68199998 -0.010761959 1.2444242e-38 311 249
-0.009566186 0.68199998 -0.010761959 1.2627557e-38 312 249
-0.0083704125 0.68199998 -0.010761959 1.2535362e-38 313 249
-0.00717464 0.68199998 -0.010761959 1.2535362e-38 314 249
-0.005978866 0.68199998 -0.010761959 1.2351331e-38 315 249
-0.004783093 0.68199998 -0.010761959 1.2535359e-38 316 249
-0.00358732 0.68199998 -0.010761959 1.2351328e-38 317 249
-0.0023915465 0.68199998 -0.010761959 1.2351325e-38 318 249
-0.0011957732 0.68199998 -0.010761959 1.2259129e-38 319 249
0 0.68199998 -0.010761959 1.2442442e-38 320 249
0.0011957732 0.68199998 -0.010761959 1.2534996e-38 321 249
0.0023950534 0.68300003 -0.01077774 1.2442797e-38 322 249
0.0035925799 0.68300003 -0.01077774 1.2442797e-38 323 249
0.0047901068 0.68300003 -0.01077774 1.2442079e-38 324 249
0.0059876335 0.68300003 -0.01077774 1.2442079e-38 325 249
0.0071851597 0.68300003 -0.01077774 1.2349882e-38 326 249
0.0083949603 0.68400002 -0.01079352 1.2349882e-38 327 249
0.0096222926 0.68599999 -0.010825079 1.2533191e-38 328 249
0.010825079 0.68599999 -0.010825079 1.2440995e-38 329 249
0.012027865 0.68599999 -0.010825079 1.2440993e-38 330 249
0.013249939 0.68699998 -0.010840859 1.2440993e-38 331 249
0.014454478 0.68699998 -0.010840859 1.2440993e-38 332 249
0.015681813 0.68800002 -0.010856641 1.2440993e-38 333 249
0.016888106 0.68800002 -0.010856641 1.2440995e-38 334 249
0.018146999 0.69 -0.010888199 1.2440995e-38 335 249
0.019384852 0.69099998 -0.01090398 1.2440993e-38 336 249
0.020656019 0.69300002 -0.010935539 1.2533547e-38 337 249
0.021902639 0.69400001 -0.01095132 1.2441349e-38 338 249
0.023119451 0.69400001 -0.01095132 1.2441349e-38 339 249
0.0244064 0.69599998 -0.010982879 1.2441349e-38 340 249
0.025663542 0.69700003 -0.01099866 1.2257317e-38 341 249
0.027001332 0.69999999 -0.011045999 1.244063e-38 342 249
0.028268991 0.70099998 -0.011061779 1.244063e-38 343 249
0.029498078 0.70099998 -0.011061779 1.2808689e-38 344 249
0.030814834 0.70300001 -0.01109334 1.2716493e-38 345 249
0.032047424 0.70300001 -0.01109334 1.4560403e-38 346 249
0.033280019 0.70300001 -0.01109334 1.5667111e-38 347 249
0.034512613 0.70300001 -0.01109334 1.658547e-38 348 249
0.035745207 0.70300001 -0.01109334 1.6493275e-38 349 249
-0.048139516 0.704 -0.012343466 1.6918995e-38 281 250
-0.046838548 0.70300001 -0.012325933 1.5104952e-38 282 250
-0.04560595 0.70300001 -0.012325933 1.6118744e-38 283 250
-0.04437336 0.70300001 -0.012325933 1.4376751e-38 284 250
-0.043018032 0.70099998 -0.012290866 1.4192719e-38 285 250
-0.041729331 0.69999999 -0.012273333 1.3549515e-38 286 250
-0.040386278 0.69800001 -0.012238266 1.3457319e-38 287 250
-0.039106347 0.69700003 -0.012220734 1.3089979e-38 288 250
-0.037829921 0.69599998 -0.0122032 1.2997782e-38 289 250
-0.036504399 0.69400001 -0.012168133 1.2722274e-38 290 250
-0.035287585 0.69400001 -0.012168133 1.2722274e-38 291 250
-0.034021679 0.69300002 -0.012150601 1.2721552e-38 292 250
-0.032711938 0.69099998 -0.012115533 1.2721552e-38 293 250
-0.031500384 0.69099998 -0.012115533 1.2630078e-38 294 250
-0.030244999 0.69 -0.012097999 1.2630078e-38 295 250
-0.029035198 0.69 -0.012097999 1.2721555e-38 296 250
-0.027744746 0.68800002 -0.012062933 1.2721555e-38 297 250
-0.026499879 0.68699998 -0.012045399 1.2629357e-38 298 250
-0.025295338 0.68699998 -0.012045399 1.2629357e-38 299 250
-0.024055731 0.68599999 -0.012027865 1.2629357e-38 300 250
-0.022852944 0.68599999 -0.012027865 1.2629357e-38 301 250
-0.021681719 0.68699998 -0.012045399 1.2629357e-38 302 250
-0.020447372 0.68599999 -0.012027865 1.2629357e-38 303 250
-0.01918848 0.68400002 -0.0119928 1.2537161e-38 304 250
-0.017962901 0.68300003 -0.011975267 1.2537161e-38 305 250
-0.016765373 0.68300003 -0.011975267 1.2628635e-38 306 250
-0.015567848 0.68300003 -0.011975267 1.2536438e-38 307 250
-0.01434928 0.68199998 -0.011957732 1.2444961e-38 308 250
-0.013153506 0.68199998 -0.011957732 1.2444961e-38 309 250
-0.011957732 0.68199998 -0.011957732 1.2444242e-38 310 250
-0.010761959 0.68199998 -0.011957732 1.2444242e-38 311 250
-0.009566186 0.68199998 -0.011957732 1.2444242e-38 312 250
-0.0083704125 0.68199998 -0.011957732 1.2444242e-38 313 250
-0.00717464 0.68199998 -0.011957732 1.2444242e-38 314 250
-0.005978866 0.68199998 -0.011957732 1.2352047e-38 315 250
-0.004783093 0.68199998 -0.011957732 1.2535715e-38 316 250
-0.00358732 0.68199998 -0.011957732 1.2351325e-38 317 250
-0.0023915465 0.68199998 -0.011957732 1.2351681e-38 318 250
-0.0011957732 0.68199998 -0.011957732 1.2351681e-38 319 250
0 0.68199998 -0.011957732 1.2442795e-38 320 250
0.0011975267 0.68300003 -0.011975267 1.2442795e-38 321 250
0.0023950534 0.68300003 -0.011975267 1.2442797e-38 322 250
0.0035925799 0.68300003 -0.011975267 1.2442797e-38 323 250
0.0047901068 0.68300003 -0.011975267 1.2442442e-38 324 250
0.0059964 0.68400002 -0.0119928 1.2350246e-38 325 250
0.0071956799 0.68400002 -0.0119928 1.2625391e-38 326 250
0.0084195063 0.68599999 -0.012027865 1.2533194e-38 327 250
0.0096222926 0.68599999 -0.012027865 1.2532472e-38 328 250
0.010825079 0.68599999 -0.012027865 1.2532472e-38 329 250
0.012045399 0.68699998 -0.012045399 1.2440993e-38 330 250
0.013269227 0.68800002 -0.012062933 1.2440993e-38 331 250
0.014475521 0.68800002 -0.012062933 1.2440993e-38 332 250
0.015681813 0.68800002 -0.012062933 1.2256961e-38 333 250
0.0169372 0.69 -0.012097999 1.2256961e-38 334 250
0.0181733 0.69099998 -0.012115533 1.2256961e-38 335 250
0.01944096 0.69300002 -0.012150601 1.2440993e-38 336 250
0.020656019 0.69300002 -0.012150601 1.2533547e-38 337 250
0.021902639 0.69400001 -0.012168133 1.2258036e-38 338 250
0.023119451 0.69400001 -0.012168133 1.2258036e-38 339 250
0.0244064 0.69599998 -0.0122032 1.244063e-38 340 250
0.025663542 0.69700003 -0.012220734 1.244063e-38 341 250
0.027001332 0.69999999 -0.012273333 1.244063e-38 342 250
0.028268991 0.70099998 -0.012290866 1.244063e-38 343 250
0.029582238 0.70300001 -0.012325933 1.2993082e-38 344 250
0.030814834 0.70300001 -0.012325933 1.3361863e-38 345 250
0.032047424 0.70300001 -0.012325933 1.4744797e-38 346 250
0.033280019 0.70300001 -0.012325933 1.5850786e-38 347 250
0.034512613 0.70300001 -0.012325933 1.6309604e-38 348 250
0.035745207 0.70300001 -0.012325933 1.6309604e-38 349 250
-0.046905171 0.704 -0.013577812 1.6030514e-38 282 251
-0.045670826 0.704 -0.013577812 1.5754287e-38 283 251
-0.04437336 0.70300001 -0.013558527 1.4285637e-38 284 251
-0.043140765 0.70300001 -0.013558527 1.4193441e-38 285 251
-0.041788943 0.70099998 -0.013519952 1.3642069e-38 286 251
-0.040502001 0.69999999 -0.013500666 1.3549515e-38 287 251
-0.039162453 0.69800001 -0.013462093 1.2998862e-38 288 251
-0.037884273 0.69700003 -0.013442807 1.2906667e-38 289 251
-0.036609598 0.69599998 -0.013423519 1.2814472e-38 290 251
-0.035287585 0.69400001 -0.013384946 1.2721918e-38 291 251
-0.034021679 0.69300002 -0.01336566 1.2722274e-38 292 251
-0.03280662 0.69300002 -0.01336566 1.2722274e-38 293 251
-0.031500384 0.69099998 -0.013327086 1.2722274e-38 294 251
-0.030288832 0.69099998 -0.013327086 1.2722274e-38 295 251
-0.029035198 0.69 -0.0133078 1.2722274e-38 296 251
-0.027825398 0.69 -0.0133078 1.2630078e-38 297 251
-0.026499879 0.68699998 -0.013249939 1.2629359e-38 298 251
-0.025295338 0.68699998 -0.013249939 1.2721555e-38 299 251
-0.024090799 0.68699998 -0.013249939 1.2629359e-38 300 251
-0.022886258 0.68699998 -0.013249939 1.2629359e-38 301 251
-0.021681719 0.68699998 -0.013249939 1.2721555e-38 302 251
-0.020447372 0.68599999 -0.013230653 1.2629359e-38 303 251
-0.019244585 0.68599999 -0.013230653 1.2537161e-38 304 251
-0.0179892 0.68400002 -0.01319208 1.2537161e-38 305 251
-0.016789921 0.68400002 -0.01319208 1.2537158e-38 306 251
-0.015567848 0.68300003 -0.013172794 1.2537158e-38 307 251
-0.014370319 0.68300003 -0.013172794 1.2444961e-38 308 251
-0.013172794 0.68300003 -0.013172794 1.2352765e-38 309 251
-0.011957732 0.68199998 -0.013153506 1.2627554e-38 310 251
-0.010761959 0.68199998 -0.013153506 1.2627554e-38 311 251
-0.0095802136 0.68300003 -0.013172794 1.2444245e-38 312 251
-0.0083704125 0.68199998 -0.013153506 1.2444245e-38 313 251
-0.00717464 0.68199998 -0.013153506 1.2352049e-38 314 251
-0.005978866 0.68199998 -0.013153506 1.2352049e-38 315 251
-0.004783093 0.68199998 -0.013153506 1.2627554e-38 316 251
-0.00358732 0.68199998 -0.013153506 1.2535359e-38 317 251
-0.0023915465 0.68199998 -0.013153506 1.2535715e-38 318 251
-0.0011975267 0.68300003 -0.013172794 1.2351325e-38 319 251
0 0.68300003 -0.013172794 1.2351681e-38 320 251
0.0011975267 0.68300003 -0.013172794 1.2259485e-38 321 251
0.0023950534 0.68300003 -0.013172794 1.2442797e-38 322 251
0.0035925799 0.68300003 -0.013172794 1.2442797e-38 323 251
0.0047971201 0.68400002 -0.01319208 1.2350602e-38 324 251
0.0060139326 0.68599999 -0.013230653 1.2350602e-38 325 251
0.0072167199 0.68599999 -0.013230653 1.2349882e-38 326 251
0.0084195063 0.68599999 -0.013230653 1.2442079e-38 327 251
0.0096363192 0.68699998 -0.013249939 1.2533191e-38 328 251
0.010840859 0.68699998 -0.013249939 1.2533191e-38 329 251
0.012045399 0.68699998 -0.013249939 1.2349879e-38 330 251
0.013269227 0.68800002 -0.013269227 1.2257683e-38 331 251
0.014475521 0.68800002 -0.013269227 1.2440993e-38 332 251
0.015727401 0.69 -0.0133078 1.2440993e-38 333 251
0.016961746 0.69099998 -0.013327086 1.2440993e-38 334 251
0.0181733 0.69099998 -0.013327086 1.2440993e-38 335 251
0.01944096 0.69300002 -0.01336566 1.2258036e-38 336 251
0.020685827 0.69400001 -0.013384946 1.2258036e-38 337 251
0.021902639 0.69400001 -0.013384946 1.2533544e-38 338 251
0.023186078 0.69599998 -0.013423519 1.2441349e-38 339 251
0.024441468 0.69700003 -0.013442807 1.2441349e-38 340 251
0.025700359 0.69800001 -0.013462093 1.2257317e-38 341 251
0.027001332 0.69999999 -0.013500666 1.244063e-38 342 251
0.028268991 0.70099998 -0.013519952 1.244063e-38 343 251
0.029582238 0.70300001 -0.013558527 1.2900886e-38 344 251
0.030814834 0.70300001 -0.013558527 1.3361863e-38 345 251
0.032047424 0.70300001 -0.013558527 1.5020304e-38 346 251
0.03332736 0.704 -0.013577812 1.5942619e-38 347 251
0.034561705 0.704 -0.013577812 1.6309604e-38 348 251
-0.046905171 0.704 -0.014812159 1.6034467e-38 282 252
-0.045670826 0.704 -0.014812159 1.5389098e-38 283 252
-0.04437336 0.70300001 -0.014791119 1.4377834e-38 284 252
-0.043140765 0.70300001 -0.014791119 1.4285637e-38 285 252
-0.041788943 0.70099998 -0.014749039 1.3917574e-38 286 252
-0.040502001 0.69999999 -0.014727999 1.3825379e-38 287 252
-0.039162453 0.69800001 -0.01468592 1.3458038e-38 288 252
-0.037884273 0.69700003 -0.01466488 1.3274007e-38 289 252
-0.036609598 0.69599998 -0.014643839 1.2998138e-38 290 252
-0.035287585 0.69400001 -0.01460176 1.2998138e-38 291 252
-0.034070771 0.69400001 -0.01460176 1.2813751e-38 292 252
-0.03280662 0.69300002 -0.014580719 1.2813751e-38 293 252
-0.031591557 0.69300002 -0.014580719 1.2722274e-38 294 252
-0.030288832 0.69099998 -0.014538639 1.2722274e-38 295 252
-0.029077278 0.69099998 -0.014538639 1.2722274e-38 296 252
-0.027825398 0.69 -0.014517599 1.2630078e-38 297 252
-0.026538454 0.68800002 -0.014475521 1.2813751e-38 298 252
-0.025295338 0.68699998 -0.014454478 1.2629359e-38 299 252
-0.024090799 0.68699998 -0.014454478 1.2812669e-38 300 252
-0.022886258 0.68699998 -0.014454478 1.2904864e-38 301 252
-0.021681719 0.68699998 -0.014454478 1.2812669e-38 302 252
-0.020477179 0.68699998 -0.014454478 1.2812669e-38 303 252
-0.019244585 0.68599999 -0.01443344 1.2628638e-38 304 252
-0.0179892 0.68400002 -0.01439136 1.2628638e-38 305 252
-0.016789921 0.68400002 -0.01439136 1.2537158e-38 306 252
-0.01559064 0.68400002 -0.01439136 1.2537158e-38 307 252
-0.014370319 0.68300003 -0.014370319 1.271975e-38 308 252
-0.013172794 0.68300003 -0.014370319 1.2627554e-38 309 252
-0.011975267 0.68300003 -0.014370319 1.2627554e-38 310 252
-0.01077774 0.68300003 -0.014370319 1.2627554e-38 311 252
-0.0095802136 0.68300003 -0.014370319 1.2444242e-38 312 252
-0.0083826864 0.68300003 -0.014370319 1.2444242e-38 313 252
-0.0071851597 0.68300003 -0.014370319 1.2627554e-38 314 252
-0.0059876335 0.68300003 -0.014370319 1.2627554e-38 315 252
-0.0047901068 0.68300003 -0.014370319 1.2535715e-38 316 252
-0.0035925799 0.68300003 -0.014370319 1.2535715e-38 317 252
-0.0023950534 0.68300003 -0.014370319 1.2718305e-38 318 252
-0.0011975267 0.68300003 -0.014370319 1.2718305e-38 319 252
0 0.68300003 -0.014370319 1.2534993e-38 320 252
0.0011975267 0.68300003 -0.014370319 1.2442797e-38 321 252
0.0023950534 0.68300003 -0.014370319 1.2442797e-38 322 252
0.00359784 0.68400002 -0.01439136 1.2442797e-38 323 252
0.0048111463 0.68599999 -0.01443344 1.2442797e-38 324 252
0.0060139326 0.68599999 -0.01443344 1.2350602e-38 325 252
0.0072272392 0.68699998 -0.014454478 1.2350599e-38 326 252
0.0084317802 0.68699998 -0.014454478 1.2258402e-38 327 252
0.0096363192 0.68699998 -0.014454478 1.2349879e-38 328 252
0.010840859 0.68699998 -0.014454478 1.2349879e-38 329 252
0.012062933 0.68800002 -0.014475521 1.2349879e-38 330 252
0.013269227 0.68800002 -0.014475521 1.2257683e-38 331 252
0.014475521 0.68800002 -0.014475521 1.2258036e-38 332 252
0.015750192 0.69099998 -0.014538639 1.2350232e-38 333 252
0.016961746 0.69099998 -0.014538639 1.2258036e-38 334 252
0.018225901 0.69300002 -0.014580719 1.2258036e-38 335 252
0.01944096 0.69300002 -0.014580719 1.2258036e-38 336 252
0.020685827 0.69400001 -0.01460176 1.2350232e-38 337 252
0.021902639 0.69400001 -0.01460176 1.2441346e-38 338 252
0.023186078 0.69599998 -0.014643839 1.2533541e-38 339 252
0.024441468 0.69700003 -0.01466488 1.2533178e-38 340 252
0.025700359 0.69800001 -0.01468592 1.2625374e-38 341 252
0.027001332 0.69999999 -0.014727999 1.2625377e-38 342 252
0.028268991 0.70099998 -0.014749039 1.2625377e-38 343 252
0.029582238 0.70300001 -0.014791119 1.3085277e-38 344 252
0.030814834 0.70300001 -0.014791119 1.3269309e-38 345 252
0.032047424 0.70300001 -0.014791119 1.5020304e-38 346 252
0.03332736 0.704 -0.014812159 1.5850423e-38 347 252
0.034561705 0.704 -0.014812159 1.6217764e-38 348 252
-0.047038425 0.70599997 -0.016092092 1.6034467e-38 282 253
-0.045670826 0.704 -0.016046507 1.5481293e-38 283 253
-0.044436477 0.704 -0.016046507 1.4286001e-38 284 253
-0.043140765 0.70300001 -0.016023712 1.4286001e-38 285 253
-0.041788943 0.70099998 -0.015978126 1.3826824e-38 286 253
-0.040502001 0.69999999 -0.015955333 1.3642432e-38 287 253
-0.039162453 0.69800001 -0.015909746 1.3275448e-38 288 253
-0.037884273 0.69700003 -0.015886955 1.2998862e-38 289 253
-0.036662199 0.69700003 -0.015886955 1.281519e-38 290 253
-0.035389278 0.69599998 -0.015864158 1.2631157e-38 291 253
-0.034070771 0.69400001 -0.015818574 1.2814469e-38 292 253
-0.03280662 0.69300002 -0.015795778 1.2722274e-38 293 253
-0.031591557 0.69300002 -0.015795778 1.2814472e-38 294 253
-0.030288832 0.69099998 -0.015750192 1.2814472e-38 295 253
-0.029077278 0.69099998 -0.015750192 1.2721918e-38 296 253
-0.027825398 0.69 -0.015727401 1.2721918e-38 297 253
-0.026615599 0.69 -0.015727401 1.2721555e-38 298 253
-0.02533216 0.68800002 -0.015681813 1.2721555e-38 299 253
-0.024125867 0.68800002 -0.015681813 1.2629357e-38 300 253
-0.022919573 0.68800002 -0.015681813 1.2721552e-38 301 253
-0.021713281 0.68800002 -0.015681813 1.2812669e-38 302 253
-0.020477179 0.68699998 -0.015659019 1.2812669e-38 303 253
