# .PCD v.7 - Point Cloud Data file format
FIELDS x y z rgb imX imY
SIZE 4 4 4 4 4 4
TYPE F F F F F F
COUNT 1 1 1 1 1 1
WIDTH 860
HEIGHT 1
VIEWPOINT 0 0 0 1 0 0 0
POINTS 860
DATA ascii
0.023385961 0.741 0.042874258 1.1896849e-38 338 207
0.024685178 0.741 0.042874258 1.1896849e-38 339 207
0.025914267 0.73900002 0.042758539 1.2081237e-38 340 207
0.027173158 0.73799998 0.042700678 1.2081237e-38 341 207
0.028467119 0.73799998 0.042700678 1.1898291e-38 342 207
0.029680425 0.736 0.042584959 1.1990486e-38 343 207
0.030970879 0.736 0.042584959 1.2174517e-38 344 207
0.032173667 0.73400003 0.042469237 1.2081963e-38 345 207
0.033278264 0.73000002 0.0422378 1.2083038e-38 346 207
0.034463517 0.72799999 0.042122077 1.2175234e-38 347 207
0.035739943 0.72799999 0.042122077 1.2451825e-38 348 207
0.037016369 0.72799999 0.042122077 1.3281225e-38 349 207
0.038240198 0.727 0.042064216 1.4753839e-38 350 207
0.039297458 0.72299999 0.041832779 1.5583958e-38 351 207
0.040565118 0.72299999 0.041832779 1.6869617e-38 352 207
0.041774917 0.722 0.041774917 1.4564366e-38 353 207
0.043040827 0.722 0.041774917 1.326672e-38 354 207
-0.050496001 0.72000003 0.040396802 1.5857651e-38 280 208
-0.0492336 0.72000003 0.040396802 1.4659108e-38 281 208
-0.048104454 0.722 0.040509012 1.2912796e-38 282 208
-0.046903417 0.72299999 0.040565118 1.2175231e-38 283 208
-0.04563576 0.72299999 0.040565118 1.1621709e-38 284 208
-0.044490833 0.72500002 0.040677335 1.1437318e-38 285 208
-0.043338891 0.727 0.040789545 1.1621358e-38 286 208
-0.042122077 0.72799999 0.040845651 1.1529161e-38 287 208
-0.040957868 0.73000002 0.040957868 1.1345848e-38 288 208
-0.039732285 0.73100001 0.041013971 1.1345848e-38 289 208
-0.038450599 0.73100001 0.041013971 1.125365e-38 290 208
-0.037270606 0.73299998 0.041126184 1.125365e-38 291 208
-0.036034506 0.73400003 0.041182294 1.1344764e-38 292 208
-0.03474756 0.73400003 0.041182294 1.1344764e-38 293 208
-0.033642959 0.73799998 0.041406717 1.1344764e-38 294 208
-0.032392833 0.73900002 0.041462827 1.1344764e-38 295 208
-0.03118128 0.741 0.041575037 1.1344045e-38 296 208
-0.029882059 0.741 0.041575037 1.1251849e-38 297 208
-0.028621411 0.74199998 0.041631144 1.1344045e-38 298 208
-0.027394081 0.74400002 0.04174336 1.1344045e-38 299 208
-0.026089599 0.74400002 0.04174336 1.1344401e-38 300 208
-0.02478512 0.74400002 0.04174336 1.1344401e-38 301 208
-0.023543758 0.74599999 0.04185557 1.1344401e-38 302 208
-0.022265578 0.74699998 0.041911677 1.1252205e-38 303 208
-0.021011947 0.74900001 0.042023893 1.1251485e-38 304 208
-0.0196987 0.74900001 0.042023893 1.1251485e-38 305 208
-0.018385453 0.74900001 0.042023893 1.0976337e-38 306 208
-0.017072206 0.74900001 0.042023893 1.1068534e-38 307 208
-0.01575896 0.74900001 0.042023893 1.1435518e-38 308 208
-0.014445714 0.74900001 0.042023893 1.1251485e-38 309 208
-0.01315 0.75 0.04208 1.1251482e-38 310 208
-0.011835 0.75 0.04208 1.1251482e-38 311 208
-0.01052 0.75 0.04208 1.1251479e-38 312 208
-0.0092049995 0.75 0.04208 1.1251479e-38 313 208
-0.00789 0.75 0.04208 1.1251482e-38 314 208
-0.006575 0.75 0.04208 1.1159287e-38 315 208
-0.00526 0.75 0.04208 1.1434801e-38 316 208
-0.003945 0.75 0.04208 1.125005e-38 317 208
-0.00263 0.75 0.04208 1.0790877e-38 318 208
-0.001315 0.75 0.04208 1.0883072e-38 319 208
0 0.75 0.04208 1.0883788e-38 320 208
0.001315 0.75 0.04208 1.0976344e-38 321 208
0.00263 0.75 0.04208 1.1067454e-38 322 208
0.003945 0.75 0.04208 1.1160008e-38 323 208
0.00526 0.75 0.04208 1.1251485e-38 324 208
0.0065662335 0.74900001 0.042023893 1.1251485e-38 325 208
0.0078794798 0.74900001 0.042023893 1.1342602e-38 326 208
0.0091927266 0.74900001 0.042023893 1.1434797e-38 327 208
0.010505973 0.74900001 0.042023893 1.1251485e-38 328 208
0.011787659 0.74699998 0.041911677 1.1251485e-38 329 208
0.013097399 0.74699998 0.041911677 1.1435515e-38 330 208
0.014407139 0.74699998 0.041911677 1.1435515e-38 331 208
0.015695838 0.74599999 0.04185557 1.1526991e-38 332 208
0.017003827 0.74599999 0.04185557 1.1619546e-38 333 208
0.01826272 0.74400002 0.04174336 1.1711741e-38 334 208
0.019567199 0.74400002 0.04174336 1.1711741e-38 335 208
0.020815572 0.74199998 0.041631144 1.1711739e-38 336 208
0.022116546 0.74199998 0.041631144 1.189577e-38 337 208
0.023385961 0.741 0.041575037 1.1895407e-38 338 208
0.024685178 0.741 0.041575037 1.1987602e-38 339 208
0.025914267 0.73900002 0.041462827 1.1988321e-38 340 208
0.027173158 0.73799998 0.041406717 1.2080517e-38 341 208
0.028467119 0.73799998 0.041406717 1.2081237e-38 342 208
0.029680425 0.736 0.041294504 1.2081237e-38 343 208
0.030970879 0.736 0.041294504 1.226491e-38 344 208
0.032042164 0.73100001 0.041013971 1.2357464e-38 345 208
0.033278264 0.73000002 0.040957868 1.2541139e-38 346 208
0.034463517 0.72799999 0.040845651 1.2633335e-38 347 208
0.035739943 0.72799999 0.040845651 1.2357827e-38 348 208
0.037016369 0.72799999 0.040845651 1.2542218e-38 349 208
0.038135 0.72500002 0.040677335 1.2819884e-38 350 208
0.039297458 0.72299999 0.040565118 1.3649285e-38 351 208
0.040565118 0.72299999 0.040565118 1.5029686e-38 352 208
0.041774917 0.722 0.040509012 1.6136033e-38 353 208
0.043040827 0.722 0.040509012 1.6769133e-38 354 208
-0.051758397 0.72000003 0.039134402 1.6959674e-38 279 209
-0.050496001 0.72000003 0.039134402 1.4383967e-38 280 209
-0.0492336 0.72000003 0.039134402 1.3554205e-38 281 209
-0.048104454 0.722 0.039243106 1.2083038e-38 282 209
-0.046838548 0.722 0.039243106 1.162206e-38 283 209
-0.04563576 0.72299999 0.039297458 1.1161454e-38 284 209
-0.044490833 0.72500002 0.039406165 1.125365e-38 285 209
-0.043338891 0.727 0.039514873 1.125365e-38 286 209
-0.042122077 0.72799999 0.039569225 1.125365e-38 287 209
-0.040957868 0.73000002 0.039677933 1.1253647e-38 288 209
-0.039732285 0.73100001 0.039732285 1.1161452e-38 289 209
-0.038450599 0.73100001 0.039732285 1.1252568e-38 290 209
-0.037270606 0.73299998 0.039840993 1.1252568e-38 291 209
-0.036034506 0.73400003 0.039895348 1.1251849e-38 292 209
-0.03474756 0.73400003 0.039895348 1.1251849e-38 293 209
-0.033642959 0.73799998 0.040112756 1.1251852e-38 294 209
-0.032392833 0.73900002 0.040167112 1.1251852e-38 295 209
-0.03118128 0.741 0.04027582 1.1159657e-38 296 209
-0.029882059 0.741 0.04027582 1.1159657e-38 297 209
-0.028621411 0.74199998 0.040330172 1.125113e-38 298 209
-0.027394081 0.74400002 0.040438879 1.125113e-38 299 209
-0.026089599 0.74400002 0.040438879 1.1159289e-38 300 209
-0.024851745 0.74599999 0.040547583 1.1251485e-38 301 209
-0.023543758 0.74599999 0.040547583 1.1251485e-38 302 209
-0.022265578 0.74699998 0.040601939 1.1251485e-38 303 209
-0.021011947 0.74900001 0.040710647 1.1159289e-38 304 209
-0.0196987 0.74900001 0.040710647 1.1159289e-38 305 209
-0.018385453 0.74900001 0.040710647 1.1067454e-38 306 209
-0.017072206 0.74900001 0.040710647 1.1160008e-38 307 209
-0.01578 0.75 0.040764999 1.1159289e-38 308 209
-0.014465 0.75 0.040764999 1.1159289e-38 309 209
-0.01315 0.75 0.040764999 1.106781e-38 310 209
-0.011835 0.75 0.040764999 1.106781e-38 311 209
-0.010548052 0.75199997 0.040873703 1.1067807e-38 312 209
-0.0092295464 0.75199997 0.040873703 1.1067807e-38 313 209
-0.0079110395 0.75199997 0.040873703 1.106781e-38 314 209
-0.0065925326 0.75199997 0.040873703 1.0883779e-38 315 209
-0.0052740262 0.75199997 0.040873703 1.1250403e-38 316 209
-0.0039555198 0.75199997 0.040873703 1.1250403e-38 317 209
-0.0026370131 0.75199997 0.040873703 1.1157489e-38 318 209
-0.0013185065 0.75199997 0.040873703 1.1157489e-38 319 209
0 0.75199997 0.040873703 1.1342236e-38 320 209
0.0013185065 0.75199997 0.040873703 1.1434432e-38 321 209
0.00263 0.75 0.040764999 1.1066372e-38 322 209
0.003945 0.75 0.040764999 1.1250403e-38 323 209
0.00526 0.75 0.040764999 1.1066735e-38 324 209
0.006575 0.75 0.040764999 1.1066735e-38 325 209
0.0078794798 0.74900001 0.040710647 1.1067091e-38 326 209
0.0091927266 0.74900001 0.040710647 1.1159287e-38 327 209
0.010505973 0.74900001 0.040710647 1.1159284e-38 328 209
0.01181922 0.74900001 0.040710647 1.1067088e-38 329 209
0.013097399 0.74699998 0.040601939 1.1342599e-38 330 209
0.014407139 0.74699998 0.040601939 1.1342599e-38 331 209
0.015716879 0.74699998 0.040601939 1.1434794e-38 332 209
0.017003827 0.74599999 0.040547583 1.1526991e-38 333 209
0.01826272 0.74400002 0.040438879 1.1527347e-38 334 209
0.019567199 0.74400002 0.040438879 1.1527347e-38 335 209
0.020815572 0.74199998 0.040330172 1.1435871e-38 336 209
0.022116546 0.74199998 0.040330172 1.1528066e-38 337 209
0.023385961 0.741 0.04027582 1.1802855e-38 338 209
0.024685178 0.741 0.04027582 1.1895051e-38 339 209
0.025914267 0.73900002 0.040167112 1.1896126e-38 340 209
0.027173158 0.73799998 0.040112756 1.1988321e-38 341 209
0.028467119 0.73799998 0.040112756 1.1988321e-38 342 209
0.029680425 0.736 0.040004052 1.2080517e-38 343 209
0.030970879 0.736 0.040004052 1.226491e-38 344 209
0.032042164 0.73100001 0.039732285 1.2357464e-38 345 209
0.033278264 0.73000002 0.039677933 1.2265631e-38 346 209
0.034463517 0.72799999 0.039569225 1.2357827e-38 347 209
0.035739943 0.72799999 0.039569225 1.2357108e-38 348 209
0.037016369 0.72799999 0.039569225 1.2357108e-38 349 209
0.038135 0.72500002 0.039406165 1.2450379e-38 350 209
0.039297458 0.72299999 0.039297458 1.2910998e-38 351 209
0.040565118 0.72299999 0.039297458 1.3648919e-38 352 209
0.041774917 0.722 0.039243106 1.5031853e-38 353 209
0.043040827 0.722 0.039243106 1.6683799e-38 354 209
-0.053020801 0.72000003 0.037871998 1.6225712e-38 278 210
-0.051758397 0.72000003 0.037871998 1.5580343e-38 279 210
-0.050496001 0.72000003 0.037871998 1.2818083e-38 280 210
-0.0492336 0.72000003 0.037871998 1.2541495e-38 281 210
-0.0479712 0.72000003 0.037871998 1.1346196e-38 282 210
-0.0467088 0.72000003 0.037871998 1.1254e-38 283 210
-0.045572639 0.722 0.0379772 1.1254003e-38 284 210
-0.044368099 0.72299999 0.038029801 1.1161807e-38 285 210
-0.043338891 0.727 0.038240198 1.1252924e-38 286 210
-0.042122077 0.72799999 0.038292799 1.1252924e-38 287 210
-0.040957868 0.73000002 0.038398001 1.1252924e-38 288 210
-0.039732285 0.73100001 0.038450599 1.1068534e-38 289 210
-0.038450599 0.73100001 0.038450599 1.1160008e-38 290 210
-0.037270606 0.73299998 0.038555797 1.1160008e-38 291 210
-0.036034506 0.73400003 0.038608398 1.1251485e-38 292 210
-0.03474756 0.73400003 0.038608398 1.1251485e-38 293 210
-0.033642959 0.73799998 0.038818799 1.125113e-38 294 210
-0.032392833 0.73900002 0.0388714 1.1158933e-38 295 210
-0.03118128 0.741 0.038976599 1.1342246e-38 296 210
-0.029882059 0.741 0.038976599 1.125005e-38 297 210
-0.028621411 0.74199998 0.0390292 1.1159289e-38 298 210
-0.027394081 0.74400002 0.039134398 1.1159289e-38 299 210
-0.026159734 0.74599999 0.039239597 1.1066369e-38 300 210
-0.024851745 0.74599999 0.039239597 1.1342955e-38 301 210
-0.023575317 0.74699998 0.039292198 1.12504e-38 302 210
-0.022325192 0.74900001 0.0393974 1.12504e-38 303 210
-0.021011947 0.74900001 0.0393974 1.1066369e-38 304 210
-0.0196987 0.74900001 0.0393974 1.1066369e-38 305 210
-0.018385453 0.74900001 0.0393974 1.1066372e-38 306 210
-0.017095 0.75 0.039449997 1.1250403e-38 307 210
-0.015822079 0.75199997 0.039555199 1.1250403e-38 308 210
-0.014503572 0.75199997 0.039555199 1.1250403e-38 309 210
-0.013220133 0.75400001 0.039660402 1.0974895e-38 310 210
-0.011866559 0.75199997 0.039555199 1.0974895e-38 311 210
-0.010548052 0.75199997 0.039555199 1.0791577e-38 312 210
-0.0092540924 0.75400001 0.039660402 1.0791577e-38 313 210
-0.00793208 0.75400001 0.039660402 1.097489e-38 314 210
-0.0065925326 0.75199997 0.039555199 1.097489e-38 315 210
-0.0052740262 0.75199997 0.039555199 1.1249682e-38 316 210
-0.0039555198 0.75199997 0.039555199 1.1157486e-38 317 210
-0.0026370131 0.75199997 0.039555199 1.1157486e-38 318 210
-0.0013185065 0.75199997 0.039555199 1.1157486e-38 319 210
0 0.75199997 0.039555199 1.1340801e-38 320 210
0.0013185065 0.75199997 0.039555199 1.1340801e-38 321 210
0.00263 0.75 0.039449997 1.1157489e-38 322 210
0.003945 0.75 0.039449997 1.1157489e-38 323 210
0.0052740262 0.75199997 0.039555199 1.0974174e-38 324 210
0.006575 0.75 0.039449997 1.0974174e-38 325 210
0.00789 0.75 0.039449997 1.0974171e-38 326 210
0.0091927266 0.74900001 0.0393974 1.1066725e-38 327 210
0.010505973 0.74900001 0.0393974 1.1250037e-38 328 210
0.01181922 0.74900001 0.0393974 1.1157842e-38 329 210
0.013132467 0.74900001 0.0393974 1.1249682e-38 330 210
0.014407139 0.74699998 0.039292198 1.1342236e-38 331 210
0.015716879 0.74699998 0.039292198 1.1434432e-38 332 210
0.017026618 0.74699998 0.039292198 1.1434432e-38 333 210
0.018311813 0.74599999 0.039239597 1.1618463e-38 334 210
0.019567199 0.74400002 0.039134398 1.1618463e-38 335 210
0.020815572 0.74199998 0.0390292 1.161846e-38 336 210
0.022116546 0.74199998 0.0390292 1.161846e-38 337 210
0.023385961 0.741 0.038976599 1.1711013e-38 338 210
0.024685178 0.741 0.038976599 1.1711013e-38 339 210
0.025914267 0.73900002 0.0388714 1.1803208e-38 340 210
0.027173158 0.73799998 0.038818799 1.19876e-38 341 210
0.028467119 0.73799998 0.038818799 1.19876e-38 342 210
0.029680425 0.736 0.038713597 1.2079795e-38 343 210
0.030970879 0.736 0.038713597 1.2263829e-38 344 210
0.032173667 0.73400003 0.038608398 1.2356026e-38 345 210
0.033323854 0.73100001 0.038450599 1.226491e-38 346 210
0.034558199 0.73000002 0.038398001 1.2357464e-38 347 210
0.035739943 0.72799999 0.038292799 1.2540773e-38 348 210
0.037016369 0.72799999 0.038292799 1.2632969e-38 349 210
0.038135 0.72500002 0.038135 1.2633688e-38 350 210
0.039297458 0.72299999 0.038029801 1.2725884e-38 351 210
0.040565118 0.72299999 0.038029801 1.2636206e-38 352 210
0.041774917 0.722 0.0379772 1.3742914e-38 353 210
0.043040827 0.722 0.0379772 1.5489942e-38 354 210
-0.054207806 0.71899998 0.036558751 1.7235876e-38 277 211
-0.05294716 0.71899998 0.036558751 1.5121883e-38 278 211
-0.05168651 0.71899998 0.036558751 1.4199925e-38 279 211
-0.050425861 0.71899998 0.036558751 1.1897569e-38 280 211
-0.049165215 0.71899998 0.036558751 1.1805372e-38 281 211
-0.0479712 0.72000003 0.036609601 1.1345117e-38 282 211
-0.0467088 0.72000003 0.036609601 1.1345117e-38 283 211
-0.045572639 0.722 0.03671129 1.1252921e-38 284 211
-0.044306733 0.722 0.03671129 1.1252921e-38 285 211
-0.043219667 0.72500002 0.036863834 1.1252202e-38 286 211
-0.042122077 0.72799999 0.037016369 1.1252202e-38 287 211
-0.040957868 0.73000002 0.037118066 1.1251482e-38 288 211
-0.039732285 0.73100001 0.037168913 1.1251482e-38 289 211
-0.038555797 0.73299998 0.037270606 1.1159287e-38 290 211
-0.037270606 0.73299998 0.037270606 1.1067091e-38 291 211
-0.036034506 0.73400003 0.037321456 1.12504e-38 292 211
-0.03474756 0.73400003 0.037321456 1.12504e-38 293 211
-0.033642959 0.73799998 0.037524838 1.12504e-38 294 211
-0.032392833 0.73900002 0.037575684 1.1066369e-38 295 211
-0.03118128 0.741 0.037677377 1.1066372e-38 296 211
-0.029882059 0.741 0.037677377 1.1066372e-38 297 211
-0.028621411 0.74199998 0.037728224 1.1066369e-38 298 211
-0.027394081 0.74400002 0.037829921 1.1066369e-38 299 211
-0.026159734 0.74599999 0.03793161 1.0974171e-38 300 211
-0.024851745 0.74599999 0.03793161 1.1066725e-38 301 211
-0.023575317 0.74699998 0.03798246 1.1066725e-38 302 211
-0.022325192 0.74900001 0.038084153 1.0974171e-38 303 211
-0.021011947 0.74900001 0.038084153 1.0974174e-38 304 211
-0.0196987 0.74900001 0.038084153 1.0974174e-38 305 211
-0.018409999 0.75 0.038135 1.0974174e-38 306 211
-0.017140586 0.75199997 0.038236689 1.0974174e-38 307 211
-0.015822079 0.75199997 0.038236689 1.1066725e-38 308 211
-0.014542146 0.75400001 0.038338386 1.0974171e-38 309 211
-0.013220133 0.75400001 0.038338386 1.0974527e-38 310 211
-0.01189812 0.75400001 0.038338386 1.0974527e-38 311 211
-0.010576107 0.75400001 0.038338386 1.0883047e-38 312 211
-0.0092540924 0.75400001 0.038338386 1.0883047e-38 313 211
-0.00793208 0.75400001 0.038338386 1.0974524e-38 314 211
-0.0066100666 0.75400001 0.038338386 1.0882328e-38 315 211
-0.0052740262 0.75199997 0.038236689 1.1157839e-38 316 211
-0.0039555198 0.75199997 0.038236689 1.1065643e-38 317 211
-0.0026370131 0.75199997 0.038236689 1.115712e-38 318 211
-0.0013185065 0.75199997 0.038236689 1.115712e-38 319 211
0 0.75199997 0.038236689 1.1340435e-38 320 211
0.0013185065 0.75199997 0.038236689 1.1340435e-38 321 211
0.0026370131 0.75199997 0.038236689 1.1065287e-38 322 211
0.0039555198 0.75199997 0.038236689 1.1065287e-38 323 211
0.0052740262 0.75199997 0.038236689 1.1065287e-38 324 211
0.0065925326 0.75199997 0.038236689 1.1065287e-38 325 211
0.00789 0.75 0.038135 1.1065643e-38 326 211
0.0092049995 0.75 0.038135 1.1065643e-38 327 211
0.010505973 0.74900001 0.038084153 1.1065641e-38 328 211
0.01181922 0.74900001 0.038084153 1.1065641e-38 329 211
0.013132467 0.74900001 0.038084153 1.1432628e-38 330 211
0.014445714 0.74900001 0.038084153 1.1525182e-38 331 211
0.015716879 0.74699998 0.03798246 1.143335e-38 332 211
0.017026618 0.74699998 0.03798246 1.143335e-38 333 211
0.018311813 0.74599999 0.03793161 1.1525545e-38 334 211
0.019619798 0.74599999 0.03793161 1.1525545e-38 335 211
0.02087168 0.74400002 0.037829921 1.1525898e-38 336 211
0.022116546 0.74199998 0.037728224 1.1618094e-38 337 211
0.023417519 0.74199998 0.037728224 1.1710646e-38 338 211
0.024685178 0.741 0.037677377 1.1710646e-38 339 211
0.025984399 0.741 0.037677377 1.1802487e-38 340 211
0.027283618 0.741 0.037677377 1.1986877e-38 341 211
0.028467119 0.73799998 0.037524838 1.2078353e-38 342 211
0.029680425 0.736 0.037423145 1.2262745e-38 343 211
0.030970879 0.736 0.037423145 1.2263466e-38 344 211
0.032173667 0.73400003 0.037321456 1.2355662e-38 345 211
0.033323854 0.73100001 0.037168913 1.2264185e-38 346 211
0.034558199 0.73000002 0.037118066 1.2356382e-38 347 211
0.035739943 0.72799999 0.037016369 1.2356382e-38 348 211
0.036965527 0.727 0.036965527 1.2448578e-38 349 211
0.038029801 0.72299999 0.036762137 1.254149e-38 350 211
0.039297458 0.72299999 0.036762137 1.2634044e-38 351 211
0.040509012 0.722 0.03671129 1.2818437e-38 352 211
0.041774917 0.722 0.03671129 1.3556002e-38 353 211
0.043040827 0.722 0.03671129 1.4477951e-38 354 211
-0.054207806 0.71899998 0.035298105 1.6961813e-38 277 212
-0.05294716 0.71899998 0.035298105 1.4567279e-38 278 212
-0.05168651 0.71899998 0.035298105 1.3460932e-38 279 212
-0.050425861 0.71899998 0.035298105 1.1345117e-38 280 212
-0.049165215 0.71899998 0.035298105 1.1252921e-38 281 212
-0.0479712 0.72000003 0.035347197 1.1344398e-38 282 212
-0.0467088 0.72000003 0.035347197 1.1344398e-38 283 212
-0.045572639 0.722 0.035445385 1.106889e-38 284 212
-0.044306733 0.722 0.035445385 1.106889e-38 285 212
-0.043219667 0.72500002 0.035592668 1.1251479e-38 286 212
-0.042122077 0.72799999 0.035739943 1.1159284e-38 287 212
-0.040957868 0.73000002 0.035838135 1.1159284e-38 288 212
-0.039732285 0.73100001 0.035887226 1.1067088e-38 289 212
-0.038555797 0.73299998 0.035985414 1.1066369e-38 290 212
-0.037270606 0.73299998 0.035985414 1.1066369e-38 291 212
-0.036034506 0.73400003 0.036034506 1.1250037e-38 292 212
-0.03474756 0.73400003 0.036034506 1.1250037e-38 293 212
-0.033642959 0.73799998 0.036230877 1.0974174e-38 294 212
-0.032392833 0.73900002 0.036279973 1.1066369e-38 295 212
-0.03118128 0.741 0.036378156 1.1066369e-38 296 212
-0.029882059 0.741 0.036378156 1.0974174e-38 297 212
-0.028582839 0.741 0.036378156 1.1066722e-38 298 212
-0.027394081 0.74400002 0.036525439 1.0974527e-38 299 212
-0.026159734 0.74599999 0.036623627 1.0974524e-38 300 212
-0.024851745 0.74599999 0.036623627 1.0974524e-38 301 212
-0.023575317 0.74699998 0.036672719 1.1157839e-38 302 212
-0.022325192 0.74900001 0.036770906 1.1157839e-38 303 212
-0.021011947 0.74900001 0.036770906 1.1157486e-38 304 212
-0.019724999 0.75 0.036819998 1.1157486e-38 305 212
-0.018409999 0.75 0.036819998 1.1157486e-38 306 212
-0.017140586 0.75199997 0.036918186 1.1157486e-38 307 212
-0.01586416 0.75400001 0.037016369 1.1157123e-38 308 212
-0.014542146 0.75400001 0.037016369 1.1341154e-38 309 212
-0.013220133 0.75400001 0.037016369 1.1065643e-38 310 212
-0.01189812 0.75400001 0.037016369 1.1065643e-38 311 212
-0.010576107 0.75400001 0.037016369 1.1065641e-38 312 212
-0.0092540924 0.75400001 0.037016369 1.0973444e-38 313 212
-0.00793208 0.75400001 0.037016369 1.106492e-38 314 212
-0.0066100666 0.75400001 0.037016369 1.106492e-38 315 212
-0.0052880533 0.75400001 0.037016369 1.0972725e-38 316 212
-0.00396604 0.75400001 0.037016369 1.106492e-38 317 212
-0.0026370131 0.75199997 0.036918186 1.0972727e-38 318 212
-0.0013185065 0.75199997 0.036918186 1.0972727e-38 319 212
0 0.75199997 0.036918186 1.0972727e-38 320 212
0.0013185065 0.75199997 0.036918186 1.1064923e-38 321 212
0.0026370131 0.75199997 0.036918186 1.0972372e-38 322 212
0.0039555198 0.75199997 0.036918186 1.0972372e-38 323 212
0.0052740262 0.75199997 0.036918186 1.0973446e-38 324 212
0.0065925326 0.75199997 0.036918186 1.0973446e-38 325 212
0.00789 0.75 0.036819998 1.0973444e-38 326 212
0.0092049995 0.75 0.036819998 1.0973444e-38 327 212
0.010505973 0.74900001 0.036770906 1.106492e-38 328 212
0.01181922 0.74900001 0.036770906 1.106492e-38 329 212
0.013132467 0.74900001 0.036770906 1.115712e-38 330 212
0.014445714 0.74900001 0.036770906 1.115712e-38 331 212
0.015716879 0.74699998 0.036672719 1.1340435e-38 332 212
0.017026618 0.74699998 0.036672719 1.1432631e-38 333 212
0.018311813 0.74599999 0.036623627 1.1341154e-38 334 212
0.019619798 0.74599999 0.036623627 1.143335e-38 335 212
0.020815572 0.74199998 0.036427252 1.1433703e-38 336 212
0.022116546 0.74199998 0.036427252 1.1525898e-38 337 212
0.023417519 0.74199998 0.036427252 1.1617375e-38 338 212
0.024685178 0.741 0.036378156 1.1801406e-38 339 212
0.025984399 0.741 0.036378156 1.1893602e-38 340 212
0.027283618 0.741 0.036378156 1.1986158e-38 341 212
0.028467119 0.73799998 0.036230877 1.1986877e-38 342 212
0.029761078 0.73799998 0.036230877 1.2079072e-38 343 212
0.030970879 0.736 0.036132693 1.2170915e-38 344 212
0.032173667 0.73400003 0.036034506 1.226311e-38 345 212
0.033323854 0.73100001 0.035887226 1.2263829e-38 346 212
0.034558199 0.73000002 0.035838135 1.2263829e-38 347 212
0.035739943 0.72799999 0.035739943 1.2356026e-38 348 212
0.036965527 0.727 0.035690852 1.2356026e-38 349 212
0.038029801 0.72299999 0.035494477 1.2540773e-38 350 212
0.039297458 0.72299999 0.035494477 1.2632969e-38 351 212
0.040509012 0.722 0.035445385 1.2632972e-38 352 212
0.041659199 0.72000003 0.035347197 1.3278341e-38 353 212
0.042921603 0.72000003 0.035347197 1.3832584e-38 354 212
-0.054207806 0.71899998 0.03403746 1.7235541e-38 277 213
-0.05294716 0.71899998 0.03403746 1.4014111e-38 278 213
-0.051758397 0.72000003 0.034084801 1.2630818e-38 279 213
-0.050425861 0.71899998 0.03403746 1.0884498e-38 280 213
-0.049165215 0.71899998 0.03403746 1.1252921e-38 281 213
-0.04790457 0.71899998 0.03403746 1.1528066e-38 282 213
-0.0467088 0.72000003 0.034084801 1.1435871e-38 283 213
-0.045572639 0.722 0.034179479 1.1160003e-38 284 213
-0.044306733 0.722 0.034179479 1.1160003e-38 285 213
-0.043338891 0.727 0.03441618 1.115964e-38 286 213
-0.042122077 0.72799999 0.034463517 1.115964e-38 287 213
-0.040957868 0.73000002 0.034558199 1.1067444e-38 288 213
-0.039840993 0.73299998 0.034700219 1.1067444e-38 289 213
-0.038555797 0.73299998 0.034700219 1.1250037e-38 290 213
-0.037270606 0.73299998 0.034700219 1.1157842e-38 291 213
-0.036034506 0.73400003 0.03474756 1.1157839e-38 292 213
-0.034842238 0.736 0.034842238 1.1157839e-38 293 213
-0.033688545 0.73900002 0.034984261 1.1157836e-38 294 213
-0.032392833 0.73900002 0.034984261 1.1157836e-38 295 213
-0.03118128 0.741 0.035078939 1.0974524e-38 296 213
-0.029882059 0.741 0.035078939 1.0974524e-38 297 213
-0.028582839 0.741 0.035078939 1.0974524e-38 298 213
-0.027394081 0.74400002 0.035220962 1.0974524e-38 299 213
-0.026159734 0.74599999 0.03531564 1.1157836e-38 300 213
-0.024851745 0.74599999 0.03531564 1.1157836e-38 301 213
-0.023575317 0.74699998 0.035362978 1.1065641e-38 302 213
-0.022325192 0.74900001 0.03545766 1.1157836e-38 303 213
-0.02104 0.75 0.035505001 1.115712e-38 304 213
-0.0197776 0.75199997 0.035599679 1.115712e-38 305 213
-0.018459093 0.75199997 0.035599679 1.1157117e-38 306 213
-0.017140586 0.75199997 0.035599679 1.1157117e-38 307 213
-0.01586416 0.75400001 0.035694357 1.1157473e-38 308 213
-0.014542146 0.75400001 0.035694357 1.1157473e-38 309 213
-0.013220133 0.75400001 0.035694357 1.1248589e-38 310 213
-0.01189812 0.75400001 0.035694357 1.1248589e-38 311 213
-0.010576107 0.75400001 0.035694357 1.1065276e-38 312 213
-0.0092540924 0.75400001 0.035694357 1.1065276e-38 313 213
-0.00793208 0.75400001 0.035694357 1.1065276e-38 314 213
-0.0066100666 0.75400001 0.035694357 1.0972722e-38 315 213
-0.0052880533 0.75400001 0.035694357 1.0880882e-38 316 213
-0.00396604 0.75400001 0.035694357 1.0880882e-38 317 213
-0.0026440267 0.75400001 0.035694357 1.1156387e-38 318 213
-0.0013220133 0.75400001 0.035694357 1.1156387e-38 319 213
0 0.75400001 0.035694357 1.0972359e-38 320 213
0.0013220133 0.75400001 0.035694357 1.0972359e-38 321 213
0.0026440267 0.75400001 0.035694357 1.0972003e-38 322 213
0.0039555198 0.75199997 0.035599679 1.1156393e-38 323 213
0.0052740262 0.75199997 0.035599679 1.0972722e-38 324 213
0.0065925326 0.75199997 0.035599679 1.0972722e-38 325 213
0.00789 0.75 0.035505001 1.0973078e-38 326 213
0.0092049995 0.75 0.035505001 1.0973078e-38 327 213
0.010505973 0.74900001 0.03545766 1.1156387e-38 328 213
0.01181922 0.74900001 0.03545766 1.1156387e-38 329 213
0.013132467 0.74900001 0.03545766 1.1248586e-38 330 213
0.014445714 0.74900001 0.03545766 1.1248586e-38 331 213
0.015716879 0.74699998 0.035362978 1.1340786e-38 332 213
0.017026618 0.74699998 0.035362978 1.1340786e-38 333 213
0.018311813 0.74599999 0.03531564 1.1340786e-38 334 213
0.019619798 0.74599999 0.03531564 1.1432981e-38 335 213
0.020815572 0.74199998 0.03512628 1.1708845e-38 336 213
0.022116546 0.74199998 0.03512628 1.1708845e-38 337 213
0.023417519 0.74199998 0.03512628 1.1617728e-38 338 213
0.024685178 0.741 0.035078939 1.1617728e-38 339 213
0.025984399 0.741 0.035078939 1.1710996e-38 340 213
0.027283618 0.741 0.035078939 1.1710996e-38 341 213
0.028467119 0.73799998 0.034936916 1.1986508e-38 342 213
0.029761078 0.73799998 0.034936916 1.2078704e-38 343 213
0.030970879 0.736 0.034842238 1.2170546e-38 344 213
0.032173667 0.73400003 0.03474756 1.2262742e-38 345 213
0.033415023 0.73299998 0.034700219 1.2446776e-38 346 213
0.034558199 0.73000002 0.034558199 1.2446776e-38 347 213
0.035739943 0.72799999 0.034463517 1.2538608e-38 348 213
0.036863834 0.72500002 0.034321502 1.2630804e-38 349 213
0.038029801 0.72299999 0.03422682 1.2540405e-38 350 213
0.039243106 0.722 0.034179479 1.281699e-38 351 213
0.040509012 0.722 0.034179479 1.3092496e-38 352 213
0.041659199 0.72000003 0.034084801 1.3092496e-38 353 213
0.042921603 0.72000003 0.034084801 1.3371956e-38 354 213
-0.055699892 0.722 0.032913569 1.5027169e-38 276 214
-0.054207806 0.71899998 0.032776814 1.6225712e-38 277 214
-0.05294716 0.71899998 0.032776814 1.3829713e-38 278 214
-0.05168651 0.71899998 0.032776814 1.2262747e-38 279 214
-0.050425861 0.71899998 0.032776814 1.12522e-38 280 214
-0.04902846 0.71700001 0.032685637 1.143695e-38 281 214
-0.04777132 0.71700001 0.032685637 1.12522e-38 282 214
-0.0467088 0.72000003 0.0328224 1.12522e-38 283 214
-0.045446403 0.72000003 0.0328224 1.1159284e-38 284 214
-0.044368099 0.72299999 0.032959159 1.1159284e-38 285 214
-0.043338891 0.727 0.033141505 1.1159284e-38 286 214
-0.042122077 0.72799999 0.033187091 1.0974893e-38 287 214
-0.041013971 0.73100001 0.033323854 1.1066725e-38 288 214
-0.039840993 0.73299998 0.033415023 1.1066725e-38 289 214
-0.038555797 0.73299998 0.033415023 1.1157839e-38 290 214
-0.037321456 0.73400003 0.033460613 1.1157839e-38 291 214
-0.036132693 0.736 0.033551786 1.1065643e-38 292 214
-0.034936916 0.73799998 0.033642959 1.1157839e-38 293 214
-0.033688545 0.73900002 0.033688545 1.0974527e-38 294 214
-0.032480497 0.741 0.033779722 1.0974527e-38 295 214
-0.031223357 0.74199998 0.033825304 1.0882328e-38 296 214
-0.029922385 0.74199998 0.033825304 1.0974524e-38 297 214
-0.02869856 0.74400002 0.033916477 1.097488e-38 298 214
-0.027394081 0.74400002 0.033916477 1.097488e-38 299 214
-0.026159734 0.74599999 0.034007654 1.1158192e-38 300 214
-0.024885058 0.74699998 0.034053236 1.1065997e-38 301 214
-0.023575317 0.74699998 0.034053236 1.1157117e-38 302 214
-0.022325192 0.74900001 0.034144413 1.1157117e-38 303 214
-0.02104 0.75 0.034189999 1.115712e-38 304 214
-0.0197776 0.75199997 0.034281172 1.115712e-38 305 214
-0.018459093 0.75199997 0.034281172 1.115712e-38 306 214
-0.017186172 0.75400001 0.034372345 1.115712e-38 307 214
-0.01586416 0.75400001 0.034372345 1.1340788e-38 308 214
-0.014542146 0.75400001 0.034372345 1.1340788e-38 309 214
-0.013220133 0.75400001 0.034372345 1.1065276e-38 310 214
-0.01189812 0.75400001 0.034372345 1.1065276e-38 311 214
-0.010576107 0.75400001 0.034372345 1.1248589e-38 312 214
-0.0092540924 0.75400001 0.034372345 1.1248589e-38 313 214
-0.00793208 0.75400001 0.034372345 1.115639e-38 314 214
-0.0066100666 0.75400001 0.034372345 1.0972359e-38 315 214
-0.0052880533 0.75400001 0.034372345 1.0972359e-38 316 214
-0.00396604 0.75400001 0.034372345 1.0972359e-38 317 214
-0.0026440267 0.75400001 0.034372345 1.0972356e-38 318 214
-0.0013220133 0.75400001 0.034372345 1.0972356e-38 319 214
0 0.75400001 0.034372345 1.0972359e-38 320 214
0.0013220133 0.75400001 0.034372345 1.0972359e-38 321 214
0.0026440267 0.75400001 0.034372345 1.0880526e-38 322 214
0.00396604 0.75400001 0.034372345 1.0972722e-38 323 214
0.0052880533 0.75400001 0.034372345 1.078941e-38 324 214
0.0065925326 0.75199997 0.034281172 1.078941e-38 325 214
0.0079110395 0.75199997 0.034281172 1.0973078e-38 326 214
0.0092295464 0.75199997 0.034281172 1.0973078e-38 327 214
0.01052 0.75 0.034189999 1.0973078e-38 328 214
0.01181922 0.74900001 0.034144413 1.0973078e-38 329 214
0.013132467 0.74900001 0.034144413 1.0973441e-38 330 214
0.014445714 0.74900001 0.034144413 1.078941e-38 331 214
0.015716879 0.74699998 0.034053236 1.1065276e-38 332 214
0.017026618 0.74699998 0.034053236 1.1157473e-38 333 214
0.018311813 0.74599999 0.034007654 1.1157473e-38 334 214
0.019619798 0.74599999 0.034007654 1.1157473e-38 335 214
0.02087168 0.74400002 0.033916477 1.1432981e-38 336 214
0.022116546 0.74199998 0.033825304 1.1525177e-38 337 214
0.023417519 0.74199998 0.033825304 1.1342937e-38 338 214
0.024685178 0.741 0.033779722 1.1435132e-38 339 214
0.025984399 0.741 0.033779722 1.1435129e-38 340 214
0.027209979 0.73900002 0.033688545 1.1619519e-38 341 214
0.028467119 0.73799998 0.033642959 1.171136e-38 342 214
0.029680425 0.736 0.033551786 1.1803915e-38 343 214
0.030970879 0.736 0.033551786 1.189576e-38 344 214
0.032173667 0.73400003 0.033460613 1.189576e-38 345 214
0.033415023 0.73299998 0.033415023 1.244606e-38 346 214
0.034558199 0.73000002 0.033278264 1.244606e-38 347 214
0.035739943 0.72799999 0.033187091 1.2538255e-38 348 214
0.036863834 0.72500002 0.033050332 1.2630451e-38 349 214
0.038029801 0.72299999 0.032959159 1.2356735e-38 350 214
0.039243106 0.722 0.032913569 1.2448931e-38 351 214
0.040509012 0.722 0.032913569 1.2633675e-38 352 214
0.041774917 0.722 0.032913569 1.254148e-38 353 214
-0.055699892 0.722 0.031647664 1.447508e-38 276 215
-0.054207806 0.71899998 0.031516165 1.595057e-38 277 215
-0.05294716 0.71899998 0.031516165 1.3922266e-38 278 215
-0.05168651 0.71899998 0.031516165 1.2078353e-38 279 215
-0.050425861 0.71899998 0.031516165 1.1619896e-38 280 215
-0.04902846 0.71700001 0.031428497 1.1527701e-38 281 215
-0.04777132 0.71700001 0.031428497 1.1251479e-38 282 215
-0.0467088 0.72000003 0.03156 1.1251479e-38 283 215
-0.045446403 0.72000003 0.03156 1.1342955e-38 284 215
-0.044613566 0.727 0.03186683 1.12504e-38 285 215
-0.043338891 0.727 0.03186683 1.1250037e-38 286 215
-0.0422378 0.73000002 0.031998333 1.1250037e-38 287 215
-0.041013971 0.73100001 0.032042164 1.0975246e-38 288 215
-0.039840993 0.73299998 0.032129832 1.088305e-38 289 215
-0.038608398 0.73400003 0.032173667 1.1065641e-38 290 215
-0.037423145 0.736 0.032261331 1.1065641e-38 291 215
-0.036230877 0.73799998 0.032348998 1.1065641e-38 292 215
-0.034984261 0.73900002 0.032392833 1.1065641e-38 293 215
-0.033688545 0.73900002 0.032392833 1.1065641e-38 294 215
-0.032480497 0.741 0.032480497 1.1157836e-38 295 215
-0.031223357 0.74199998 0.032524332 1.1065997e-38 296 215
-0.029922385 0.74199998 0.032524332 1.1065997e-38 297 215
-0.02869856 0.74400002 0.032612 1.1065997e-38 298 215
-0.027467718 0.74599999 0.032699663 1.1065997e-38 299 215
-0.026159734 0.74599999 0.032699663 1.1065276e-38 300 215
-0.024885058 0.74699998 0.032743499 1.1065276e-38 301 215
-0.023575317 0.74699998 0.032743499 1.1157473e-38 302 215
-0.022355 0.75 0.032874998 1.1157473e-38 303 215
-0.021096105 0.75199997 0.032962665 1.1157473e-38 304 215
-0.0197776 0.75199997 0.032962665 1.1065276e-38 305 215
-0.018508185 0.75400001 0.033050332 1.1248589e-38 306 215
-0.017186172 0.75400001 0.033050332 1.1248589e-38 307 215
-0.01586416 0.75400001 0.033050332 1.1248589e-38 308 215
-0.014542146 0.75400001 0.033050332 1.1248589e-38 309 215
-0.013220133 0.75400001 0.033050332 1.1248589e-38 310 215
-0.01189812 0.75400001 0.033050332 1.1156393e-38 311 215
-0.010576107 0.75400001 0.033050332 1.115639e-38 312 215
-0.0092540924 0.75400001 0.033050332 1.115639e-38 313 215
-0.00793208 0.75400001 0.033050332 1.1155668e-38 314 215
-0.0066188332 0.755 0.033094164 1.1155668e-38 315 215
-0.0052950666 0.755 0.033094164 1.1155668e-38 316 215
-0.0039712996 0.755 0.033094164 1.1155668e-38 317 215
-0.0026475333 0.755 0.033094164 1.1155668e-38 318 215
-0.0013237667 0.755 0.033094164 1.1155668e-38 319 215
0 0.75400001 0.033050332 1.1155671e-38 320 215
0.0013220133 0.75400001 0.033050332 1.1063476e-38 321 215
0.0026440267 0.75400001 0.033050332 1.0879807e-38 322 215
0.00396604 0.75400001 0.033050332 1.0972003e-38 323 215
0.0052880533 0.75400001 0.033050332 1.0972359e-38 324 215
0.0065925326 0.75199997 0.032962665 1.0972359e-38 325 215
0.0079110395 0.75199997 0.032962665 1.0972356e-38 326 215
0.0092295464 0.75199997 0.032962665 1.0972356e-38 327 215
0.01052 0.75 0.032874998 1.0880161e-38 328 215
0.011835 0.75 0.032874998 1.0972356e-38 329 215
0.013132467 0.74900001 0.032831166 1.0972356e-38 330 215
0.014445714 0.74900001 0.032831166 1.1156387e-38 331 215
0.015716879 0.74699998 0.032743499 1.0973075e-38 332 215
0.017026618 0.74699998 0.032743499 1.1065271e-38 333 215
0.018311813 0.74599999 0.032699663 1.1248942e-38 334 215
0.019619798 0.74599999 0.032699663 1.1341139e-38 335 215
0.02087168 0.74400002 0.032612 1.1524451e-38 336 215
0.022116546 0.74199998 0.032524332 1.1708842e-38 337 215
0.023417519 0.74199998 0.032524332 1.1526249e-38 338 215
0.024718491 0.74199998 0.032524332 1.1526249e-38 339 215
0.025984399 0.741 0.032480497 1.16188e-38 340 215
0.027209979 0.73900002 0.032392833 1.16188e-38 341 215
0.028467119 0.73799998 0.032348998 1.1710996e-38 342 215
0.029680425 0.736 0.032261331 1.1803193e-38 343 215
0.030970879 0.736 0.032261331 1.1986871e-38 344 215
0.032129832 0.73299998 0.032129832 1.2079067e-38 345 215
0.033323854 0.73100001 0.032042164 1.2353858e-38 346 215
0.034558199 0.73000002 0.031998333 1.2446413e-38 347 215
0.035739943 0.72799999 0.031910665 1.2629725e-38 348 215
0.036965527 0.727 0.03186683 1.2721921e-38 349 215
0.038029801 0.72299999 0.031691495 1.2631877e-38 350 215
0.039243106 0.722 0.031647664 1.2724073e-38 351 215
0.040509012 0.722 0.031647664 1.2908818e-38 352 215
0.041774917 0.722 0.031647664 1.2816622e-38 353 215
-0.055699892 0.722 0.030381758 1.3648919e-38 276 216
-0.054283202 0.72000003 0.0302976 1.5677223e-38 277 216
-0.05294716 0.71899998 0.030255521 1.410701e-38 278 216
-0.05168651 0.71899998 0.030255521 1.2263098e-38 279 216
-0.050425861 0.71899998 0.030255521 1.1710643e-38 280 216
-0.049165215 0.71899998 0.030255521 1.1710643e-38 281 216
-0.04790457 0.71899998 0.030255521 1.1342952e-38 282 216
-0.0467088 0.72000003 0.0302976 1.1342952e-38 283 216
-0.045446403 0.72000003 0.0302976 1.1342233e-38 284 216
-0.044306733 0.722 0.030381758 1.1250037e-38 285 216
-0.043338891 0.727 0.030592158 1.1066722e-38 286 216
-0.0422378 0.73000002 0.030718399 1.0974527e-38 287 216
-0.041013971 0.73100001 0.03076048 1.0974524e-38 288 216
-0.039895348 0.73400003 0.030886721 1.0974524e-38 289 216
-0.038608398 0.73400003 0.030886721 1.1157117e-38 290 216
-0.037423145 0.736 0.030970879 1.1157117e-38 291 216
-0.036230877 0.73799998 0.031055039 1.1340788e-38 292 216
-0.034984261 0.73900002 0.03109712 1.1340788e-38 293 216
-0.033779722 0.741 0.03118128 1.1157473e-38 294 216
-0.032480497 0.741 0.03118128 1.1157473e-38 295 216
-0.031223357 0.74199998 0.031223357 1.0882326e-38 296 216
-0.029922385 0.74199998 0.031223357 1.0882326e-38 297 216
-0.02869856 0.74400002 0.031307522 1.1157473e-38 298 216
-0.027467718 0.74599999 0.031391677 1.1157473e-38 299 216
-0.026159734 0.74599999 0.031391677 1.1248586e-38 300 216
-0.024885058 0.74699998 0.031433757 1.1340783e-38 301 216
-0.023575317 0.74699998 0.031433757 1.1340783e-38 302 216
-0.022355 0.75 0.03156 1.1340783e-38 303 216
-0.021096105 0.75199997 0.031644158 1.1248589e-38 304 216
-0.0197776 0.75199997 0.031644158 1.1248589e-38 305 216
-0.018508185 0.75400001 0.03172832 1.124787e-38 306 216
-0.017186172 0.75400001 0.03172832 1.124787e-38 307 216
-0.01586416 0.75400001 0.03172832 1.1247867e-38 308 216
-0.014542146 0.75400001 0.03172832 1.1247867e-38 309 216
-0.013220133 0.75400001 0.03172832 1.115639e-38 310 216
-0.01189812 0.75400001 0.03172832 1.115639e-38 311 216
-0.010576107 0.75400001 0.03172832 1.1155671e-38 312 216
-0.0092540924 0.75400001 0.03172832 1.1155671e-38 313 216
-0.00793208 0.75400001 0.03172832 1.1339339e-38 314 216
-0.0066188332 0.755 0.031770397 1.1339339e-38 315 216
-0.0052950666 0.755 0.031770397 1.1155668e-38 316 216
-0.0039712996 0.755 0.031770397 1.1155668e-38 317 216
-0.0026475333 0.755 0.031770397 1.1063473e-38 318 216
-0.0013237667 0.755 0.031770397 1.1155668e-38 319 216
0 0.755 0.031770397 1.0880161e-38 320 216
0.0013237667 0.755 0.031770397 1.0880161e-38 321 216
0.0026440267 0.75400001 0.03172832 1.0880163e-38 322 216
0.00396604 0.75400001 0.03172832 1.0972359e-38 323 216
0.0052880533 0.75400001 0.03172832 1.1063476e-38 324 216
0.0066100666 0.75400001 0.03172832 1.1063476e-38 325 216
0.00793208 0.75400001 0.03172832 1.1155668e-38 326 216
0.0092295464 0.75199997 0.031644158 1.1063473e-38 327 216
0.010548052 0.75199997 0.031644158 1.1063473e-38 328 216
0.011866559 0.75199997 0.031644158 1.1063473e-38 329 216
0.01315 0.75 0.03156 1.1155668e-38 330 216
0.014465 0.75 0.03156 1.1155668e-38 331 216
0.01575896 0.74900001 0.031517919 1.1155668e-38 332 216
0.017026618 0.74699998 0.031433757 1.1248223e-38 333 216
0.018311813 0.74599999 0.031391677 1.1248223e-38 334 216
0.019619798 0.74599999 0.031391677 1.1340418e-38 335 216
0.02087168 0.74400002 0.031307522 1.1524454e-38 336 216
0.022176161 0.74400002 0.031307522 1.1616649e-38 337 216
0.023417519 0.74199998 0.031223357 1.1708845e-38 338 216
0.024718491 0.74199998 0.031223357 1.1708845e-38 339 216
0.025984399 0.741 0.03118128 1.1617726e-38 340 216
0.027209979 0.73900002 0.03109712 1.1801757e-38 341 216
0.028467119 0.73799998 0.031055039 1.1801757e-38 342 216
0.029680425 0.736 0.030970879 1.1894311e-38 343 216
0.030886721 0.73400003 0.030886721 1.2078707e-38 344 216
0.032129832 0.73299998 0.030844638 1.2078707e-38 345 216
0.033323854 0.73100001 0.03076048 1.2354214e-38 346 216
0.034558199 0.73000002 0.030718399 1.244641e-38 347 216
0.035739943 0.72799999 0.030634239 1.244641e-38 348 216
0.036965527 0.727 0.030592158 1.2538606e-38 349 216
0.038029801 0.72299999 0.030423839 1.2631157e-38 350 216
0.039243106 0.722 0.030381758 1.281519e-38 351 216
0.040509012 0.722 0.030381758 1.2816619e-38 352 216
-0.054207806 0.71899998 0.028994869 1.5309529e-38 277 217
-0.05294716 0.71899998 0.028994869 1.4752024e-38 278 217
-0.05168651 0.71899998 0.028994869 1.3184697e-38 279 217
-0.050425861 0.71899998 0.028994869 1.1986508e-38 280 217
-0.049165215 0.71899998 0.028994869 1.1617726e-38 281 217
-0.04790457 0.71899998 0.028994869 1.1434426e-38 282 217
-0.0467088 0.72000003 0.029035201 1.134223e-38 283 217
-0.045446403 0.72000003 0.029035201 1.1066722e-38 284 217
-0.044306733 0.722 0.029115854 1.1066722e-38 285 217
-0.043398503 0.72799999 0.029357811 1.0974527e-38 286 217
-0.0422378 0.73000002 0.029438468 1.0974527e-38 287 217
-0.041013971 0.73100001 0.029478792 1.1157839e-38 288 217
-0.039895348 0.73400003 0.029599773 1.1065643e-38 289 217
-0.038713597 0.736 0.029680425 1.1065643e-38 290 217
-0.037524838 0.73799998 0.029761078 1.1065643e-38 291 217
-0.036230877 0.73799998 0.029761078 1.1064923e-38 292 217
-0.034984261 0.73900002 0.029801406 1.1064923e-38 293 217
-0.033779722 0.741 0.029882059 1.1065997e-38 294 217
-0.032480497 0.741 0.029882059 1.1065997e-38 295 217
-0.031223357 0.74199998 0.029922385 1.1065276e-38 296 217
-0.030003037 0.74400002 0.030003037 1.1065276e-38 297 217
-0.02869856 0.74400002 0.030003037 1.1248586e-38 298 217
-0.027467718 0.74599999 0.03008369 1.1248586e-38 299 217
-0.026159734 0.74599999 0.03008369 1.1248942e-38 300 217
-0.024885058 0.74699998 0.030124018 1.1248942e-38 301 217
-0.023575317 0.74699998 0.030124018 1.1340062e-38 302 217
-0.022355 0.75 0.030244999 1.1340062e-38 303 217
-0.021096105 0.75199997 0.030325651 1.115639e-38 304 217
-0.0197776 0.75199997 0.030325651 1.115639e-38 305 217
-0.018508185 0.75400001 0.030406307 1.1156387e-38 306 217
-0.017186172 0.75400001 0.030406307 1.1156387e-38 307 217
-0.01586416 0.75400001 0.030406307 1.1156387e-38 308 217
-0.014542146 0.75400001 0.030406307 1.1156387e-38 309 217
-0.013220133 0.75400001 0.030406307 1.1156387e-38 310 217
-0.01189812 0.75400001 0.030406307 1.0972356e-38 311 217
-0.010576107 0.75400001 0.030406307 1.1155668e-38 312 217
-0.0092540924 0.75400001 0.030406307 1.1155668e-38 313 217
-0.00793208 0.75400001 0.030406307 1.0972712e-38 314 217
-0.0066188332 0.755 0.030446632 1.0972712e-38 315 217
-0.0052950666 0.755 0.030446632 1.0972712e-38 316 217
-0.0039712996 0.755 0.030446632 1.0972712e-38 317 217
-0.0026475333 0.755 0.030446632 1.0972712e-38 318 217
-0.0013237667 0.755 0.030446632 1.0880158e-38 319 217
0 0.755 0.030446632 1.0880514e-38 320 217
0.0013237667 0.755 0.030446632 1.0880514e-38 321 217
0.0026440267 0.75400001 0.030406307 1.0880158e-38 322 217
0.00396604 0.75400001 0.030406307 1.0880158e-38 323 217
0.0052880533 0.75400001 0.030406307 1.1063829e-38 324 217
0.0066100666 0.75400001 0.030406307 1.0971633e-38 325 217
0.00793208 0.75400001 0.030406307 1.1063107e-38 326 217
0.0092540924 0.75400001 0.030406307 1.1063107e-38 327 217
0.010576107 0.75400001 0.030406307 1.0788318e-38 328 217
0.011866559 0.75199997 0.030325651 1.0880514e-38 329 217
0.013185065 0.75199997 0.030325651 1.0880158e-38 330 217
0.014503572 0.75199997 0.030325651 1.0972712e-38 331 217
0.01578 0.75 0.030244999 1.1339334e-38 332 217
0.017072206 0.74900001 0.030204674 1.1339334e-38 333 217
0.018336359 0.74699998 0.030124018 1.1523009e-38 334 217
0.019646099 0.74699998 0.030124018 1.1523009e-38 335 217
0.020927785 0.74599999 0.03008369 1.1248942e-38 336 217
0.022176161 0.74400002 0.030003037 1.1341139e-38 337 217
0.023417519 0.74199998 0.029922385 1.1433334e-38 338 217
0.024718491 0.74199998 0.029922385 1.152553e-38 339 217
0.025984399 0.741 0.029882059 1.1525527e-38 340 217
0.027283618 0.741 0.029882059 1.1525527e-38 341 217
0.028467119 0.73799998 0.029761078 1.1617726e-38 342 217
0.029761078 0.73799998 0.029761078 1.1894311e-38 343 217
0.030886721 0.73400003 0.029599773 1.1986508e-38 344 217
0.032129832 0.73299998 0.029559445 1.1986508e-38 345 217
0.033323854 0.73100001 0.029478792 1.2353849e-38 346 217
0.034558199 0.73000002 0.029438468 1.2446044e-38 347 217
0.035739943 0.72799999 0.029357811 1.2354212e-38 348 217
0.036965527 0.727 0.029317487 1.2538962e-38 349 217
0.038135 0.72500002 0.029236834 1.2539678e-38 350 217
0.039297458 0.72299999 0.029156178 1.2631873e-38 351 217
0.040565118 0.72299999 0.029156178 1.2724423e-38 352 217
-0.055468451 0.71899998 0.027734226 9.045624e-39 276 218
-0.054207806 0.71899998 0.027734226 1.3194427e-38 277 218
-0.05294716 0.71899998 0.027734226 1.57651e-38 278 218
-0.05168651 0.71899998 0.027734226 1.4566915e-38 279 218
-0.050425861 0.71899998 0.027734226 1.1986141e-38 280 218
-0.049165215 0.71899998 0.027734226 1.1524804e-38 281 218
-0.04790457 0.71899998 0.027734226 1.1159987e-38 282 218
-0.0467088 0.72000003 0.027772799 1.1067792e-38 283 218
-0.045446403 0.72000003 0.027772799 1.1066722e-38 284 218
-0.044306733 0.722 0.027849946 1.0974527e-38 285 218
-0.043398503 0.72799999 0.028081384 1.1065643e-38 286 218
-0.0422378 0.73000002 0.028158534 1.1065643e-38 287 218
-0.041126184 0.73299998 0.028274251 1.1065641e-38 288 218
-0.039895348 0.73400003 0.028312827 1.0973444e-38 289 218
-0.038713597 0.736 0.028389972 1.106492e-38 290 218
-0.037524838 0.73799998 0.028467119 1.106492e-38 291 218
-0.036279973 0.73900002 0.028505694 1.1065997e-38 292 218
-0.034984261 0.73900002 0.028505694 1.0973441e-38 293 218
-0.033779722 0.741 0.028582839 1.1065273e-38 294 218
-0.032480497 0.741 0.028582839 1.1065273e-38 295 218
-0.031223357 0.74199998 0.028621411 1.1156387e-38 296 218
-0.030003037 0.74400002 0.02869856 1.1248942e-38 297 218
-0.028775707 0.74599999 0.028775707 1.1340418e-38 298 218
-0.027467718 0.74599999 0.028775707 1.1248223e-38 299 218
-0.026194798 0.74699998 0.028814279 1.1248942e-38 300 218
-0.024885058 0.74699998 0.028814279 1.1156387e-38 301 218
-0.02363844 0.74900001 0.028891427 1.1340418e-38 302 218
-0.022355 0.75 0.028929999 1.1248223e-38 303 218
-0.021096105 0.75199997 0.029007144 1.1248223e-38 304 218
-0.0197776 0.75199997 0.029007144 1.1248223e-38 305 218
-0.018508185 0.75400001 0.029084291 1.1156387e-38 306 218
-0.017186172 0.75400001 0.029084291 1.1156387e-38 307 218
-0.01586416 0.75400001 0.029084291 1.124822e-38 308 218
-0.014542146 0.75400001 0.029084291 1.124822e-38 309 218
-0.013220133 0.75400001 0.029084291 1.1156387e-38 310 218
-0.01189812 0.75400001 0.029084291 1.0972356e-38 311 218
-0.010576107 0.75400001 0.029084291 1.0972356e-38 312 218
-0.0092540924 0.75400001 0.029084291 1.0972356e-38 313 218
-0.00793208 0.75400001 0.029084291 1.0972709e-38 314 218
-0.0066188332 0.755 0.029122867 1.0972709e-38 315 218
-0.0052950666 0.755 0.029122867 1.0973428e-38 316 218
-0.0039712996 0.755 0.029122867 1.0881233e-38 317 218
-0.0026475333 0.755 0.029122867 1.0789037e-38 318 218
-0.0013237667 0.755 0.029122867 1.0881233e-38 319 218
0 0.755 0.029122867 1.088123e-38 320 218
0.0013237667 0.755 0.029122867 1.0789034e-38 321 218
0.0026475333 0.755 0.029122867 1.0880514e-38 322 218
0.00396604 0.75400001 0.029084291 1.0880514e-38 323 218
0.0052880533 0.75400001 0.029084291 1.1063826e-38 324 218
0.0066100666 0.75400001 0.029084291 1.1063826e-38 325 218
0.00793208 0.75400001 0.029084291 1.1063823e-38 326 218
0.0092540924 0.75400001 0.029084291 1.0971627e-38 327 218
0.010576107 0.75400001 0.029084291 1.0788318e-38 328 218
0.011866559 0.75199997 0.029007144 1.0788318e-38 329 218
0.013185065 0.75199997 0.029007144 1.0880514e-38 330 218
0.014503572 0.75199997 0.029007144 1.0972709e-38 331 218
0.01578 0.75 0.028929999 1.1338615e-38 332 218
0.017072206 0.74900001 0.028891427 1.1431169e-38 333 218
0.018336359 0.74699998 0.028814279 1.1523009e-38 334 218
0.019619798 0.74599999 0.028775707 1.1523009e-38 335 218
0.020927785 0.74599999 0.028775707 1.1248223e-38 336 218
0.022176161 0.74400002 0.02869856 1.1340418e-38 337 218
0.023417519 0.74199998 0.028621411 1.1524448e-38 338 218
0.024718491 0.74199998 0.028621411 1.1617002e-38 339 218
0.026019465 0.74199998 0.028621411 1.1617002e-38 340 218
0.027283618 0.741 0.028582839 1.1709198e-38 341 218
0.028505694 0.73900002 0.028505694 1.1709198e-38 342 218
0.029680425 0.736 0.028389972 1.1893589e-38 343 218
0.030886721 0.73400003 0.028312827 1.1985785e-38 344 218
0.032129832 0.73299998 0.028274251 1.2169818e-38 345 218
0.033323854 0.73100001 0.028197108 1.2261653e-38 346 218
0.034558199 0.73000002 0.028158534 1.2446044e-38 347 218
