# .PCD v.7 - Point Cloud Data file format
FIELDS x y z rgb imX imY
SIZE 4 4 4 4 4 4
TYPE F F F F F F
COUNT 1 1 1 1 1 1
WIDTH 829
HEIGHT 1
VIEWPOINT 0 0 0 1 0 0 0
POINTS 829
DATA ascii
0.02886688 0.68599999 -0.013230653 5.5227148e-39 344 251
0.030113498 0.68699998 -0.013249939 5.7071061e-39 345 251
0.031363625 0.68800002 -0.013269227 5.7993045e-39 346 251
0.032569919 0.68800002 -0.013269227 6.2602827e-39 347 251
0.0338744 0.69 -0.0133078 6.6283421e-39 348 251
0.035135046 0.69099998 -0.013327086 6.9049304e-39 349 251
0.036504399 0.69400001 -0.013384946 7.4573769e-39 350 251
0.037721213 0.69400001 -0.013384946 7.0885958e-39 351 251
0.038938027 0.69400001 -0.013384946 7.7278471e-39 352 251
-0.035796054 0.704 -0.014812159 1.2531378e-38 291 252
-0.034414422 0.70099998 -0.014749039 9.6671994e-39 292 252
-0.033043321 0.69800001 -0.01468592 8.3768193e-39 293 252
-0.03177391 0.69700003 -0.01466488 8.1013086e-39 294 252
-0.030551834 0.69700003 -0.01466488 7.7321659e-39 295 252
-0.029287677 0.69599998 -0.014643839 6.996396e-39 296 252
-0.027986705 0.69400001 -0.01460176 6.535778e-39 297 252
-0.02673132 0.69300002 -0.014580719 6.3506762e-39 298 252
-0.025442619 0.69099998 -0.014538639 6.2584806e-39 299 252
-0.024195999 0.69 -0.014517599 6.0758844e-39 300 252
-0.022919573 0.68800002 -0.014475521 6.2602771e-39 301 252
-0.021713281 0.68800002 -0.014475521 6.4442984e-39 302 252
-0.020477179 0.68699998 -0.014454478 6.536494e-39 303 252
-0.019244585 0.68599999 -0.01443344 6.2609861e-39 304 252
-0.0179892 0.68400002 -0.01439136 6.3531818e-39 305 252
-0.016765373 0.68300003 -0.014370319 6.536494e-39 306 252
-0.015567848 0.68300003 -0.014370319 6.4442984e-39 307 252
-0.01434928 0.68199998 -0.01434928 6.0773179e-39 308 252
-0.013153506 0.68199998 -0.01434928 5.9851223e-39 309 252
-0.011957732 0.68199998 -0.01434928 6.0755215e-39 310 252
-0.0107304 0.68000001 -0.014307199 5.7985758e-39 311 252
-0.0095381327 0.68000001 -0.014307199 5.9804518e-39 312 252
-0.0083458666 0.68000001 -0.014307199 5.7035062e-39 313 252
-0.0071535995 0.68000001 -0.014307199 5.3376033e-39 314 252
-0.0059525664 0.67900002 -0.01428616 5.4297989e-39 315 252
-0.0047550397 0.67799997 -0.014265119 5.3393998e-39 316 252
-0.0035662798 0.67799997 -0.014265119 5.3393998e-39 317 252
-0.0023775198 0.67799997 -0.014265119 5.5223477e-39 318 252
-0.0011887599 0.67799997 -0.014265119 5.5223477e-39 319 252
0 0.67799997 -0.014265119 5.7060243e-39 320 252
0.0011887599 0.67799997 -0.014265119 5.5219918e-39 321 252
0.0023775198 0.67799997 -0.014265119 5.6149077e-39 322 252
0.0035662798 0.67799997 -0.014265119 6.0758844e-39 323 252
0.0047550397 0.67799997 -0.014265119 6.1684374e-39 324 252
0.0059437994 0.67799997 -0.014265119 5.6152636e-39 325 252
0.0071325595 0.67799997 -0.014265119 6.0719215e-39 326 252
0.0083213197 0.67799997 -0.014265119 5.795336e-39 327 252
0.0095100794 0.67799997 -0.014265119 5.4283486e-39 328 252
0.010714619 0.67900002 -0.01428616 5.336153e-39 329 252
0.011905133 0.67900002 -0.01428616 5.3354299e-39 330 252
0.013095647 0.67900002 -0.01428616 5.2432343e-39 331 252
0.014307199 0.68000001 -0.014307199 5.057771e-39 332 252
0.015499466 0.68000001 -0.014307199 5.242521e-39 333 252
0.016691733 0.68000001 -0.014307199 5.0610108e-39 334 252
0.017936599 0.68199998 -0.01434928 5.0610108e-39 335 252
0.019132372 0.68199998 -0.01434928 5.4283514e-39 336 252
0.020328145 0.68199998 -0.01434928 5.3361558e-39 337 252
0.02155548 0.68300003 -0.014370319 5.2457552e-39 338 252
0.022753006 0.68300003 -0.014370319 5.7067333e-39 339 252
0.023950534 0.68300003 -0.014370319 5.4330205e-39 340 252
0.02514806 0.68300003 -0.014370319 5.4330205e-39 341 252
0.026345588 0.68300003 -0.014370319 5.8907715e-39 342 252
0.027583439 0.68400002 -0.01439136 5.7985758e-39 343 252
0.02886688 0.68599999 -0.01443344 5.5223617e-39 344 252
0.030113498 0.68699998 -0.014454478 5.706753e-39 345 252
0.031363625 0.68800002 -0.014475521 5.8922218e-39 346 252
0.032569919 0.68800002 -0.014475521 6.2606456e-39 347 252
0.0338744 0.69 -0.014517599 6.7209007e-39 348 252
0.035135046 0.69099998 -0.014538639 6.9056521e-39 349 252
0.036504399 0.69400001 -0.01460176 7.2744276e-39 350 252
0.037721213 0.69400001 -0.01460176 7.0903965e-39 351 252
0.038938027 0.69400001 -0.01460176 7.9151125e-39 352 252
-0.035796054 0.704 -0.016046507 1.317675e-38 291 253
-0.034512613 0.70300001 -0.016023712 1.0127813e-38 292 253
-0.033137999 0.69999999 -0.015955333 8.5601287e-39 293 253
-0.031819493 0.69800001 -0.015909746 8.011271e-39 294 253
-0.030551834 0.69700003 -0.015886955 7.1815103e-39 295 253
-0.02932976 0.69700003 -0.015886955 6.8127306e-39 296 253
-0.028067358 0.69599998 -0.015864158 6.4439481e-39 297 253
-0.026769891 0.69400001 -0.015818574 6.1670108e-39 298 253
-0.025442619 0.69099998 -0.015750192 6.0748152e-39 299 253
-0.024231065 0.69099998 -0.015750192 6.0769676e-39 300 253
-0.022919573 0.68800002 -0.015681813 6.2609987e-39 301 253
-0.021713281 0.68800002 -0.015681813 6.3528258e-39 302 253
-0.020477179 0.68699998 -0.015659019 6.3528258e-39 303 253
-0.019272638 0.68699998 -0.015659019 6.2606302e-39 304 253
-0.018041799 0.68599999 -0.015636226 6.3528258e-39 305 253
-0.016789921 0.68400002 -0.01559064 6.2613491e-39 306 253
-0.01559064 0.68400002 -0.01559064 6.2613491e-39 307 253
-0.014370319 0.68300003 -0.015567848 6.2613491e-39 308 253
-0.013172794 0.68300003 -0.015567848 6.0773179e-39 309 253
-0.011957732 0.68199998 -0.015545053 5.9847664e-39 310 253
-0.010761959 0.68199998 -0.015545053 5.7081781e-39 311 253
-0.009566186 0.68199998 -0.015545053 5.7056628e-39 312 253
-0.0083704125 0.68199998 -0.015545053 5.5209128e-39 313 253
-0.00717464 0.68199998 -0.015545053 5.3372474e-39 314 253
-0.0059613334 0.68000001 -0.015499466 5.429443e-39 315 253
-0.0047620535 0.67900002 -0.015476674 5.5219946e-39 316 253
-0.0035715401 0.67900002 -0.015476674 5.7982227e-39 317 253
-0.0023775198 0.67799997 -0.015453878 5.6149105e-39 318 253
-0.0011887599 0.67799997 -0.015453878 5.3383222e-39 319 253
0 0.67799997 -0.015453878 5.7053096e-39 320 253
0.0011887599 0.67799997 -0.015453878 5.7053096e-39 321 253
0.0023775198 0.67799997 -0.015453878 5.7975067e-39 322 253
0.0035662798 0.67799997 -0.015453878 6.2584834e-39 323 253
0.0047550397 0.67799997 -0.015453878 5.8932952e-39 324 253
0.0059437994 0.67799997 -0.015453878 5.5245127e-39 325 253
0.0071430802 0.67900002 -0.015476674 5.7957046e-39 326 253
0.0083335936 0.67900002 -0.015476674 5.5194778e-39 327 253
0.009524107 0.67900002 -0.015476674 5.4279983e-39 328 253
0.010714619 0.67900002 -0.015476674 5.4279983e-39 329 253
0.011905133 0.67900002 -0.015476674 5.3350796e-39 330 253
0.013114933 0.68000001 -0.015499466 5.1506883e-39 331 253
0.014307199 0.68000001 -0.015499466 4.8748273e-39 332 253
0.015499466 0.68000001 -0.015499466 5.2432497e-39 333 253
0.016740825 0.68199998 -0.015545053 5.1532092e-39 334 253
0.017936599 0.68199998 -0.015545053 5.4297961e-39 335 253
0.019132372 0.68199998 -0.015545053 5.4301521e-39 336 253
0.020357953 0.68300003 -0.015567848 5.3375977e-39 337 253
0.02155548 0.68300003 -0.015567848 5.4308709e-39 338 253
0.022753006 0.68300003 -0.015567848 5.7074592e-39 339 253
0.023950534 0.68300003 -0.015567848 5.5255819e-39 340 253
0.02514806 0.68300003 -0.015567848 5.4333863e-39 341 253
0.02638416 0.68400002 -0.01559064 5.7985787e-39 342 253
0.027664091 0.68599999 -0.015636226 5.7060243e-39 343 253
0.02886688 0.68599999 -0.015636226 5.5223645e-39 344 253
0.030113498 0.68699998 -0.015659019 5.7067558e-39 345 253
0.031363625 0.68800002 -0.015681813 6.1659318e-39 346 253
0.032664597 0.69 -0.015727401 6.8113013e-39 347 253
0.0338744 0.69 -0.015727401 6.7212566e-39 348 253
0.035135046 0.69099998 -0.015750192 6.9056493e-39 349 253
0.036504399 0.69400001 -0.015818574 7.6414122e-39 350 253
0.037829921 0.69599998 -0.015864158 7.5492166e-39 351 253
0.039050236 0.69599998 -0.015864158 8.3771696e-39 352 253
-0.035897743 0.70599997 -0.017329946 1.3729921e-38 291 254
-0.034512613 0.70300001 -0.017256306 1.0680984e-38 292 254
-0.03318534 0.70099998 -0.017207211 8.5601259e-39 293 254
-0.031819493 0.69800001 -0.017133573 8.6526747e-39 294 254
-0.030595668 0.69800001 -0.017133573 8.1920553e-39 295 254
-0.02932976 0.69700003 -0.017109027 7.179711e-39 296 254
-0.028107686 0.69700003 -0.017109027 6.7187343e-39 297 254
-0.026847038 0.69599998 -0.017084479 6.1670108e-39 298 254
-0.02551626 0.69300002 -0.01701084 6.1670108e-39 299 254
-0.024301201 0.69300002 -0.01701084 5.9847692e-39 300 254
-0.022986198 0.69 -0.0169372 6.2609959e-39 301 254
-0.021776399 0.69 -0.0169372 6.4442984e-39 302 254
-0.020506985 0.68800002 -0.016888106 6.536494e-39 303 254
-0.019272638 0.68699998 -0.01686356 6.2606302e-39 304 254
-0.018068098 0.68699998 -0.01686356 6.2606302e-39 305 254
-0.016839013 0.68599999 -0.016839013 6.5364968e-39 306 254
-0.015636226 0.68599999 -0.016839013 6.5364968e-39 307 254
-0.01439136 0.68400002 -0.016789921 6.261705e-39 308 254
-0.013172794 0.68300003 -0.016765373 6.261705e-39 309 254
-0.011975267 0.68300003 -0.016765373 6.1684346e-39 310 254
-0.01077774 0.68300003 -0.016765373 5.7074564e-39 311 254
-0.0095802136 0.68300003 -0.016765373 5.9808161e-39 312 254
-0.0083826864 0.68300003 -0.016765373 5.6123923e-39 313 254
-0.00717464 0.68199998 -0.016740825 5.3376131e-39 314 254
-0.005978866 0.68199998 -0.016740825 5.153582e-39 315 254
-0.0047690663 0.68000001 -0.016691733 5.3390494e-39 316 254
-0.0035767998 0.68000001 -0.016691733 5.4312451e-39 317 254
-0.0023810267 0.67900002 -0.016667187 5.7060271e-39 318 254
-0.0011905134 0.67900002 -0.016667187 5.5219946e-39 319 254
0 0.67900002 -0.016667187 5.5219974e-39 320 254
0.0011905134 0.67900002 -0.016667187 5.5219974e-39 321 254
0.0023810267 0.67900002 -0.016667187 5.3390466e-39 322 254
0.0035715401 0.67900002 -0.016667187 5.7078278e-39 323 254
0.0047620535 0.67900002 -0.016667187 5.984772e-39 324 254
0.0059525664 0.67900002 -0.016667187 5.3394026e-39 325 254
0.0071430802 0.67900002 -0.016667187 5.9800958e-39 326 254
0.0083458666 0.68000001 -0.016691733 5.703509e-39 327 254
0.0095381327 0.68000001 -0.016691733 5.244686e-39 328 254
0.0107304 0.68000001 -0.016691733 5.244686e-39 329 254
0.011922667 0.68000001 -0.016691733 5.3350796e-39 330 254
0.013114933 0.68000001 -0.016691733 5.2428839e-39 331 254
0.01434928 0.68199998 -0.016740825 4.8748273e-39 332 254
0.015545053 0.68199998 -0.016740825 5.2432497e-39 333 254
0.016740825 0.68199998 -0.016740825 5.2472027e-39 334 254
0.017936599 0.68199998 -0.016740825 5.1550071e-39 335 254
0.019160427 0.68300003 -0.016765373 5.5219918e-39 336 254
0.020357953 0.68300003 -0.016765373 5.4297961e-39 337 254
0.02155548 0.68300003 -0.016765373 5.339397e-39 338 254
0.022753006 0.68300003 -0.016765373 5.8003737e-39 339 254
0.023950534 0.68300003 -0.016765373 5.8000108e-39 340 254
0.025184879 0.68400002 -0.016789921 5.6152608e-39 341 254
0.02638416 0.68400002 -0.016789921 6.0733705e-39 342 254
0.027704418 0.68699998 -0.01686356 5.9808161e-39 343 254
0.028908957 0.68699998 -0.01686356 5.5220086e-39 344 254
0.030157333 0.68800002 -0.016888106 5.6145629e-39 345 254
0.031454802 0.69 -0.0169372 6.1670136e-39 346 254
0.032711938 0.69099998 -0.016961746 6.5354374e-39 347 254
0.034021679 0.69300002 -0.01701084 6.6297855e-39 348 254
0.035287585 0.69400001 -0.017035386 6.9985666e-39 349 254
0.036609598 0.69599998 -0.017084479 7.2751549e-39 350 254
0.037829921 0.69599998 -0.017084479 7.5517404e-39 351 254
0.039050236 0.69599998 -0.017084479 9.1151004e-39 352 254
-0.035897743 0.70599997 -0.018567799 1.4282737e-38 291 255
-0.034561705 0.704 -0.018515198 1.1142685e-38 292 255
-0.033280019 0.70300001 -0.018488899 8.9299903e-39 293 255
-0.031910665 0.69999999 -0.018409999 8.4693624e-39 294 255
-0.030595668 0.69800001 -0.0183574 8.1927741e-39 295 255
-0.02932976 0.69700003 -0.018331099 7.1807942e-39 296 255
-0.028107686 0.69700003 -0.018331099 6.6276205e-39 297 255
-0.026847038 0.69599998 -0.018304799 6.074818e-39 298 255
-0.025553079 0.69400001 -0.0182522 6.074818e-39 299 255
-0.024301201 0.69300002 -0.018225901 5.984772e-39 300 255
-0.023019511 0.69099998 -0.0181733 6.0769676e-39 301 255
-0.021776399 0.69 -0.018146999 6.2613491e-39 302 255
-0.020506985 0.68800002 -0.0180944 6.2613491e-39 303 255
-0.019300694 0.68800002 -0.0180944 6.2606302e-39 304 255
-0.018068098 0.68699998 -0.018068098 6.2606302e-39 305 255
-0.01686356 0.68699998 -0.018068098 6.4439425e-39 306 255
-0.015636226 0.68599999 -0.018041799 6.5364968e-39 307 255
-0.01443344 0.68599999 -0.018041799 6.2613491e-39 308 255
-0.01319208 0.68400002 -0.0179892 6.2613491e-39 309 255
-0.0119928 0.68400002 -0.0179892 5.8925693e-39 310 255
-0.01077774 0.68300003 -0.017962901 5.6159825e-39 311 255
-0.0095802136 0.68300003 -0.017962901 5.7056628e-39 312 255
-0.0083826864 0.68300003 -0.017962901 5.5209128e-39 313 255
-0.0071851597 0.68300003 -0.017962901 5.3379662e-39 314 255
-0.005978866 0.68199998 -0.017936599 5.3379662e-39 315 255
-0.0047690663 0.68000001 -0.017883999 5.3390466e-39 316 255
-0.0035767998 0.68000001 -0.017883999 5.6156321e-39 317 255
-0.0023845332 0.68000001 -0.017883999 5.6149105e-39 318 255
-0.0011905134 0.67900002 -0.017857701 5.3383222e-39 319 255
0 0.67900002 -0.017857701 5.429443e-39 320 255
0.0011905134 0.67900002 -0.017857701 5.429443e-39 321 255
0.0023810267 0.67900002 -0.017857701 5.4301619e-39 322 255
0.0035715401 0.67900002 -0.017857701 5.6149133e-39 323 255
0.0047620535 0.67900002 -0.017857701 5.8925721e-39 324 255
0.0059613334 0.68000001 -0.017883999 5.6156265e-39 325 255
0.0071535995 0.68000001 -0.017883999 5.8879002e-39 326 255
0.0083458666 0.68000001 -0.017883999 5.703509e-39 327 255
0.0095381327 0.68000001 -0.017883999 5.3376033e-39 328 255
0.0107304 0.68000001 -0.017883999 5.2450489e-39 329 255
0.011922667 0.68000001 -0.017883999 5.3358026e-39 330 255
0.013114933 0.68000001 -0.017883999 5.2436056e-39 331 255
0.01434928 0.68199998 -0.017936599 5.0599402e-39 332 255
0.015545053 0.68199998 -0.017936599 5.2443329e-39 333 255
0.016740825 0.68199998 -0.017936599 5.4301619e-39 334 255
0.017962901 0.68300003 -0.017962901 5.5227176e-39 335 255
0.019160427 0.68300003 -0.017962901 5.7060271e-39 336 255
0.020357953 0.68300003 -0.017962901 5.5219946e-39 337 255
0.02155548 0.68300003 -0.017962901 5.7060243e-39 338 255
0.022786319 0.68400002 -0.0179892 5.9829699e-39 339 255
0.0239856 0.68400002 -0.0179892 5.8007296e-39 340 255
0.025258519 0.68599999 -0.018041799 5.7081753e-39 341 255
0.026461305 0.68599999 -0.018041799 5.8896995e-39 342 255
0.027704418 0.68699998 -0.018068098 5.7975039e-39 343 255
0.028951041 0.68800002 -0.0180944 5.7056768e-39 344 255
0.030244999 0.69 -0.018146999 5.890068e-39 345 255
0.031500384 0.69099998 -0.0181733 6.2595638e-39 346 255
0.03280662 0.69300002 -0.018225901 6.7201818e-39 347 255
0.034070771 0.69400001 -0.0182522 6.8134536e-39 348 255
0.035389278 0.69599998 -0.018304799 7.0900405e-39 349 255
0.036662199 0.69700003 -0.018331099 7.3662701e-39 350 255
0.037884273 0.69700003 -0.018331099 7.9194439e-39 351 255
0.039106347 0.69700003 -0.018331099 9.7597481e-39 352 255
-0.034561705 0.704 -0.019749546 1.1513266e-38 292 256
-0.033280019 0.70300001 -0.019721493 9.0239838e-39 293 256
-0.031956252 0.70099998 -0.019665385 8.6533936e-39 294 256
-0.030683333 0.69999999 -0.019637333 8.1927741e-39 295 256
-0.029371841 0.69800001 -0.019581227 7.1807914e-39 296 256
-0.028107686 0.69700003 -0.019553173 6.535422e-39 297 256
-0.026885614 0.69700003 -0.019553173 6.1670136e-39 298 256
-0.025626717 0.69599998 -0.019525118 6.074818e-39 299 256
-0.024336265 0.69400001 -0.019469013 5.8000234e-39 300 256
-0.023019511 0.69099998 -0.019384852 5.9844161e-39 301 256
-0.021807959 0.69099998 -0.019384852 6.0773207e-39 302 256
-0.020566599 0.69 -0.019356798 6.0773207e-39 303 256
-0.019300694 0.68800002 -0.019300694 6.0762403e-39 304 256
-0.0180944 0.68800002 -0.019300694 6.0762403e-39 305 256
-0.01686356 0.68699998 -0.019272638 6.0762403e-39 306 256
-0.015659019 0.68699998 -0.019272638 6.260633e-39 307 256
-0.014454478 0.68699998 -0.019272638 6.2613519e-39 308 256
-0.013230653 0.68599999 -0.019244585 6.0773207e-39 309 256
-0.0119928 0.68400002 -0.01918848 6.0755215e-39 310 256
-0.01079352 0.68400002 -0.01918848 5.7063802e-39 311 256
-0.0095802136 0.68300003 -0.019160427 5.5219918e-39 312 256
-0.0083826864 0.68300003 -0.019160427 5.4297961e-39 313 256
-0.0071851597 0.68300003 -0.019160427 5.1546512e-39 314 256
-0.005978866 0.68199998 -0.019132372 5.2472055e-39 315 256
-0.004783093 0.68199998 -0.019132372 5.2475699e-39 316 256
-0.00358732 0.68199998 -0.019132372 5.3397655e-39 317 256
-0.0023915465 0.68199998 -0.019132372 5.7060271e-39 318 256
-0.0011957732 0.68199998 -0.019132372 5.5219946e-39 319 256
0 0.68000001 -0.019076265 5.3379662e-39 320 256
0.0011922666 0.68000001 -0.019076265 5.3379662e-39 321 256
0.0023845332 0.68000001 -0.019076265 5.3379662e-39 322 256
0.0035767998 0.68000001 -0.019076265 5.7071089e-39 323 256
0.0047690663 0.68000001 -0.019076265 5.8925693e-39 324 256
0.0059613334 0.68000001 -0.019076265 5.4319513e-39 325 256
0.0071535995 0.68000001 -0.019076265 5.9804518e-39 326 256
0.0083704125 0.68199998 -0.019132372 5.7960605e-39 327 256
0.009566186 0.68199998 -0.019132372 5.3376005e-39 328 256
0.010761959 0.68199998 -0.019132372 5.3376005e-39 329 256
0.011957732 0.68199998 -0.019132372 5.244686e-39 330 256
0.013153506 0.68199998 -0.019132372 5.1524904e-39 331 256
0.01434928 0.68199998 -0.019132372 5.1521344e-39 332 256
0.015567848 0.68300003 -0.019160427 5.5209156e-39 333 256
0.016765373 0.68300003 -0.019160427 5.4305178e-39 334 256
0.017962901 0.68300003 -0.019160427 5.5227148e-39 335 256
0.019160427 0.68300003 -0.019160427 5.5219946e-39 336 256
0.020357953 0.68300003 -0.019160427 5.5219946e-39 337 256
0.02158704 0.68400002 -0.01918848 5.7060243e-39 338 256
0.022786319 0.68400002 -0.01918848 5.9829699e-39 339 256
0.024055731 0.68599999 -0.019244585 5.983686e-39 340 256
0.025295338 0.68699998 -0.019272638 5.7996548e-39 341 256
0.026499879 0.68699998 -0.019272638 5.7975039e-39 342 256
0.027744746 0.68800002 -0.019300694 5.7975039e-39 343 256
0.029035198 0.69 -0.019356798 5.7056768e-39 344 256
0.030288832 0.69099998 -0.019384852 5.9822637e-39 345 256
0.031591557 0.69300002 -0.01944096 6.1677311e-39 346 256
0.032853961 0.69400001 -0.019469013 6.6287079e-39 347 256
0.034168959 0.69599998 -0.019525118 6.9056521e-39 348 256
0.035440128 0.69700003 -0.019553173 7.0900433e-39 349 256
0.0367148 0.69800001 -0.019581227 7.0907622e-39 350 256
0.038047329 0.69999999 -0.019637333 8.0127199e-39 351 256
0.039274666 0.69999999 -0.019637333 1.1049408e-38 352 256
0.040502001 0.69999999 -0.019637333 1.5843939e-38 353 256
-0.034659892 0.70599997 -0.021043506 1.1975686e-38 292 257
-0.033280019 0.70300001 -0.020954086 9.3020126e-39 293 257
-0.031956252 0.70099998 -0.020894472 8.2853397e-39 294 257
-0.030727165 0.70099998 -0.020894472 8.1013086e-39 295 257
-0.029455997 0.69999999 -0.020864666 7.2729927e-39 296 257
-0.028148014 0.69800001 -0.020805053 6.6276233e-39 297 257
-0.026885614 0.69700003 -0.020775247 6.1673668e-39 298 257
-0.025626717 0.69599998 -0.020745439 5.9826168e-39 299 257
-0.024336265 0.69400001 -0.020685827 5.7078278e-39 300 257
-0.02308614 0.69300002 -0.020656019 5.892219e-39 301 257
-0.021807959 0.69099998 -0.020596405 5.9847692e-39 302 257
-0.020566599 0.69 -0.020566599 5.9847692e-39 303 257
-0.019300694 0.68800002 -0.020506985 6.0751655e-39 304 257
-0.0180944 0.68800002 -0.020506985 6.1673612e-39 305 257
-0.01686356 0.68699998 -0.020477179 6.1684374e-39 306 257
-0.015659019 0.68699998 -0.020477179 6.260633e-39 307 257
-0.014454478 0.68699998 -0.020477179 6.3528286e-39 308 257
-0.013230653 0.68599999 -0.020447372 6.260633e-39 309 257
-0.012027865 0.68599999 -0.020447372 6.1662822e-39 310 257
-0.01079352 0.68400002 -0.020387759 5.8900554e-39 311 257
-0.0095942402 0.68400002 -0.020387759 5.5219918e-39 312 257
-0.0083949603 0.68400002 -0.020387759 5.5219918e-39 313 257
-0.0071956799 0.68400002 -0.020387759 5.155726e-39 314 257
-0.0059876335 0.68300003 -0.020357953 5.155726e-39 315 257
-0.0047901068 0.68300003 -0.020357953 5.3394026e-39 316 257
-0.0035925799 0.68300003 -0.020357953 5.4315982e-39 317 257
-0.0023915465 0.68199998 -0.020328145 5.7060271e-39 318 257
-0.0011957732 0.68199998 -0.020328145 5.4297989e-39 319 257
0 0.68199998 -0.020328145 5.0624584e-39 320 257
0.0011957732 0.68199998 -0.020328145 5.0624584e-39 321 257
0.0023915465 0.68199998 -0.020328145 5.2472027e-39 322 257
0.00358732 0.68199998 -0.020328145 5.7081809e-39 323 257
0.004783093 0.68199998 -0.020328145 5.8936455e-39 324 257
0.005978866 0.68199998 -0.020328145 5.4326674e-39 325 257
0.00717464 0.68199998 -0.020328145 5.888975e-39 326 257
0.0083704125 0.68199998 -0.020328145 5.7049439e-39 327 257
0.009566186 0.68199998 -0.020328145 5.4297961e-39 328 257
0.010761959 0.68199998 -0.020328145 5.3376005e-39 329 257
0.011957732 0.68199998 -0.020328145 5.2454049e-39 330 257
0.013153506 0.68199998 -0.020328145 5.1532092e-39 331 257
0.014370319 0.68300003 -0.020357953 5.1528533e-39 332 257
0.015567848 0.68300003 -0.020357953 5.4297989e-39 333 257
0.016765373 0.68300003 -0.020357953 5.3393998e-39 334 257
0.0179892 0.68400002 -0.020387759 5.3393998e-39 335 257
0.01918848 0.68400002 -0.020387759 5.7060243e-39 336 257
0.020387759 0.68400002 -0.020387759 5.7060243e-39 337 257
0.021650158 0.68599999 -0.020447372 5.6149077e-39 338 257
0.022852944 0.68599999 -0.020447372 5.7996577e-39 339 257
0.024090799 0.68699998 -0.020477179 5.7081781e-39 340 257
0.02533216 0.68800002 -0.020506985 5.8003737e-39 341 257
0.026538454 0.68800002 -0.020506985 5.7071061e-39 342 257
0.027825398 0.69 -0.020566599 5.6149105e-39 343 257
0.029077278 0.69099998 -0.020596405 5.6145601e-39 344 257
0.0303765 0.69300002 -0.020656019 5.7989514e-39 345 257
0.031637147 0.69400001 -0.020685827 6.0766145e-39 346 257
0.032948639 0.69599998 -0.020745439 6.4453956e-39 347 257
0.034218054 0.69700003 -0.020775247 6.8130977e-39 348 257
0.035592664 0.69999999 -0.020864666 7.0900433e-39 349 257
0.036819998 0.69999999 -0.020864666 6.8152515e-39 350 257
0.038373452 0.70599997 -0.021043506 8.4744141e-39 351 257
0.039611302 0.70599997 -0.021043506 1.1789127e-38 352 257
-0.033280019 0.70300001 -0.02218668 9.947382e-39 293 258
-0.031956252 0.70099998 -0.022123558 8.2853397e-39 294 258
-0.030727165 0.70099998 -0.022123558 8.1013086e-39 295 258
-0.029455997 0.69999999 -0.022091998 7.2729899e-39 296 258
-0.028148014 0.69800001 -0.02202888 6.8116516e-39 297 258
-0.026885614 0.69700003 -0.02199732 6.0751683e-39 298 258
-0.025626717 0.69599998 -0.021965759 5.9829727e-39 299 258
-0.024336265 0.69400001 -0.021902639 5.7993017e-39 300 258
-0.02308614 0.69300002 -0.021871079 5.9836916e-39 301 258
-0.021871079 0.69300002 -0.021871079 6.0758844e-39 302 258
-0.020566599 0.69 -0.021776399 6.0758844e-39 303 258
-0.019356798 0.69 -0.021776399 6.0762403e-39 304 258
-0.0180944 0.68800002 -0.021713281 6.1684374e-39 305 258
-0.016888106 0.68800002 -0.021713281 6.1684374e-39 306 258
-0.015659019 0.68699998 -0.021681719 6.3528286e-39 307 258
-0.014454478 0.68699998 -0.021681719 6.2613491e-39 308 258
-0.013249939 0.68699998 -0.021681719 6.0773179e-39 309 258
-0.012045399 0.68699998 -0.021681719 6.2588337e-39 310 258
-0.010825079 0.68599999 -0.021650158 5.9822482e-39 311 258
-0.0096222926 0.68599999 -0.021650158 5.522712e-39 312 258
-0.0084195063 0.68599999 -0.021650158 5.522712e-39 313 258
-0.0071956799 0.68400002 -0.02158704 5.3394026e-39 314 258
-0.0059964 0.68400002 -0.02158704 5.2472055e-39 315 258
-0.0047901068 0.68300003 -0.02155548 5.2472055e-39 316 258
-0.0035925799 0.68300003 -0.02155548 5.3394026e-39 317 258
-0.0023950534 0.68300003 -0.02155548 5.4305178e-39 318 258
-0.0011975267 0.68300003 -0.02155548 5.1539323e-39 319 258
0 0.68300003 -0.02155548 5.0624584e-39 320 258
0.0011975267 0.68300003 -0.02155548 5.0624584e-39 321 258
0.0023950534 0.68300003 -0.02155548 5.2472055e-39 322 258
0.0035925799 0.68300003 -0.02155548 5.707825e-39 323 258
0.0047901068 0.68300003 -0.02155548 5.8025289e-39 324 258
0.005978866 0.68199998 -0.021523919 5.5255819e-39 325 258
0.00717464 0.68199998 -0.021523919 5.8889722e-39 326 258
0.0083826864 0.68300003 -0.02155548 5.7049411e-39 327 258
0.0095802136 0.68300003 -0.02155548 5.4297961e-39 328 258
0.010761959 0.68199998 -0.021523919 5.4297961e-39 329 258
0.011957732 0.68199998 -0.021523919 5.2450489e-39 330 258
0.013172794 0.68300003 -0.02155548 5.1528533e-39 331 258
0.014370319 0.68300003 -0.02155548 5.2450489e-39 332 258
0.01559064 0.68400002 -0.02158704 5.5219946e-39 333 258
0.016789921 0.68400002 -0.02158704 5.522712e-39 334 258
0.0179892 0.68400002 -0.02158704 5.522712e-39 335 258
0.019244585 0.68599999 -0.021650158 5.6152636e-39 336 258
0.020447372 0.68599999 -0.021650158 5.6152636e-39 337 258
0.021650158 0.68599999 -0.021650158 5.7074592e-39 338 258
0.022886258 0.68699998 -0.021681719 5.7996548e-39 339 258
0.024125867 0.68800002 -0.021713281 5.6170615e-39 340 258
0.025405798 0.69 -0.021776399 5.8010926e-39 341 258
0.026615599 0.69 -0.021776399 5.707825e-39 342 258
0.027865725 0.69099998 -0.021807959 5.4315982e-39 343 258
0.029161438 0.69300002 -0.021871079 5.705674e-39 344 258
0.030420333 0.69400001 -0.021902639 6.0748152e-39 345 258
0.031728316 0.69599998 -0.021965759 6.0766145e-39 346 258
0.03299598 0.69700003 -0.02199732 6.4453956e-39 347 258
0.034267146 0.69800001 -0.02202888 6.9049332e-39 348 258
0.035643511 0.70099998 -0.022123558 7.2733556e-39 349 258
0.037030395 0.704 -0.022218239 6.9982008e-39 350 258
0.038373452 0.70599997 -0.022281358 9.3027315e-39 351 258
0.039611302 0.70599997 -0.022281358 1.2251184e-38 352 258
-0.03332736 0.704 -0.023452586 1.0409439e-38 293 259
-0.032047424 0.70300001 -0.023419274 8.2853369e-39 294 259
-0.030814834 0.70300001 -0.023419274 7.9169131e-39 295 259
-0.029498078 0.70099998 -0.023352645 7.6399675e-39 296 259
-0.028148014 0.69800001 -0.023252707 7.0867937e-39 297 259
-0.026924185 0.69800001 -0.023252707 6.5343416e-39 298 259
-0.025663542 0.69700003 -0.023219392 6.2581149e-39 299 259
-0.0244064 0.69599998 -0.023186078 5.7993017e-39 300 259
-0.023119451 0.69400001 -0.023119451 5.9836916e-39 301 259
-0.021871079 0.69300002 -0.02308614 6.0751655e-39 302 259
-0.020596405 0.69099998 -0.023019511 6.0751655e-39 303 259
-0.019384852 0.69099998 -0.023019511 6.3503133e-39 304 259
-0.018146999 0.69 -0.022986198 6.5343444e-39 305 259
-0.016888106 0.68800002 -0.022919573 5.985488e-39 306 259
-0.015681813 0.68800002 -0.022919573 5.985488e-39 307 259
-0.014454478 0.68699998 -0.022886258 6.260633e-39 308 259
-0.013249939 0.68699998 -0.022886258 6.0762403e-39 309 259
-0.012045399 0.68699998 -0.022886258 6.2588309e-39 310 259
-0.010840859 0.68699998 -0.022886258 5.9826042e-39 311 259
-0.0096222926 0.68599999 -0.022852944 5.522712e-39 312 259
-0.0084195063 0.68599999 -0.022852944 5.430515e-39 313 259
-0.0072167199 0.68599999 -0.022852944 5.2468496e-39 314 259
-0.0060139326 0.68599999 -0.022852944 5.2468496e-39 315 259
-0.0047971201 0.68400002 -0.022786319 5.2472055e-39 316 259
-0.00359784 0.68400002 -0.022786319 5.1546512e-39 317 259
-0.0023950534 0.68300003 -0.022753006 5.3376033e-39 318 259
-0.0011975267 0.68300003 -0.022753006 5.4297989e-39 319 259
0 0.68300003 -0.022753006 5.1539351e-39 320 259
0.0011975267 0.68300003 -0.022753006 5.1539351e-39 321 259
0.0023950534 0.68300003 -0.022753006 4.9713389e-39 322 259
0.0035925799 0.68300003 -0.022753006 5.6167083e-39 323 259
0.0047901068 0.68300003 -0.022753006 5.8932896e-39 324 259
0.0059876335 0.68300003 -0.022753006 5.4326702e-39 325 259
0.0071851597 0.68300003 -0.022753006 5.8900526e-39 326 259
0.0083826864 0.68300003 -0.022753006 5.70566e-39 327 259
0.0095802136 0.68300003 -0.022753006 5.5212687e-39 328 259
0.010761959 0.68199998 -0.022719691 5.6134643e-39 329 259
0.011957732 0.68199998 -0.022719691 5.3368816e-39 330 259
0.013172794 0.68300003 -0.022753006 5.3368816e-39 331 259
0.014370319 0.68300003 -0.022753006 4.9702627e-39 332 259
0.01559064 0.68400002 -0.022786319 5.154654e-39 333 259
0.016789921 0.68400002 -0.022786319 5.4315982e-39 334 259
0.018041799 0.68599999 -0.022852944 5.3394026e-39 335 259
0.019244585 0.68599999 -0.022852944 5.7985758e-39 336 259
0.020447372 0.68599999 -0.022852944 5.7985758e-39 337 259
0.021681719 0.68699998 -0.022886258 5.8907715e-39 338 259
0.022919573 0.68800002 -0.022919573 5.9829671e-39 339 259
0.024125867 0.68800002 -0.022919573 5.8003737e-39 340 259
0.025405798 0.69 -0.022986198 5.8925693e-39 341 259
0.026654173 0.69099998 -0.023019511 5.8904184e-39 342 259
0.027946379 0.69300002 -0.02308614 5.7982227e-39 343 259
0.029161438 0.69300002 -0.02308614 5.7067558e-39 344 259
0.030420333 0.69400001 -0.023119451 5.9829825e-39 345 259
0.031728316 0.69599998 -0.023186078 6.352844e-39 346 259
0.03299598 0.69700003 -0.023219392 6.352844e-39 347 259
0.034267146 0.69800001 -0.023252707 6.905299e-39 348 259
0.035592664 0.69999999 -0.023319334 7.2737213e-39 349 259
0.036977798 0.70300001 -0.023419274 7.5488509e-39 350 259
0.038373452 0.70599997 -0.023519212 1.031472e-38 351 259
0.039611302 0.70599997 -0.023519212 1.2805074e-38 352 259
0.040849157 0.70599997 -0.023519212 1.5755335e-38 353 259
-0.033422034 0.70599997 -0.024757065 1.1423238e-38 293 260
-0.032093015 0.704 -0.024686933 8.3768193e-39 294 260
-0.030858666 0.704 -0.024686933 8.1920693e-39 295 260
-0.029498078 0.70099998 -0.024581732 7.5484978e-39 296 260
-0.028228667 0.69999999 -0.024546666 6.9031283e-39 297 260
-0.026924185 0.69800001 -0.024476532 6.350679e-39 298 260
-0.025663542 0.69700003 -0.024441468 6.2584834e-39 299 260
-0.0244064 0.69599998 -0.0244064 5.9836916e-39 300 260
-0.023119451 0.69400001 -0.024336265 5.9836916e-39 301 260
-0.021902639 0.69400001 -0.024336265 6.1666381e-39 302 260
-0.020656019 0.69300002 -0.024301201 6.2588337e-39 303 260
-0.019384852 0.69099998 -0.024231065 6.2577617e-39 304 260
-0.018146999 0.69 -0.024195999 6.3499574e-39 305 260
-0.016888106 0.68800002 -0.024125867 6.0758844e-39 306 260
-0.015681813 0.68800002 -0.024125867 6.1680814e-39 307 260
-0.014475521 0.68800002 -0.024125867 6.1684346e-39 308 260
-0.013269227 0.68800002 -0.024125867 6.0762375e-39 309 260
-0.012062933 0.68800002 -0.024125867 5.9829671e-39 310 260
-0.010840859 0.68699998 -0.024090799 5.7063802e-39 311 260
-0.0096363192 0.68699998 -0.024090799 5.4294458e-39 312 260
-0.0084317802 0.68699998 -0.024090799 5.3372502e-39 313 260
-0.0072272392 0.68699998 -0.024090799 5.153582e-39 314 260
-0.0060139326 0.68599999 -0.024055731 5.153582e-39 315 260
-0.0048111463 0.68599999 -0.024055731 5.1546568e-39 316 260
-0.00359784 0.68400002 -0.0239856 5.1546568e-39 317 260
-0.0023985601 0.68400002 -0.0239856 5.3372474e-39 318 260
-0.00119928 0.68400002 -0.0239856 5.3372474e-39 319 260
0 0.68400002 -0.0239856 5.1539379e-39 320 260
0.00119928 0.68400002 -0.0239856 5.0613836e-39 321 260
0.0023950534 0.68300003 -0.023950534 5.337969e-39 322 260
0.0035925799 0.68300003 -0.023950534 5.706753e-39 323 260
0.0047901068 0.68300003 -0.023950534 5.8943742e-39 324 260
0.0059876335 0.68300003 -0.023950534 5.6174272e-39 325 260
0.0071851597 0.68300003 -0.023950534 5.9800958e-39 326 260
0.0083826864 0.68300003 -0.023950534 5.8879002e-39 327 260
0.0095802136 0.68300003 -0.023950534 5.4297989e-39 328 260
0.01077774 0.68300003 -0.023950534 5.4297989e-39 329 260
0.011975267 0.68300003 -0.023950534 5.2450489e-39 330 260
0.013172794 0.68300003 -0.023950534 5.1528533e-39 331 260
0.014370319 0.68300003 -0.023950534 4.9702627e-39 332 260
0.01559064 0.68400002 -0.0239856 5.154654e-39 333 260
0.016839013 0.68599999 -0.024055731 5.5219918e-39 334 260
0.018041799 0.68599999 -0.024055731 5.8907743e-39 335 260
0.019244585 0.68599999 -0.024055731 5.7074592e-39 336 260
0.020477179 0.68699998 -0.024090799 5.7074592e-39 337 260
0.021681719 0.68699998 -0.024090799 5.8907715e-39 338 260
0.022919573 0.68800002 -0.024125867 5.8907715e-39 339 260
0.024195999 0.69 -0.024195999 5.983686e-39 340 260
0.025442619 0.69099998 -0.024231065 5.983686e-39 341 260
0.02673132 0.69300002 -0.024301201 5.707825e-39 342 260
0.027946379 0.69300002 -0.024301201 5.6156293e-39 343 260
0.029203519 0.69400001 -0.024336265 5.8904212e-39 344 260
0.030507999 0.69599998 -0.0244064 6.1673668e-39 345 260
0.03177391 0.69700003 -0.024441468 6.3524783e-39 346 260
0.033043321 0.69800001 -0.024476532 6.7209007e-39 347 260
0.034365334 0.69999999 -0.024546666 7.0889643e-39 348 260
0.035592664 0.69999999 -0.024546666 7.18116e-39 349 260
0.036977798 0.70300001 -0.024651866 7.7325191e-39 350 260
0.038264744 0.704 -0.024686933 1.1143757e-38 351 260
0.039611302 0.70599997 -0.024757065 1.3359327e-38 352 260
0.040849157 0.70599997 -0.024757065 1.5663859e-38 353 260
-0.032184184 0.70599997 -0.025994917 8.468659e-39 294 261
-0.030858666 0.704 -0.02592128 8.2842677e-39 295 261
-0.029582238 0.70300001 -0.025884461 8.0076738e-39 296 261
-0.028228667 0.69999999 -0.025773998 7.3623044e-39 297 261
-0.026924185 0.69800001 -0.025700359 6.4439481e-39 298 261
-0.025663542 0.69700003 -0.025663542 6.0751655e-39 299 261
-0.024441468 0.69700003 -0.025663542 5.7993045e-39 300 261
-0.023186078 0.69599998 -0.025626717 5.7993045e-39 301 261
-0.021965759 0.69599998 -0.025626717 6.166285e-39 302 261
-0.020685827 0.69400001 -0.025553079 6.2584806e-39 303 261
-0.01944096 0.69300002 -0.02551626 6.0751683e-39 304 261
-0.0181733 0.69099998 -0.025442619 6.0751683e-39 305 261
-0.0169372 0.69 -0.025405798 5.9836916e-39 306 261
-0.015681813 0.68800002 -0.02533216 5.7993017e-39 307 261
-0.014475521 0.68800002 -0.02533216 6.0758844e-39 308 261
-0.013269227 0.68800002 -0.02533216 5.7996577e-39 309 261
-0.012062933 0.68800002 -0.02533216 5.7982227e-39 310 261
-0.010856641 0.68800002 -0.02533216 5.5219946e-39 311 261
-0.0096363192 0.68699998 -0.025295338 5.4294458e-39 312 261
-0.0084317802 0.68699998 -0.025295338 5.3372502e-39 313 261
-0.0072272392 0.68699998 -0.025295338 5.0621024e-39 314 261
-0.0060226996 0.68699998 -0.025295338 5.2468524e-39 315 261
-0.0048181596 0.68699998 -0.025295338 5.3379662e-39 316 261
-0.00360836 0.68599999 -0.025258519 5.3379662e-39 317 261
-0.0024055731 0.68599999 -0.025258519 5.3372474e-39 318 261
-0.0012027866 0.68599999 -0.025258519 5.429443e-39 319 261
0 0.68599999 -0.025258519 5.0624584e-39 320 261
0.0012027866 0.68599999 -0.025258519 5.0624584e-39 321 261
0.0023985601 0.68400002 -0.025184879 5.1539351e-39 322 261
0.0035925799 0.68300003 -0.02514806 5.7993045e-39 323 261
0.0047901068 0.68300003 -0.02514806 5.9844161e-39 324 261
0.0059876335 0.68300003 -0.02514806 5.6156321e-39 325 261
0.0071851597 0.68300003 -0.02514806 5.7975039e-39 326 261
0.0083949603 0.68400002 -0.025184879 5.6131112e-39 327 261
0.0095942402 0.68400002 -0.025184879 5.3376033e-39 328 261
0.01077774 0.68300003 -0.02514806 5.3376033e-39 329 261
0.011975267 0.68300003 -0.02514806 5.3368844e-39 330 261
0.01319208 0.68400002 -0.025184879 5.2443301e-39 331 261
0.01443344 0.68599999 -0.025258519 5.1525002e-39 332 261
0.015636226 0.68599999 -0.025258519 5.4294458e-39 333 261
0.016839013 0.68599999 -0.025258519 5.3390494e-39 334 261
0.018041799 0.68599999 -0.025258519 5.3390494e-39 335 261
0.019272638 0.68699998 -0.025295338 5.7071061e-39 336 261
0.020477179 0.68699998 -0.025295338 5.6149105e-39 337 261
0.021713281 0.68800002 -0.02533216 5.8907743e-39 338 261
0.022919573 0.68800002 -0.02533216 5.8907743e-39 339 261
0.024195999 0.69 -0.025405798 5.7996577e-39 340 261
0.025442619 0.69099998 -0.025442619 5.9836888e-39 341 261
0.02673132 0.69300002 -0.02551626 5.8904212e-39 342 261
0.027986705 0.69400001 -0.025553079 5.7982255e-39 343 261
0.029203519 0.69400001 -0.025553079 5.6163552e-39 344 261
0.030507999 0.69599998 -0.025626717 5.9851377e-39 345 261
0.031819493 0.69800001 -0.025700359 6.2617246e-39 346 261
0.033043321 0.69800001 -0.025700359 6.2617246e-39 347 261
0.034365334 0.69999999 -0.025773998 6.4471949e-39 348 261
0.035592664 0.69999999 -0.025773998 6.7234216e-39 349 261
0.036977798 0.70300001 -0.025884461 7.7335981e-39 350 261
0.038264744 0.704 -0.02592128 1.1421065e-38 351 261
0.039611302 0.70599997 -0.025994917 1.3912498e-38 352 261
0.040849157 0.70599997 -0.025994917 1.5387628e-38 353 261
0.042504307 0.713 -0.026252659 1.5204688e-38 354 261
-0.030858666 0.704 -0.027155625 8.6526901e-39 295 262
-0.029582238 0.70300001 -0.027117053 7.7339652e-39 296 262
-0.028268991 0.70099998 -0.027039904 7.0885958e-39 297 262
-0.027001332 0.69999999 -0.027001332 6.4439481e-39 298 262
-0.025700359 0.69800001 -0.026924185 6.0751655e-39 299 262
-0.024476532 0.69800001 -0.026924185 5.8904212e-39 300 262
-0.023219392 0.69700003 -0.026885614 5.8904212e-39 301 262
-0.02199732 0.69700003 -0.026885614 5.9818979e-39 302 262
-0.020745439 0.69599998 -0.026847038 6.165929e-39 303 262
-0.019469013 0.69400001 -0.026769891 5.9829727e-39 304 262
-0.018225901 0.69300002 -0.02673132 5.9829727e-39 305 262
-0.016961746 0.69099998 -0.026654173 5.8904184e-39 306 262
-0.015727401 0.69 -0.026615599 5.9829727e-39 307 262
-0.014517599 0.69 -0.026615599 5.9829727e-39 308 262
-0.013269227 0.68800002 -0.026538454 5.9829727e-39 309 262
-0.012062933 0.68800002 -0.026538454 5.7982227e-39 310 262
-0.010856641 0.68800002 -0.026538454 5.5219946e-39 311 262
-0.0096503468 0.68800002 -0.026538454 5.1539379e-39 312 262
-0.0084317802 0.68699998 -0.026499879 5.1539379e-39 313 262
-0.0072272392 0.68699998 -0.026499879 5.1546568e-39 314 262
-0.0060226996 0.68699998 -0.026499879 5.1546568e-39 315 262
-0.0048181596 0.68699998 -0.026499879 5.2468496e-39 316 262
-0.00360836 0.68599999 -0.026461305 5.154654e-39 317 262
-0.0024055731 0.68599999 -0.026461305 5.3372474e-39 318 262
-0.0012027866 0.68599999 -0.026461305 5.5219974e-39 319 262
0 0.68599999 -0.026461305 5.154654e-39 320 262
0.0012027866 0.68599999 -0.026461305 5.0624584e-39 321 262
0.0024055731 0.68599999 -0.026461305 5.3379662e-39 322 262
0.00359784 0.68400002 -0.02638416 5.6149133e-39 323 262
0.0047971201 0.68400002 -0.02638416 5.8007395e-39 324 262
0.0059964 0.68400002 -0.02638416 5.4323171e-39 325 262
0.0071956799 0.68400002 -0.02638416 5.888975e-39 326 262
0.0083949603 0.68400002 -0.02638416 5.7049439e-39 327 262
0.0096222926 0.68599999 -0.026461305 5.1539323e-39 328 262
0.010825079 0.68599999 -0.026461305 5.1539323e-39 329 262
0.012027865 0.68599999 -0.026461305 5.1528561e-39 330 262
0.013230653 0.68599999 -0.026461305 5.1528561e-39 331 262
0.01443344 0.68599999 -0.026461305 5.1525002e-39 332 262
0.015659019 0.68699998 -0.026499879 5.3372502e-39 333 262
0.01686356 0.68699998 -0.026499879 5.4301619e-39 334 262
0.018068098 0.68699998 -0.026499879 5.6149133e-39 335 262
0.019272638 0.68699998 -0.026499879 5.6149105e-39 336 262
0.020506985 0.68800002 -0.026538454 5.6149105e-39 337 262
0.021713281 0.68800002 -0.026538454 5.7982227e-39 338 262
0.022986198 0.69 -0.026615599 5.7982227e-39 339 262
0.024195999 0.69 -0.026615599 5.7982227e-39 340 262
0.025442619 0.69099998 -0.026654173 5.8904184e-39 341 262
0.02673132 0.69300002 -0.02673132 5.706753e-39 342 262
0.027986705 0.69400001 -0.026769891 5.706753e-39 343 262
0.029287677 0.69599998 -0.026847038 5.892219e-39 344 262
0.030551834 0.69700003 -0.026885614 6.0766117e-39 345 262
0.031819493 0.69800001 -0.026924185 6.3531944e-39 346 262
0.033137999 0.69999999 -0.027001332 6.5379444e-39 347 262
0.034365334 0.69999999 -0.027001332 6.7227e-39 348 262
0.035643511 0.70099998 -0.027039904 6.9074499e-39 349 262
0.037135597 0.70599997 -0.027232772 8.0098262e-39 350 262
0.038427804 0.70700002 -0.027271347 1.1974238e-38 351 262
0.039835732 0.70999998 -0.027387066 1.4282722e-38 352 262
0.041254178 0.713 -0.027502786 1.4928091e-38 353 262
0.042504307 0.713 -0.027502786 1.4744426e-38 354 262
-0.032093015 0.704 -0.028389972 9.0229048e-39 294 263
-0.030858666 0.704 -0.028389972 8.469731e-39 295 263
-0.029582238 0.70300001 -0.028349647 8.0098262e-39 296 263
-0.028349647 0.70300001 -0.028349647 7.3644568e-39 297 263
-0.027039904 0.70099998 -0.028268991 6.6276177e-39 298 263
-0.025773998 0.69999999 -0.028228667 6.2588337e-39 299 263
-0.024546666 0.69999999 -0.028228667 5.8904212e-39 300 263
-0.023252707 0.69800001 -0.028148014 5.7982255e-39 301 263
-0.02202888 0.69800001 -0.028148014 5.7978696e-39 302 263
-0.020745439 0.69599998 -0.028067358 5.890424e-39 303 263
-0.019469013 0.69400001 -0.027986705 5.7993045e-39 304 263
-0.0182522 0.69400001 -0.027986705 5.7993045e-39 305 263
-0.01701084 0.69300002 -0.027946379 5.7982255e-39 306 263
-0.015750192 0.69099998 -0.027865725 5.8904212e-39 307 263
-0.014538639 0.69099998 -0.027865725 5.8904212e-39 308 263
-0.0133078 0.69 -0.027825398 5.8904212e-39 309 263
-0.012097999 0.69 -0.027825398 5.7975039e-39 310 263
-0.010888199 0.69 -0.027825398 5.7053068e-39 311 263
-0.0096503468 0.68800002 -0.027744746 5.337969e-39 312 263
-0.0084440531 0.68800002 -0.027744746 5.1539379e-39 313 263
-0.0072377604 0.68800002 -0.027744746 5.1546568e-39 314 263
-0.0060314666 0.68800002 -0.027744746 5.2468524e-39 315 263
-0.0048181596 0.68699998 -0.027704418 5.4305178e-39 316 263
-0.0036136196 0.68699998 -0.027704418 5.4305178e-39 317 263
-0.0024055731 0.68599999 -0.027664091 5.4305178e-39 318 263
-0.0012027866 0.68599999 -0.027664091 5.4305178e-39 319 263
0 0.68599999 -0.027664091 5.2472055e-39 320 263
0.0012027866 0.68599999 -0.027664091 5.1546512e-39 321 263
0.0024055731 0.68599999 -0.027664091 5.1539323e-39 322 263
0.00359784 0.68400002 -0.027583439 5.6149105e-39 323 263
0.0047971201 0.68400002 -0.027583439 5.8003765e-39 324 263
0.0059964 0.68400002 -0.027583439 5.6156265e-39 325 263
0.0071956799 0.68400002 -0.027583439 5.8889722e-39 326 263
0.0084195063 0.68599999 -0.027664091 5.6127455e-39 327 263
0.0096222926 0.68599999 -0.027664091 5.1542882e-39 328 263
0.010825079 0.68599999 -0.027664091 5.0620926e-39 329 263
0.012045399 0.68699998 -0.027704418 4.9695439e-39 330 263
0.013249939 0.68699998 -0.027704418 4.9695439e-39 331 263
0.014454478 0.68699998 -0.027704418 5.1525002e-39 332 263
0.015659019 0.68699998 -0.027704418 5.4294458e-39 333 263
0.016888106 0.68800002 -0.027744746 5.4301647e-39 334 263
0.0180944 0.68800002 -0.027744746 5.5223617e-39 335 263
0.019300694 0.68800002 -0.027744746 5.7982255e-39 336 263
0.020506985 0.68800002 -0.027744746 5.7982255e-39 337 263
0.021776399 0.69 -0.027825398 5.8896995e-39 338 263
0.022986198 0.69 -0.027825398 5.8896995e-39 339 263
0.024231065 0.69099998 -0.027865725 5.7071089e-39 340 263
0.02551626 0.69300002 -0.027946379 5.7071089e-39 341 263
0.026769891 0.69400001 -0.027986705 5.6145573e-39 342 263
0.027986705 0.69400001 -0.027986705 5.7993073e-39 343 263
0.029287677 0.69599998 -0.028067358 5.8925749e-39 344 263
0.030551834 0.69700003 -0.028107686 6.2609987e-39 345 263
0.031819493 0.69800001 -0.028148014 6.4446711e-39 346 263
0.033137999 0.69999999 -0.028228667 6.7212566e-39 347 263
0.034365334 0.69999999 -0.028228667 6.9063681e-39 348 263
0.035643511 0.70099998 -0.028268991 7.2755108e-39 349 263
0.037135597 0.70599997 -0.028470624 8.7466724e-39 350 263
0.038427804 0.70700002 -0.028510952 1.2711084e-38 351 263
0.039835732 0.70999998 -0.028631933 1.4467472e-38 352 263
0.041254178 0.713 -0.028752912 1.47437e-38 353 263
0.042504307 0.713 -0.028752912 1.465223e-38 354 263
-0.032093015 0.704 -0.029624319 9.3920446e-39 294 264
-0.030858666 0.704 -0.029624319 8.3775325e-39 295 264
-0.029624319 0.704 -0.029624319 8.2849684e-39 296 264
-0.028349647 0.70300001 -0.029582238 7.7317946e-39 297 264
-0.027039904 0.70099998 -0.029498078 6.9034815e-39 298 264
-0.025810819 0.70099998 -0.029498078 6.3503077e-39 299 264
-0.024581732 0.70099998 -0.029498078 5.8904212e-39 300 264
-0.023252707 0.69800001 -0.029371841 5.7060299e-39 301 264
-0.02202888 0.69800001 -0.029371841 5.5223645e-39 302 264
-0.020775247 0.69700003 -0.02932976 5.6145601e-39 303 264
-0.019525118 0.69599998 -0.029287677 5.6145601e-39 304 264
-0.018304799 0.69599998 -0.029287677 5.6145601e-39 305 264
-0.017035386 0.69400001 -0.029203519 5.6145601e-39 306 264
-0.015795778 0.69300002 -0.029161438 5.6145601e-39 307 264
-0.014580719 0.69300002 -0.029161438 5.8897051e-39 308 264
-0.013327086 0.69099998 -0.029077278 5.8897051e-39 309 264
-0.012115533 0.69099998 -0.029077278 5.7060299e-39 310 264
-0.010888199 0.69 -0.029035198 5.5219974e-39 311 264
-0.0096783992 0.69 -0.029035198 5.337969e-39 312 264
-0.0084686 0.69 -0.029035198 5.1539379e-39 313 264
-0.0072587994 0.69 -0.029035198 5.1546568e-39 314 264
-0.0060314666 0.68800002 -0.028951041 5.2468524e-39 315 264
-0.0048251734 0.68800002 -0.028951041 5.2472027e-39 316 264
-0.0036136196 0.68699998 -0.028908957 5.2472027e-39 317 264
-0.0024090798 0.68699998 -0.028908957 5.3383222e-39 318 264
-0.0012045399 0.68699998 -0.028908957 5.4305178e-39 319 264
0 0.68699998 -0.028908957 5.1553728e-39 320 264
0.0012045399 0.68699998 -0.028908957 4.9713417e-39 321 264
0.0024090798 0.68699998 -0.028908957 5.0624584e-39 322 264
0.00360836 0.68599999 -0.02886688 5.3390466e-39 323 264
0.0048111463 0.68599999 -0.02886688 5.7081781e-39 324 264
0.0060139326 0.68599999 -0.02886688 5.6159825e-39 325 264
0.0072167199 0.68599999 -0.02886688 5.70566e-39 326 264
0.0084317802 0.68699998 -0.028908957 5.5212687e-39 327 264
0.0096363192 0.68699998 -0.028908957 5.3376005e-39 328 264
0.010840859 0.68699998 -0.028908957 5.2454049e-39 329 264
0.012045399 0.68699998 -0.028908957 4.9695439e-39 330 264
0.013249939 0.68699998 -0.028908957 4.8773482e-39 331 264
0.014454478 0.68699998 -0.028908957 5.152503e-39 332 264
0.015681813 0.68800002 -0.028951041 5.3368942e-39 333 264
0.016888106 0.68800002 -0.028951041 5.4301647e-39 334 264
0.0180944 0.68800002 -0.028951041 5.4301647e-39 335 264
0.019300694 0.68800002 -0.028951041 5.5223617e-39 336 264
0.020566599 0.69 -0.029035198 5.5223617e-39 337 264
0.021776399 0.69 -0.029035198 5.5219974e-39 338 264
0.023019511 0.69099998 -0.029077278 5.7982255e-39 339 264
0.024301201 0.69300002 -0.029161438 5.6156321e-39 340 264
0.02551626 0.69300002 -0.029161438 5.4312423e-39 341 264
0.026769891 0.69400001 -0.029203519 5.6145573e-39 342 264
0.028067358 0.69599998 -0.029287677 5.706753e-39 343 264
0.02932976 0.69700003 -0.02932976 5.8922218e-39 344 264
0.030595668 0.69800001 -0.029371841 6.0766145e-39 345 264
0.031910665 0.69999999 -0.029455997 6.4453956e-39 346 264
0.03318534 0.70099998 -0.029498078 6.4453956e-39 347 264
0.034414422 0.70099998 -0.029498078 6.9063709e-39 348 264
0.035796054 0.704 -0.029624319 7.3673505e-39 349 264
0.037135597 0.70599997 -0.029708479 9.3920418e-39 350 264
0.038373452 0.70599997 -0.029708479 1.3264258e-38 351 264
0.039835732 0.70999998 -0.029876797 1.4558589e-38 352 264
0.041080594 0.70999998 -0.029876797 1.4650784e-38 353 264
-0.032184184 0.70599997 -0.030946331 1.0221092e-38 294 265
-0.030946331 0.70599997 -0.030946331 8.6541264e-39 295 265
-0.029624319 0.704 -0.030858666 8.1924182e-39 296 265
-0.028389972 0.704 -0.030858666 7.8239958e-39 297 265
-0.027117053 0.70300001 -0.030814834 6.4450243e-39 298 265
-0.025810819 0.70099998 -0.030727165 5.983686e-39 299 265
-0.024581732 0.70099998 -0.030727165 5.6149133e-39 300 265
-0.023319334 0.69999999 -0.030683333 5.6149133e-39 301 265
-0.022091998 0.69999999 -0.030683333 5.3390522e-39 302 265
-0.020805053 0.69800001 -0.030595668 5.3390522e-39 303 265
-0.019553173 0.69700003 -0.030551834 5.5223645e-39 304 265
-0.018331099 0.69700003 -0.030551834 5.5223645e-39 305 265
-0.017084479 0.69599998 -0.030507999 5.705674e-39 306 265
-0.015818574 0.69400001 -0.030420333 5.890424e-39 307 265
-0.01460176 0.69400001 -0.030420333 5.7071061e-39 308 265
-0.01336566 0.69300002 -0.0303765 5.7071061e-39 309 265
-0.012150601 0.69300002 -0.0303765 5.5227176e-39 310 265
-0.01090398 0.69099998 -0.030288832 5.3379662e-39 311 265
-0.0096924258 0.69099998 -0.030288832 5.1546568e-39 312 265
-0.008480873 0.69099998 -0.030288832 5.1546568e-39 313 265
-0.0072693196 0.69099998 -0.030288832 5.1539379e-39 314 265
-0.0060489997 0.69 -0.030244999 5.4301647e-39 315 265
-0.0048391996 0.69 -0.030244999 5.4305178e-39 316 265
-0.0036188802 0.68800002 -0.030157333 5.4305178e-39 317 265
-0.0024125867 0.68800002 -0.030157333 5.3383222e-39 318 265
