# .PCD v.7 - Point Cloud Data file format
FIELDS x y z rgb imX imY
SIZE 4 4 4 4 4 4
TYPE F F F F F F
COUNT 1 1 1 1 1 1
WIDTH 827
HEIGHT 1
VIEWPOINT 0 0 0 1 0 0 0
POINTS 827
DATA ascii
0.028067358 0.69599998 -0.042711195 1.2068916e-38 343 275
0.02932976 0.69700003 -0.042772565 1.2252238e-38 344 275
0.030551834 0.69700003 -0.042772565 1.2528464e-38 345 275
0.031819493 0.69800001 -0.042833932 1.2621759e-38 346 275
0.033043321 0.69800001 -0.042833932 1.3267128e-38 347 275
0.034267146 0.69800001 -0.042833932 1.3270018e-38 348 275
-0.050176892 0.69800001 -0.04405776 1.4374567e-38 279 276
-0.048953064 0.69800001 -0.04405776 1.4005762e-38 280 276
-0.047660861 0.69700003 -0.043994639 1.363734e-38 281 276
-0.046438783 0.69700003 -0.043994639 1.3454015e-38 282 276
-0.045151837 0.69599998 -0.043931518 1.3269984e-38 283 276
-0.043805279 0.69400001 -0.043805279 1.3360746e-38 284 276
-0.042527102 0.69300002 -0.043742158 1.326855e-38 285 276
-0.041192811 0.69099998 -0.043615919 1.3176352e-38 286 276
-0.0399234 0.69 -0.043552797 1.3176352e-38 287 276
-0.038601387 0.68800002 -0.043426562 1.2992674e-38 288 276
-0.037340738 0.68699998 -0.043363437 1.2900478e-38 289 276
-0.036083598 0.68599999 -0.043300316 1.2809002e-38 290 276
-0.03477912 0.68400002 -0.043174081 1.2624612e-38 291 276
-0.033530746 0.68300003 -0.043110959 1.2624615e-38 292 276
-0.032333218 0.68300003 -0.043110959 1.2624615e-38 293 276
-0.031090107 0.68199998 -0.043047838 1.2715733e-38 294 276
-0.029894331 0.68199998 -0.043047838 1.2715733e-38 295 276
-0.02869856 0.68199998 -0.043047838 1.2623178e-38 296 276
-0.027422134 0.68000001 -0.042921599 1.2530983e-38 297 276
-0.026229866 0.68000001 -0.042921599 1.2531339e-38 298 276
-0.025037598 0.68000001 -0.042921599 1.2531339e-38 299 276
-0.023845334 0.68000001 -0.042921599 1.2531339e-38 300 276
-0.022653066 0.68000001 -0.042921599 1.2531339e-38 301 276
-0.0214608 0.68000001 -0.042921599 1.2347668e-38 302 276
-0.020238725 0.67900002 -0.042858478 1.2347668e-38 303 276
-0.019048214 0.67900002 -0.042858478 1.2347305e-38 304 276
-0.017857701 0.67900002 -0.042858478 1.2347305e-38 305 276
-0.016667187 0.67900002 -0.042858478 1.2530614e-38 306 276
-0.015476674 0.67900002 -0.042858478 1.2438418e-38 307 276
-0.01428616 0.67900002 -0.042858478 1.2255109e-38 308 276
-0.013095647 0.67900002 -0.042858478 1.2255109e-38 309 276
-0.011887599 0.67799997 -0.042795356 1.2255109e-38 310 276
-0.010698839 0.67799997 -0.042795356 1.2255109e-38 311 276
-0.0095100794 0.67799997 -0.042795356 1.2254753e-38 312 276
-0.0083213197 0.67799997 -0.042795356 1.2254753e-38 313 276
-0.0071325595 0.67799997 -0.042795356 1.234587e-38 314 276
-0.0059437994 0.67799997 -0.042795356 1.234587e-38 315 276
-0.0047550397 0.67799997 -0.042795356 1.2162911e-38 316 276
-0.0035662798 0.67799997 -0.042795356 1.2070714e-38 317 276
-0.0023775198 0.67799997 -0.042795356 1.2253307e-38 318 276
-0.0011887599 0.67799997 -0.042795356 1.2253307e-38 319 276
0 0.67799997 -0.042795356 1.2161111e-38 320 276
0.0011887599 0.67799997 -0.042795356 1.2161111e-38 321 276
0.0023810267 0.67900002 -0.042858478 1.1977443e-38 322 276
0.0035715401 0.67900002 -0.042858478 1.1977443e-38 323 276
0.0047620535 0.67900002 -0.042858478 1.206856e-38 324 276
0.0059525664 0.67900002 -0.042858478 1.206856e-38 325 276
0.0071535995 0.68000001 -0.042921599 1.2067841e-38 326 276
0.0083458666 0.68000001 -0.042921599 1.2067841e-38 327 276
0.009566186 0.68199998 -0.043047838 1.2067841e-38 328 276
0.010761959 0.68199998 -0.043047838 1.2067841e-38 329 276
0.011957732 0.68199998 -0.043047838 1.1976001e-38 330 276
0.013172794 0.68300003 -0.043110959 1.1976001e-38 331 276
0.01439136 0.68400002 -0.043174081 1.2067122e-38 332 276
0.01559064 0.68400002 -0.043174081 1.2067122e-38 333 276
0.016839013 0.68599999 -0.043300316 1.2067122e-38 334 276
0.018041799 0.68599999 -0.043300316 1.2067122e-38 335 276
0.019272638 0.68699998 -0.043363437 1.2067478e-38 336 276
0.020506985 0.68800002 -0.043426562 1.2067478e-38 337 276
0.021713281 0.68800002 -0.043426562 1.1975998e-38 338 276
0.022986198 0.69 -0.043552797 1.2068194e-38 339 276
0.024231065 0.69099998 -0.043615919 1.1884882e-38 340 276
0.02551626 0.69300002 -0.043742158 1.1884882e-38 341 276
0.026769891 0.69400001 -0.043805279 1.2067841e-38 342 276
0.028067358 0.69599998 -0.043931518 1.2160036e-38 343 276
0.02932976 0.69700003 -0.043994639 1.2435553e-38 344 276
0.030551834 0.69700003 -0.043994639 1.2896172e-38 345 276
0.031819493 0.69800001 -0.04405776 1.2806873e-38 346 276
0.033137999 0.69999999 -0.044183996 1.3360045e-38 347 276
-0.050176892 0.69800001 -0.045281585 1.4284171e-38 279 277
-0.048953064 0.69800001 -0.045281585 1.4191233e-38 280 277
-0.047660861 0.69700003 -0.045216713 1.3730254e-38 281 277
-0.046438783 0.69700003 -0.045216713 1.3546214e-38 282 277
-0.045151837 0.69599998 -0.045151837 1.3269987e-38 283 277
-0.043805279 0.69400001 -0.045022093 1.3177431e-38 284 277
-0.042527102 0.69300002 -0.044957221 1.3085235e-38 285 277
-0.041192811 0.69099998 -0.044827472 1.2992318e-38 286 277
-0.039981257 0.69099998 -0.044827472 1.2992318e-38 287 277
-0.038713597 0.69 -0.0447626 1.2901197e-38 288 277
-0.037395094 0.68800002 -0.044632856 1.2809002e-38 289 277
-0.036136195 0.68699998 -0.044567976 1.2625331e-38 290 277
-0.034880809 0.68599999 -0.044503104 1.2533135e-38 291 277
-0.033579841 0.68400002 -0.04437336 1.2533135e-38 292 277
-0.032380559 0.68400002 -0.04437336 1.2440938e-38 293 277
-0.031135695 0.68300003 -0.044308487 1.2532418e-38 294 277
-0.029894331 0.68199998 -0.044243611 1.2532418e-38 295 277
-0.02869856 0.68199998 -0.044243611 1.2623534e-38 296 277
-0.027502786 0.68199998 -0.044243611 1.2623534e-38 297 277
-0.026307013 0.68199998 -0.044243611 1.2531339e-38 298 277
-0.025037598 0.68000001 -0.044113863 1.2531339e-38 299 277
-0.023845334 0.68000001 -0.044113863 1.2440219e-38 300 277
-0.022719691 0.68199998 -0.044243611 1.2440219e-38 301 277
-0.0214608 0.68000001 -0.044113863 1.2347668e-38 302 277
-0.020268533 0.68000001 -0.044113863 1.2347668e-38 303 277
-0.019076265 0.68000001 -0.044113863 1.2530617e-38 304 277
-0.017883999 0.68000001 -0.044113863 1.2530617e-38 305 277
-0.016691733 0.68000001 -0.044113863 1.253097e-38 306 277
-0.015476674 0.67900002 -0.044048995 1.253097e-38 307 277
-0.01428616 0.67900002 -0.044048995 1.2347302e-38 308 277
-0.013095647 0.67900002 -0.044048995 1.2255106e-38 309 277
-0.011905133 0.67900002 -0.044048995 1.2438421e-38 310 277
-0.010714619 0.67900002 -0.044048995 1.2438421e-38 311 277
-0.009524107 0.67900002 -0.044048995 1.2346226e-38 312 277
-0.0083335936 0.67900002 -0.044048995 1.2346226e-38 313 277
-0.0071325595 0.67799997 -0.043984115 1.2162913e-38 314 277
-0.0059437994 0.67799997 -0.043984115 1.2070358e-38 315 277
-0.0047550397 0.67799997 -0.043984115 1.2254026e-38 316 277
-0.0035662798 0.67799997 -0.043984115 1.2069995e-38 317 277
-0.0023775198 0.67799997 -0.043984115 1.2253307e-38 318 277
-0.0011905134 0.67900002 -0.044048995 1.2161111e-38 319 277
0 0.67900002 -0.044048995 1.2253307e-38 320 277
0.0011905134 0.67900002 -0.044048995 1.2161111e-38 321 277
0.0023810267 0.67900002 -0.044048995 1.2160755e-38 322 277
0.0035715401 0.67900002 -0.044048995 1.206856e-38 323 277
0.0047620535 0.67900002 -0.044048995 1.2160036e-38 324 277
0.0059613334 0.68000001 -0.044113863 1.2067841e-38 325 277
0.0071535995 0.68000001 -0.044113863 1.2251153e-38 326 277
0.0083704125 0.68199998 -0.044243611 1.2251153e-38 327 277
0.009566186 0.68199998 -0.044243611 1.1884526e-38 328 277
0.010761959 0.68199998 -0.044243611 1.1884526e-38 329 277
0.011975267 0.68300003 -0.044308487 1.1884882e-38 330 277
0.01319208 0.68400002 -0.04437336 1.1792686e-38 331 277
0.01439136 0.68400002 -0.04437336 1.1976001e-38 332 277
0.015636226 0.68599999 -0.044503104 1.1883445e-38 333 277
0.01686356 0.68699998 -0.044567976 1.1975281e-38 334 277
0.018068098 0.68699998 -0.044567976 1.1975281e-38 335 277
0.019272638 0.68699998 -0.044567976 1.2067478e-38 336 277
0.020506985 0.68800002 -0.044632856 1.1975281e-38 337 277
0.021713281 0.68800002 -0.044632856 1.2067478e-38 338 277
0.022986198 0.69 -0.0447626 1.2067478e-38 339 277
0.024231065 0.69099998 -0.044827472 1.2068197e-38 340 277
0.025553079 0.69400001 -0.045022093 1.1976001e-38 341 277
0.026847038 0.69599998 -0.045151837 1.2160036e-38 342 277
0.028067358 0.69599998 -0.045151837 1.2252591e-38 343 277
0.02932976 0.69700003 -0.045216713 1.2435916e-38 344 277
0.030595668 0.69800001 -0.045281585 1.2897254e-38 345 277
0.031910665 0.69999999 -0.04541133 1.3360045e-38 346 277
-0.050176892 0.69800001 -0.046505414 1.4467839e-38 279 278
-0.048953064 0.69800001 -0.046505414 1.4375621e-38 280 278
-0.047660861 0.69700003 -0.046438783 1.3915003e-38 281 278
-0.046438783 0.69700003 -0.046438783 1.3546567e-38 282 278
-0.045216713 0.69700003 -0.046438783 1.3269981e-38 283 278
-0.043931518 0.69599998 -0.046372157 1.3268901e-38 284 278
-0.042588469 0.69400001 -0.046238903 1.3268901e-38 285 278
-0.041312039 0.69300002 -0.04617228 1.3176705e-38 286 278
-0.039981257 0.69099998 -0.046039023 1.2992674e-38 287 278
-0.038713597 0.69 -0.045972396 1.2992674e-38 288 278
-0.037395094 0.68800002 -0.045839146 1.2900478e-38 289 278
-0.036136195 0.68699998 -0.045772515 1.2624612e-38 290 278
-0.034931656 0.68699998 -0.045772515 1.2624612e-38 291 278
-0.033678025 0.68599999 -0.045705888 1.2532415e-38 292 278
-0.032475237 0.68599999 -0.045705888 1.2532415e-38 293 278
-0.03118128 0.68400002 -0.045572639 1.2715727e-38 294 278
-0.029938167 0.68300003 -0.045506012 1.2715727e-38 295 278
-0.028740639 0.68300003 -0.045506012 1.2898679e-38 296 278
-0.027502786 0.68199998 -0.045439381 1.2898679e-38 297 278
-0.026307013 0.68199998 -0.045439381 1.2623531e-38 298 278
-0.025111238 0.68199998 -0.045439381 1.2623531e-38 299 278
-0.023915464 0.68199998 -0.045439381 1.2623531e-38 300 278
-0.022719691 0.68199998 -0.045439381 1.2531336e-38 301 278
-0.021523919 0.68199998 -0.045439381 1.2531336e-38 302 278
-0.020328145 0.68199998 -0.045439381 1.2347305e-38 303 278
-0.019132372 0.68199998 -0.045439381 1.2347302e-38 304 278
-0.017936599 0.68199998 -0.045439381 1.2347302e-38 305 278
-0.016740825 0.68199998 -0.045439381 1.253097e-38 306 278
-0.015499466 0.68000001 -0.045306131 1.253097e-38 307 278
-0.014307199 0.68000001 -0.045306131 1.2530614e-38 308 278
-0.013114933 0.68000001 -0.045306131 1.2530614e-38 309 278
-0.011922667 0.68000001 -0.045306131 1.2530614e-38 310 278
-0.0107304 0.68000001 -0.045306131 1.2438418e-38 311 278
-0.009524107 0.67900002 -0.045239504 1.2438418e-38 312 278
-0.0083335936 0.67900002 -0.045239504 1.2438418e-38 313 278
-0.0071430802 0.67900002 -0.045239504 1.2438418e-38 314 278
-0.0059525664 0.67900002 -0.045239504 1.2346223e-38 315 278
-0.0047620535 0.67900002 -0.045239504 1.2070714e-38 316 278
-0.0035715401 0.67900002 -0.045239504 1.2070714e-38 317 278
-0.0023810267 0.67900002 -0.045239504 1.2253307e-38 318 278
-0.0011905134 0.67900002 -0.045239504 1.2161111e-38 319 278
0 0.67900002 -0.045239504 1.2253307e-38 320 278
0.0011922666 0.68000001 -0.045306131 1.2161111e-38 321 278
0.0023845332 0.68000001 -0.045306131 1.2161108e-38 322 278
0.0035767998 0.68000001 -0.045306131 1.2068913e-38 323 278
0.0047690663 0.68000001 -0.045306131 1.2068916e-38 324 278
0.0059613334 0.68000001 -0.045306131 1.1884526e-38 325 278
0.00717464 0.68199998 -0.045439381 1.2068197e-38 326 278
0.0083704125 0.68199998 -0.045439381 1.2068197e-38 327 278
0.0095802136 0.68300003 -0.045506012 1.1884882e-38 328 278
0.01077774 0.68300003 -0.045506012 1.1884882e-38 329 278
0.0119928 0.68400002 -0.045572639 1.1792683e-38 330 278
0.013230653 0.68599999 -0.045705888 1.1700486e-38 331 278
0.01443344 0.68599999 -0.045705888 1.1792683e-38 332 278
0.015659019 0.68699998 -0.045772515 1.1792683e-38 333 278
0.01686356 0.68699998 -0.045772515 1.1975998e-38 334 278
0.018068098 0.68699998 -0.045772515 1.1883801e-38 335 278
0.019300694 0.68800002 -0.045839146 1.1976001e-38 336 278
0.020566599 0.69 -0.045972396 1.1976001e-38 337 278
0.021776399 0.69 -0.045972396 1.1976001e-38 338 278
0.02308614 0.69300002 -0.04617228 1.2068197e-38 339 278
0.024336265 0.69400001 -0.046238903 1.1976001e-38 340 278
0.025553079 0.69400001 -0.046238903 1.2068197e-38 341 278
0.026885614 0.69700003 -0.046438783 1.225331e-38 342 278
0.028107686 0.69700003 -0.046438783 1.2345505e-38 343 278
0.02932976 0.69700003 -0.046438783 1.2713226e-38 344 278
-0.048953064 0.69800001 -0.047729239 1.4468192e-38 280 279
-0.047660861 0.69700003 -0.047660861 1.3915018e-38 281 279
-0.046438783 0.69700003 -0.047660861 1.3545863e-38 282 279
-0.045216713 0.69700003 -0.047660861 1.3453668e-38 283 279
-0.043994639 0.69700003 -0.047660861 1.3177431e-38 284 279
-0.042711195 0.69599998 -0.047592476 1.299304e-38 285 279
-0.041371655 0.69400001 -0.047455717 1.3085589e-38 286 279
-0.04009698 0.69300002 -0.047387339 1.2993393e-38 287 279
-0.038769703 0.69099998 -0.047250576 1.2901197e-38 288 279
-0.037503798 0.69 -0.047182199 1.2901197e-38 289 279
-0.0361888 0.68800002 -0.047045439 1.2624615e-38 290 279
-0.034931656 0.68699998 -0.046977058 1.2532418e-38 291 279
-0.033727121 0.68699998 -0.046977058 1.2532415e-38 292 279
-0.032475237 0.68599999 -0.046908677 1.2624612e-38 293 279
-0.031272452 0.68599999 -0.046908677 1.2716083e-38 294 279
-0.029982001 0.68400002 -0.046771921 1.2716083e-38 295 279
-0.028740639 0.68300003 -0.04670354 1.2899398e-38 296 279
-0.027543113 0.68300003 -0.04670354 1.2715008e-38 297 279
-0.026345588 0.68300003 -0.04670354 1.2715008e-38 298 279
-0.025111238 0.68199998 -0.046635158 1.2899398e-38 299 279
-0.023915464 0.68199998 -0.046635158 1.2623531e-38 300 279
-0.022753006 0.68300003 -0.04670354 1.2531336e-38 301 279
-0.02155548 0.68300003 -0.04670354 1.2348023e-38 302 279
-0.020357953 0.68300003 -0.04670354 1.2440219e-38 303 279
-0.019160427 0.68300003 -0.04670354 1.2531336e-38 304 279
-0.017936599 0.68199998 -0.046635158 1.2347305e-38 305 279
-0.016740825 0.68199998 -0.046635158 1.2622812e-38 306 279
-0.015545053 0.68199998 -0.046635158 1.2530617e-38 307 279
-0.01434928 0.68199998 -0.046635158 1.2530614e-38 308 279
-0.013153506 0.68199998 -0.046635158 1.2530614e-38 309 279
-0.011957732 0.68199998 -0.046635158 1.2529895e-38 310 279
-0.010761959 0.68199998 -0.046635158 1.2529895e-38 311 279
-0.0095381327 0.68000001 -0.046498399 1.2346579e-38 312 279
-0.0083458666 0.68000001 -0.046498399 1.2438774e-38 313 279
-0.0071535995 0.68000001 -0.046498399 1.2346579e-38 314 279
-0.0059613334 0.68000001 -0.046498399 1.2346579e-38 315 279
-0.0047690663 0.68000001 -0.046498399 1.2254026e-38 316 279
-0.0035767998 0.68000001 -0.046498399 1.2069995e-38 317 279
-0.0023845332 0.68000001 -0.046498399 1.2253307e-38 318 279
-0.0011922666 0.68000001 -0.046498399 1.2253307e-38 319 279
0 0.68000001 -0.046498399 1.2160392e-38 320 279
0.0011922666 0.68000001 -0.046498399 1.2252588e-38 321 279
0.0023845332 0.68000001 -0.046498399 1.206891e-38 322 279
0.0035767998 0.68000001 -0.046498399 1.206891e-38 323 279
0.004783093 0.68199998 -0.046635158 1.2068191e-38 324 279
0.005978866 0.68199998 -0.046635158 1.2068191e-38 325 279
0.00717464 0.68199998 -0.046635158 1.1884882e-38 326 279
0.0083826864 0.68300003 -0.04670354 1.1884882e-38 327 279
0.0095802136 0.68300003 -0.04670354 1.1884882e-38 328 279
0.01077774 0.68300003 -0.04670354 1.1792686e-38 329 279
0.012027865 0.68599999 -0.046908677 1.1975998e-38 330 279
0.013249939 0.68699998 -0.046977058 1.1975998e-38 331 279
0.014454478 0.68699998 -0.046977058 1.1792683e-38 332 279
0.015659019 0.68699998 -0.046977058 1.1700486e-38 333 279
0.016888106 0.68800002 -0.047045439 1.1883801e-38 334 279
0.0180944 0.68800002 -0.047045439 1.1975998e-38 335 279
0.019356798 0.69 -0.047182199 1.1976001e-38 336 279
0.020596405 0.69099998 -0.047250576 1.1976001e-38 337 279
0.021807959 0.69099998 -0.047250576 1.1884526e-38 338 279
0.02308614 0.69300002 -0.047387339 1.1884526e-38 339 279
0.024336265 0.69400001 -0.047455717 1.2068916e-38 340 279
0.025626717 0.69599998 -0.047592476 1.2068916e-38 341 279
0.026885614 0.69700003 -0.047660861 1.2069644e-38 342 279
0.028107686 0.69700003 -0.047660861 1.2438068e-38 343 279
-0.047660861 0.69700003 -0.048882935 1.3824268e-38 281 280
-0.046438783 0.69700003 -0.048882935 1.3821018e-38 282 280
-0.045216713 0.69700003 -0.048882935 1.3452596e-38 283 280
-0.043994639 0.69700003 -0.048882935 1.3268548e-38 284 280
-0.042772565 0.69700003 -0.048882935 1.3176352e-38 285 280
-0.041371655 0.69400001 -0.048672531 1.2993037e-38 286 280
-0.04009698 0.69300002 -0.048602402 1.2900841e-38 287 280
-0.038769703 0.69099998 -0.04846213 1.2992674e-38 288 280
-0.037503798 0.69 -0.048391998 1.2900478e-38 289 280
-0.036293998 0.69 -0.048391998 1.2808283e-38 290 280
-0.03498251 0.68800002 -0.048251733 1.2808283e-38 291 280
-0.033727121 0.68699998 -0.048181597 1.2715727e-38 292 280
-0.032522578 0.68699998 -0.048181597 1.2715727e-38 293 280
-0.031272452 0.68599999 -0.048111461 1.2624968e-38 294 280
-0.029982001 0.68400002 -0.0479712 1.2624968e-38 295 280
-0.02878272 0.68400002 -0.0479712 1.2716083e-38 296 280
-0.027583439 0.68400002 -0.0479712 1.2716083e-38 297 280
-0.026345588 0.68300003 -0.047901068 1.2623531e-38 298 280
-0.02514806 0.68300003 -0.047901068 1.2623531e-38 299 280
-0.023950534 0.68300003 -0.047901068 1.2623531e-38 300 280
-0.022753006 0.68300003 -0.047901068 1.2623531e-38 301 280
-0.02155548 0.68300003 -0.047901068 1.2531336e-38 302 280
-0.020357953 0.68300003 -0.047901068 1.2531336e-38 303 280
-0.019160427 0.68300003 -0.047901068 1.2530617e-38 304 280
-0.017962901 0.68300003 -0.047901068 1.2530617e-38 305 280
-0.016765373 0.68300003 -0.047901068 1.2438421e-38 306 280
-0.015545053 0.68199998 -0.047830928 1.2438421e-38 307 280
-0.01434928 0.68199998 -0.047830928 1.2438421e-38 308 280
-0.013153506 0.68199998 -0.047830928 1.2438421e-38 309 280
-0.011957732 0.68199998 -0.047830928 1.2530614e-38 310 280
-0.010761959 0.68199998 -0.047830928 1.2438418e-38 311 280
-0.009566186 0.68199998 -0.047830928 1.2346579e-38 312 280
-0.0083704125 0.68199998 -0.047830928 1.2346579e-38 313 280
-0.00717464 0.68199998 -0.047830928 1.24377e-38 314 280
-0.005978866 0.68199998 -0.047830928 1.2345503e-38 315 280
-0.004783093 0.68199998 -0.047830928 1.225331e-38 316 280
-0.00358732 0.68199998 -0.047830928 1.2160755e-38 317 280
-0.0023915465 0.68199998 -0.047830928 1.1977443e-38 318 280
-0.0011957732 0.68199998 -0.047830928 1.1977443e-38 319 280
0 0.68199998 -0.047830928 1.2161111e-38 320 280
0.0011957732 0.68199998 -0.047830928 1.2068916e-38 321 280
0.0023915465 0.68199998 -0.047830928 1.206891e-38 322 280
0.00358732 0.68199998 -0.047830928 1.1884879e-38 323 280
0.004783093 0.68199998 -0.047830928 1.2068191e-38 324 280
0.005978866 0.68199998 -0.047830928 1.2068191e-38 325 280
0.0071851597 0.68300003 -0.047901068 1.1793405e-38 326 280
0.0083826864 0.68300003 -0.047901068 1.1701209e-38 327 280
0.0095942402 0.68400002 -0.0479712 1.179233e-38 328 280
0.01079352 0.68400002 -0.0479712 1.179233e-38 329 280
0.012027865 0.68599999 -0.048111461 1.1883445e-38 330 280
0.013249939 0.68699998 -0.048181597 1.1976001e-38 331 280
0.014454478 0.68699998 -0.048181597 1.1975998e-38 332 280
0.015681813 0.68800002 -0.048251733 1.1883801e-38 333 280
0.016888106 0.68800002 -0.048251733 1.1700133e-38 334 280
0.018146999 0.69 -0.048391998 1.1700133e-38 335 280
0.019356798 0.69 -0.048391998 1.179233e-38 336 280
0.020656019 0.69300002 -0.048602402 1.1884526e-38 337 280
0.021871079 0.69300002 -0.048602402 1.1793049e-38 338 280
0.023119451 0.69400001 -0.048672531 1.1885245e-38 339 280
0.024336265 0.69400001 -0.048672531 1.2068563e-38 340 280
0.025626717 0.69599998 -0.048812799 1.2160758e-38 341 280
0.026847038 0.69599998 -0.048812799 1.2252969e-38 342 280
0.028067358 0.69599998 -0.048812799 1.2622112e-38 343 280
-0.046438783 0.69700003 -0.050105009 1.3546603e-38 282 281
-0.045216713 0.69700003 -0.050105009 1.336221e-38 283 281
-0.043994639 0.69700003 -0.050105009 1.3177448e-38 284 281
-0.042772565 0.69700003 -0.050105009 1.3085251e-38 285 281
-0.041490879 0.69599998 -0.050033119 1.3175999e-38 286 281
-0.040154841 0.69400001 -0.049889345 1.3175999e-38 287 281
-0.03888192 0.69300002 -0.049817458 1.2900844e-38 288 281
-0.03755815 0.69099998 -0.049673684 1.2900844e-38 289 281
-0.036293998 0.69 -0.049601797 1.2900122e-38 290 281
-0.03498251 0.68800002 -0.049458027 1.2807927e-38 291 281
-0.033776212 0.68800002 -0.049458027 1.2624612e-38 292 281
-0.032522578 0.68699998 -0.049386136 1.2532415e-38 293 281
-0.031318039 0.68699998 -0.049386136 1.2532415e-38 294 281
-0.030069664 0.68599999 -0.049314249 1.2532415e-38 295 281
-0.02886688 0.68599999 -0.049314249 1.2715727e-38 296 281
-0.027664091 0.68599999 -0.049314249 1.2715727e-38 297 281
-0.02638416 0.68400002 -0.049170479 1.2623531e-38 298 281
-0.025184879 0.68400002 -0.049170479 1.2623531e-38 299 281
-0.0239856 0.68400002 -0.049170479 1.2715008e-38 300 281
-0.022786319 0.68400002 -0.049170479 1.2622812e-38 301 281
-0.02158704 0.68400002 -0.049170479 1.2622815e-38 302 281
-0.020387759 0.68400002 -0.049170479 1.253062e-38 303 281
-0.019160427 0.68300003 -0.049098592 1.2713932e-38 304 281
-0.017962901 0.68300003 -0.049098592 1.2529901e-38 305 281
-0.016765373 0.68300003 -0.049098592 1.2438421e-38 306 281
-0.015567848 0.68300003 -0.049098592 1.2438421e-38 307 281
-0.014370319 0.68300003 -0.049098592 1.2529898e-38 308 281
-0.013153506 0.68199998 -0.049026705 1.2529898e-38 309 281
-0.011957732 0.68199998 -0.049026705 1.2621015e-38 310 281
-0.010761959 0.68199998 -0.049026705 1.271321e-38 311 281
-0.009566186 0.68199998 -0.049026705 1.2346223e-38 312 281
-0.0083704125 0.68199998 -0.049026705 1.2346223e-38 313 281
-0.00717464 0.68199998 -0.049026705 1.2345505e-38 314 281
-0.005978866 0.68199998 -0.049026705 1.2345505e-38 315 281
-0.004783093 0.68199998 -0.049026705 1.225331e-38 316 281
-0.00358732 0.68199998 -0.049026705 1.2160755e-38 317 281
-0.0023915465 0.68199998 -0.049026705 1.2160755e-38 318 281
-0.0011975267 0.68300003 -0.049098592 1.206856e-38 319 281
0 0.68300003 -0.049098592 1.206856e-38 320 281
0.0011975267 0.68300003 -0.049098592 1.206856e-38 321 281
0.0023950534 0.68300003 -0.049098592 1.2068197e-38 322 281
0.0035925799 0.68300003 -0.049098592 1.2068197e-38 323 281
0.0047901068 0.68300003 -0.049098592 1.1792686e-38 324 281
0.0059876335 0.68300003 -0.049098592 1.1792686e-38 325 281
0.0071851597 0.68300003 -0.049098592 1.1792686e-38 326 281
0.0083949603 0.68400002 -0.049170479 1.1792686e-38 327 281
0.0096222926 0.68599999 -0.049314249 1.179233e-38 328 281
0.010825079 0.68599999 -0.049314249 1.1700133e-38 329 281
0.012045399 0.68699998 -0.049386136 1.1975645e-38 330 281
0.013249939 0.68699998 -0.049386136 1.1883448e-38 331 281
0.014454478 0.68699998 -0.049386136 1.1883448e-38 332 281
0.015681813 0.68800002 -0.049458027 1.1883448e-38 333 281
0.016888106 0.68800002 -0.049458027 1.1700136e-38 334 281
0.018146999 0.69 -0.049601797 1.1700136e-38 335 281
0.019384852 0.69099998 -0.049673684 1.1792333e-38 336 281
0.020656019 0.69300002 -0.049817458 1.1884529e-38 337 281
0.021871079 0.69300002 -0.049817458 1.1885247e-38 338 281
0.023119451 0.69400001 -0.049889345 1.1885247e-38 339 281
0.0244064 0.69599998 -0.050033119 1.2068212e-38 340 281
0.025626717 0.69599998 -0.050033119 1.2252603e-38 341 281
0.026769891 0.69400001 -0.049889345 1.2254055e-38 342 281
0.027986705 0.69400001 -0.049889345 1.2622478e-38 343 281
-0.045281585 0.69800001 -0.051400717 1.3454409e-38 283 282
-0.04405776 0.69800001 -0.051400717 1.3270365e-38 284 282
-0.042772565 0.69700003 -0.051327083 1.2994138e-38 285 282
-0.041490879 0.69599998 -0.051253434 1.3084888e-38 286 282
-0.040270556 0.69599998 -0.051253434 1.3084888e-38 287 282
-0.03888192 0.69300002 -0.051032521 1.2992324e-38 288 282
-0.03755815 0.69099998 -0.050885238 1.2992324e-38 289 282
-0.036346599 0.69099998 -0.050885238 1.2808283e-38 290 282
-0.035084199 0.69 -0.050811596 1.2808283e-38 291 282
-0.0338744 0.69 -0.050811596 1.280828e-38 292 282
-0.032569919 0.68800002 -0.050664321 1.280828e-38 293 282
-0.031363625 0.68800002 -0.050664321 1.2715727e-38 294 282
-0.030113498 0.68699998 -0.050590675 1.2715727e-38 295 282
-0.028908957 0.68699998 -0.050590675 1.2715727e-38 296 282
-0.027704418 0.68699998 -0.050590675 1.2623531e-38 297 282
-0.026461305 0.68599999 -0.050517038 1.2715011e-38 298 282
-0.025258519 0.68599999 -0.050517038 1.2715011e-38 299 282
-0.024055731 0.68599999 -0.050517038 1.2622815e-38 300 282
-0.022852944 0.68599999 -0.050517038 1.2715011e-38 301 282
-0.021650158 0.68599999 -0.050517038 1.2622815e-38 302 282
-0.020447372 0.68599999 -0.050517038 1.2622815e-38 303 282
-0.01918848 0.68400002 -0.050369758 1.253062e-38 304 282
-0.0179892 0.68400002 -0.050369758 1.2438424e-38 305 282
-0.016789921 0.68400002 -0.050369758 1.2438421e-38 306 282
-0.015567848 0.68300003 -0.05029612 1.2438421e-38 307 282
-0.014370319 0.68300003 -0.05029612 1.2529898e-38 308 282
-0.013172794 0.68300003 -0.05029612 1.2437702e-38 309 282
-0.011975267 0.68300003 -0.05029612 1.2528818e-38 310 282
-0.01077774 0.68300003 -0.05029612 1.2621015e-38 311 282
-0.009566186 0.68199998 -0.050222475 1.2437702e-38 312 282
-0.0083704125 0.68199998 -0.050222475 1.2345505e-38 313 282
-0.00717464 0.68199998 -0.050222475 1.2436619e-38 314 282
-0.005978866 0.68199998 -0.050222475 1.2436619e-38 315 282
-0.0047901068 0.68300003 -0.05029612 1.2253304e-38 316 282
-0.0035925799 0.68300003 -0.05029612 1.2161108e-38 317 282
-0.0023950534 0.68300003 -0.05029612 1.2068916e-38 318 282
-0.0011975267 0.68300003 -0.05029612 1.2068916e-38 319 282
0 0.68300003 -0.05029612 1.206856e-38 320 282
0.0011975267 0.68300003 -0.05029612 1.1884529e-38 321 282
0.0023950534 0.68300003 -0.05029612 1.2068197e-38 322 282
0.0035925799 0.68300003 -0.05029612 1.2068197e-38 323 282
0.0047901068 0.68300003 -0.05029612 1.1975998e-38 324 282
0.0059876335 0.68300003 -0.05029612 1.2068194e-38 325 282
0.0071956799 0.68400002 -0.050369758 1.1975998e-38 326 282
0.0084195063 0.68599999 -0.050517038 1.1975998e-38 327 282
0.0096222926 0.68599999 -0.050517038 1.1975645e-38 328 282
0.010825079 0.68599999 -0.050517038 1.1975645e-38 329 282
0.012045399 0.68699998 -0.050590675 1.169978e-38 330 282
0.013269227 0.68800002 -0.050664321 1.169978e-38 331 282
0.014475521 0.68800002 -0.050664321 1.1883451e-38 332 282
0.015681813 0.68800002 -0.050664321 1.1883451e-38 333 282
0.0169372 0.69 -0.050811596 1.1975645e-38 334 282
0.0181733 0.69099998 -0.050885238 1.1975645e-38 335 282
0.019469013 0.69400001 -0.051106159 1.1976001e-38 336 282
0.020685827 0.69400001 -0.051106159 1.2160392e-38 337 282
0.021902639 0.69400001 -0.051106159 1.2068563e-38 338 282
0.023119451 0.69400001 -0.051106159 1.2068563e-38 339 282
0.0244064 0.69599998 -0.051253434 1.1976742e-38 340 282
0.025663542 0.69700003 -0.051327083 1.2068938e-38 341 282
0.026769891 0.69400001 -0.051106159 1.197856e-38 342 282
-0.04405776 0.69800001 -0.052624546 1.3271094e-38 284 283
-0.042772565 0.69700003 -0.052549154 1.3086703e-38 285 283
-0.041490879 0.69599998 -0.052473757 1.3177448e-38 286 283
-0.040270556 0.69599998 -0.052473757 1.3085251e-38 287 283
-0.03888192 0.69300002 -0.05224758 1.3176355e-38 288 283
-0.037666857 0.69300002 -0.05224758 1.2992324e-38 289 283
-0.036346599 0.69099998 -0.052096792 1.2900478e-38 290 283
-0.035135046 0.69099998 -0.052096792 1.2808283e-38 291 283
-0.033923492 0.69099998 -0.052096792 1.2808283e-38 292 283
-0.032711938 0.69099998 -0.052096792 1.2715727e-38 293 283
-0.031454802 0.69 -0.052021399 1.271573e-38 294 283
-0.030157333 0.68800002 -0.051870614 1.271573e-38 295 283
-0.028951041 0.68800002 -0.051870614 1.271573e-38 296 283
-0.027704418 0.68699998 -0.051795214 1.2623534e-38 297 283
-0.026499879 0.68699998 -0.051795214 1.2715011e-38 298 283
-0.025258519 0.68599999 -0.051719822 1.2622815e-38 299 283
-0.024055731 0.68599999 -0.051719822 1.2715008e-38 300 283
-0.022886258 0.68699998 -0.051795214 1.2715008e-38 301 283
-0.021681719 0.68699998 -0.051795214 1.2623168e-38 302 283
-0.020447372 0.68599999 -0.051719822 1.2623168e-38 303 283
-0.019244585 0.68599999 -0.051719822 1.2530617e-38 304 283
-0.018041799 0.68599999 -0.051719822 1.2530617e-38 305 283
-0.016789921 0.68400002 -0.051569041 1.2438421e-38 306 283
-0.01559064 0.68400002 -0.051569041 1.2438421e-38 307 283
-0.01439136 0.68400002 -0.051569041 1.2529895e-38 308 283
-0.013172794 0.68300003 -0.051493648 1.2529895e-38 309 283
-0.011975267 0.68300003 -0.051493648 1.24377e-38 310 283
-0.01077774 0.68300003 -0.051493648 1.24377e-38 311 283
-0.0095802136 0.68300003 -0.051493648 1.24377e-38 312 283
-0.0083826864 0.68300003 -0.051493648 1.2345503e-38 313 283
-0.0071851597 0.68300003 -0.051493648 1.2436975e-38 314 283
-0.0059876335 0.68300003 -0.051493648 1.2436975e-38 315 283
-0.0047901068 0.68300003 -0.051493648 1.225366e-38 316 283
-0.0035925799 0.68300003 -0.051493648 1.2161464e-38 317 283
-0.0023950534 0.68300003 -0.051493648 1.2161108e-38 318 283
-0.0011975267 0.68300003 -0.051493648 1.2068913e-38 319 283
0 0.68300003 -0.051493648 1.2160036e-38 320 283
0.0011975267 0.68300003 -0.051493648 1.2067841e-38 321 283
0.0023950534 0.68300003 -0.051493648 1.2067841e-38 322 283
0.0035925799 0.68300003 -0.051493648 1.2067841e-38 323 283
0.0047901068 0.68300003 -0.051493648 1.2068194e-38 324 283
0.0059964 0.68400002 -0.051569041 1.2068194e-38 325 283
0.0071956799 0.68400002 -0.051569041 1.1975998e-38 326 283
0.0084195063 0.68599999 -0.051719822 1.1975998e-38 327 283
0.0096363192 0.68699998 -0.051795214 1.1975645e-38 328 283
0.010840859 0.68699998 -0.051795214 1.1975645e-38 329 283
0.012062933 0.68800002 -0.051870614 1.169978e-38 330 283
0.013269227 0.68800002 -0.051870614 1.169978e-38 331 283
0.014475521 0.68800002 -0.051870614 1.1883448e-38 332 283
0.015727401 0.69 -0.052021399 1.1883448e-38 333 283
0.016961746 0.69099998 -0.052096792 1.1975645e-38 334 283
0.0182522 0.69400001 -0.052322973 1.1975645e-38 335 283
0.019525118 0.69599998 -0.052473757 1.1884531e-38 336 283
0.020745439 0.69599998 -0.052473757 1.1884531e-38 337 283
0.021902639 0.69400001 -0.052322973 1.2068212e-38 338 283
0.023119451 0.69400001 -0.052322973 1.2068212e-38 339 283
-0.042772565 0.69700003 -0.053771228 1.3086715e-38 285 284
-0.041550495 0.69700003 -0.053771228 1.30867e-38 286 284
-0.040328421 0.69700003 -0.053771228 1.2994504e-38 287 284
-0.039106347 0.69700003 -0.053771228 1.2993052e-38 288 284
-0.037721213 0.69400001 -0.053539783 1.2809021e-38 289 284
-0.036451802 0.69300002 -0.053462639 1.2808293e-38 290 284
-0.035236739 0.69300002 -0.053462639 1.2808293e-38 291 284
-0.034021679 0.69300002 -0.053462639 1.2624615e-38 292 284
-0.03280662 0.69300002 -0.053462639 1.2532418e-38 293 284
-0.031500384 0.69099998 -0.053308345 1.2532418e-38 294 284
-0.030288832 0.69099998 -0.053308345 1.2532418e-38 295 284
-0.029035198 0.69 -0.053231198 1.2623534e-38 296 284
-0.027744746 0.68800002 -0.053076908 1.2623534e-38 297 284
-0.026538454 0.68800002 -0.053076908 1.2806125e-38 298 284
-0.025295338 0.68699998 -0.052999757 1.2898679e-38 299 284
-0.024090799 0.68699998 -0.052999757 1.2806125e-38 300 284
-0.022919573 0.68800002 -0.053076908 1.2713929e-38 301 284
-0.021681719 0.68699998 -0.052999757 1.2530617e-38 302 284
-0.020477179 0.68699998 -0.052999757 1.2530617e-38 303 284
-0.019272638 0.68699998 -0.052999757 1.2438424e-38 304 284
-0.018068098 0.68699998 -0.052999757 1.2438424e-38 305 284
-0.016839013 0.68599999 -0.05292261 1.2438421e-38 306 284
-0.015636226 0.68599999 -0.05292261 1.2438421e-38 307 284
-0.01439136 0.68400002 -0.05276832 1.2529895e-38 308 284
-0.01319208 0.68400002 -0.05276832 1.24377e-38 309 284
-0.0119928 0.68400002 -0.05276832 1.2528815e-38 310 284
-0.01079352 0.68400002 -0.05276832 1.2528815e-38 311 284
-0.0095942402 0.68400002 -0.05276832 1.2069995e-38 312 284
-0.0083949603 0.68400002 -0.05276832 1.2069995e-38 313 284
-0.0071956799 0.68400002 -0.05276832 1.2252585e-38 314 284
-0.0059964 0.68400002 -0.05276832 1.2252585e-38 315 284
-0.0047971201 0.68400002 -0.05276832 1.2161108e-38 316 284
-0.00359784 0.68400002 -0.05276832 1.2068913e-38 317 284
-0.0023985601 0.68400002 -0.05276832 1.2160392e-38 318 284
-0.00119928 0.68400002 -0.05276832 1.2068197e-38 319 284
0 0.68400002 -0.05276832 1.2067841e-38 320 284
0.00119928 0.68400002 -0.05276832 1.2067841e-38 321 284
0.0023985601 0.68400002 -0.05276832 1.1975645e-38 322 284
0.00359784 0.68400002 -0.05276832 1.2067841e-38 323 284
0.0047971201 0.68400002 -0.05276832 1.1884529e-38 324 284
0.0059964 0.68400002 -0.05276832 1.1792333e-38 325 284
0.0072167199 0.68599999 -0.05292261 1.1884526e-38 326 284
0.0084317802 0.68699998 -0.052999757 1.179233e-38 327 284
0.0096363192 0.68699998 -0.052999757 1.1883448e-38 328 284
0.010840859 0.68699998 -0.052999757 1.1883448e-38 329 284
0.012062933 0.68800002 -0.053076908 1.1790897e-38 330 284
0.0133078 0.69 -0.053231198 1.1790897e-38 331 284
0.014517599 0.69 -0.053231198 1.1791253e-38 332 284
0.015750192 0.69099998 -0.053308345 1.1883448e-38 333 284
0.017035386 0.69400001 -0.053539783 1.1883448e-38 334 284
0.018304799 0.69599998 -0.053694077 1.1883448e-38 335 284
0.019525118 0.69599998 -0.053694077 1.1883095e-38 336 284
0.020745439 0.69599998 -0.053694077 1.1883095e-38 337 284
0.021902639 0.69400001 -0.053539783 1.1699797e-38 338 284
0.023119451 0.69400001 -0.053539783 1.1792351e-38 339 284
-0.041550495 0.69700003 -0.054993302 1.3179614e-38 286 285
-0.040328421 0.69700003 -0.054993302 1.3087419e-38 287 285
-0.039106347 0.69700003 -0.054993302 1.2903009e-38 288 285
-0.037829921 0.69599998 -0.054914396 1.2810812e-38 289 285
-0.036609598 0.69599998 -0.054914396 1.2993393e-38 290 285
-0.035389278 0.69599998 -0.054914396 1.2809002e-38 291 285
-0.034070771 0.69400001 -0.054756597 1.2624968e-38 292 285
-0.032853961 0.69400001 -0.054756597 1.2624968e-38 293 285
-0.031637147 0.69400001 -0.054756597 1.2440219e-38 294 285
-0.0303765 0.69300002 -0.054677699 1.2440219e-38 295 285
-0.029077278 0.69099998 -0.054519895 1.2440219e-38 296 285
-0.027865725 0.69099998 -0.054519895 1.2440219e-38 297 285
-0.026615599 0.69 -0.054440998 1.2806481e-38 298 285
-0.02533216 0.68800002 -0.054283202 1.2806481e-38 299 285
-0.024125867 0.68800002 -0.054283202 1.2530617e-38 300 285
-0.022919573 0.68800002 -0.054283202 1.2530617e-38 301 285
-0.021713281 0.68800002 -0.054283202 1.253062e-38 302 285
-0.020506985 0.68800002 -0.054283202 1.253062e-38 303 285
-0.019272638 0.68699998 -0.054204296 1.2437705e-38 304 285
-0.018068098 0.68699998 -0.054204296 1.2529901e-38 305 285
-0.01686356 0.68699998 -0.054204296 1.2437705e-38 306 285
-0.015659019 0.68699998 -0.054204296 1.2437705e-38 307 285
-0.014454478 0.68699998 -0.054204296 1.2437702e-38 308 285
-0.013230653 0.68599999 -0.054125395 1.2345505e-38 309 285
-0.012027865 0.68599999 -0.054125395 1.2345503e-38 310 285
-0.01079352 0.68400002 -0.053967599 1.2345503e-38 311 285
-0.0095942402 0.68400002 -0.053967599 1.2254023e-38 312 285
-0.0083949603 0.68400002 -0.053967599 1.2069992e-38 313 285
-0.0071956799 0.68400002 -0.053967599 1.2161111e-38 314 285
-0.0059964 0.68400002 -0.053967599 1.2161111e-38 315 285
-0.0047971201 0.68400002 -0.053967599 1.206856e-38 316 285
-0.00359784 0.68400002 -0.053967599 1.206856e-38 317 285
-0.0023985601 0.68400002 -0.053967599 1.2160039e-38 318 285
-0.00119928 0.68400002 -0.053967599 1.2067844e-38 319 285
0 0.68599999 -0.054125395 1.2067844e-38 320 285
0.0012027866 0.68599999 -0.054125395 1.2067844e-38 321 285
0.0024055731 0.68599999 -0.054125395 1.1884529e-38 322 285
0.00360836 0.68599999 -0.054125395 1.1884529e-38 323 285
0.0048181596 0.68699998 -0.054204296 1.1792333e-38 324 285
0.0060226996 0.68699998 -0.054204296 1.1792333e-38 325 285
0.0072272392 0.68699998 -0.054204296 1.1792333e-38 326 285
0.0084440531 0.68800002 -0.054283202 1.1700136e-38 327 285
0.0096503468 0.68800002 -0.054283202 1.1883451e-38 328 285
0.010856641 0.68800002 -0.054283202 1.1790897e-38 329 285
0.012097999 0.69 -0.054440998 1.1607584e-38 330 285
0.013327086 0.69099998 -0.054519895 1.1607584e-38 331 285
0.014580719 0.69300002 -0.054677699 1.1332076e-38 332 285
0.015795778 0.69300002 -0.054677699 1.1424272e-38 333 285
0.017035386 0.69400001 -0.054756597 1.1331721e-38 334 285
0.018304799 0.69599998 -0.054914396 1.1331721e-38 335 285
0.019525118 0.69599998 -0.054914396 1.1514685e-38 336 285
0.020685827 0.69400001 -0.054756597 1.1514685e-38 337 285
0.021902639 0.69400001 -0.054756597 1.1148073e-38 338 285
0.023119451 0.69400001 -0.054756597 1.1516856e-38 339 285
-0.039162453 0.69800001 -0.056296028 1.2995949e-38 288 286
-0.037829921 0.69599998 -0.056134716 1.2903753e-38 289 286
-0.036609598 0.69599998 -0.056134716 1.2719344e-38 290 286
-0.035389278 0.69599998 -0.056134716 1.2534951e-38 291 286
-0.034168959 0.69599998 -0.056134716 1.2625699e-38 292 286
-0.032948639 0.69599998 -0.056134716 1.2349472e-38 293 286
-0.031728316 0.69599998 -0.056134716 1.2532782e-38 294 286
-0.030420333 0.69400001 -0.055973411 1.2348389e-38 295 286
-0.029203519 0.69400001 -0.055973411 1.2623534e-38 296 286
-0.027946379 0.69300002 -0.055892758 1.2623534e-38 297 286
-0.02673132 0.69300002 -0.055892758 1.2715008e-38 298 286
-0.025405798 0.69 -0.055650797 1.2622812e-38 299 286
-0.024195999 0.69 -0.055650797 1.253062e-38 300 286
-0.022919573 0.68800002 -0.055489492 1.253062e-38 301 286
-0.021713281 0.68800002 -0.055489492 1.2530264e-38 302 286
-0.020506985 0.68800002 -0.055489492 1.2438068e-38 303 286
-0.019300694 0.68800002 -0.055489492 1.2529545e-38 304 286
-0.0180944 0.68800002 -0.055489492 1.2437349e-38 305 286
-0.016888106 0.68800002 -0.055489492 1.2437705e-38 306 286
-0.015659019 0.68699998 -0.055408835 1.2437705e-38 307 286
-0.014454478 0.68699998 -0.055408835 1.2345503e-38 308 286
-0.013249939 0.68699998 -0.055408835 1.2345503e-38 309 286
-0.012045399 0.68699998 -0.055408835 1.2253304e-38 310 286
-0.010840859 0.68699998 -0.055408835 1.2253304e-38 311 286
-0.0096222926 0.68599999 -0.055328183 1.2253304e-38 312 286
-0.0084195063 0.68599999 -0.055328183 1.2253304e-38 313 286
-0.0072167199 0.68599999 -0.055328183 1.2161111e-38 314 286
-0.0060139326 0.68599999 -0.055328183 1.2161111e-38 315 286
-0.0048111463 0.68599999 -0.055328183 1.2160036e-38 316 286
-0.00360836 0.68599999 -0.055328183 1.2067841e-38 317 286
-0.0024055731 0.68599999 -0.055328183 1.2067841e-38 318 286
-0.0012027866 0.68599999 -0.055328183 1.1975645e-38 319 286
0 0.68599999 -0.055328183 1.2067841e-38 320 286
0.0012027866 0.68599999 -0.055328183 1.2067841e-38 321 286
0.0024090798 0.68699998 -0.055408835 1.1884529e-38 322 286
0.0036136196 0.68699998 -0.055408835 1.1884529e-38 323 286
0.0048251734 0.68800002 -0.055489492 1.1792336e-38 324 286
0.0060314666 0.68800002 -0.055489492 1.1792336e-38 325 286
0.0072377604 0.68800002 -0.055489492 1.1699783e-38 326 286
0.0084440531 0.68800002 -0.055489492 1.1607587e-38 327 286
0.0096503468 0.68800002 -0.055489492 1.1790899e-38 328 286
0.010856641 0.68800002 -0.055489492 1.1790899e-38 329 286
0.012115533 0.69099998 -0.055731449 1.1606868e-38 330 286
0.01336566 0.69300002 -0.055892758 1.1514673e-38 331 286
0.014580719 0.69300002 -0.055892758 1.1514673e-38 332 286
0.015795778 0.69300002 -0.055892758 1.1329923e-38 333 286
0.017035386 0.69400001 -0.055973411 1.1422477e-38 334 286
0.018304799 0.69599998 -0.056134716 1.1329923e-38 335 286
0.019525118 0.69599998 -0.056134716 1.1329572e-38 336 286
0.020685827 0.69400001 -0.055973411 1.1421768e-38 337 286
0.021902639 0.69400001 -0.055973411 1.1239546e-38 338 286
-0.037829921 0.69599998 -0.057355035 1.2904109e-38 289 287
-0.036609598 0.69599998 -0.057355035 1.308704e-38 290 287
-0.035389278 0.69599998 -0.057355035 1.2994486e-38 291 287
-0.034168959 0.69599998 -0.057355035 1.2994112e-38 292 287
-0.032948639 0.69599998 -0.057355035 1.2717526e-38 293 287
-0.031728316 0.69599998 -0.057355035 1.2899395e-38 294 287
-0.030507999 0.69599998 -0.057355035 1.2715364e-38 295 287
-0.029287677 0.69599998 -0.057355035 1.2531336e-38 296 287
-0.027986705 0.69400001 -0.057190225 1.2531336e-38 297 287
-0.026769891 0.69400001 -0.057190225 1.2530983e-38 298 287
-0.02551626 0.69300002 -0.057107817 1.2530983e-38 299 287
-0.024301201 0.69300002 -0.057107817 1.2530264e-38 300 287
-0.022986198 0.69 -0.0568606 1.2530264e-38 301 287
-0.021776399 0.69 -0.0568606 1.2346951e-38 302 287
-0.020566599 0.69 -0.0568606 1.2254756e-38 303 287
-0.019356798 0.69 -0.0568606 1.2437705e-38 304 287
-0.018146999 0.69 -0.0568606 1.2345149e-38 305 287
-0.016888106 0.68800002 -0.056695789 1.252882e-38 306 287
-0.015681813 0.68800002 -0.056695789 1.252882e-38 307 287
-0.014475521 0.68800002 -0.056695789 1.2254026e-38 308 287
-0.013269227 0.68800002 -0.056695789 1.2254026e-38 309 287
-0.012062933 0.68800002 -0.056695789 1.2254026e-38 310 287
-0.010856641 0.68800002 -0.056695789 1.2069995e-38 311 287
-0.0096503468 0.68800002 -0.056695789 1.2069995e-38 312 287
-0.0084317802 0.68699998 -0.056613375 1.2069995e-38 313 287
-0.0072272392 0.68699998 -0.056613375 1.2160755e-38 314 287
-0.0060226996 0.68699998 -0.056613375 1.206856e-38 315 287
-0.0048181596 0.68699998 -0.056613375 1.2160755e-38 316 287
-0.0036136196 0.68699998 -0.056613375 1.1884529e-38 317 287
-0.0024090798 0.68699998 -0.056613375 1.2067841e-38 318 287
-0.0012045399 0.68699998 -0.056613375 1.2067841e-38 319 287
0 0.68699998 -0.056613375 1.2067122e-38 320 287
0.0012062934 0.68800002 -0.056695789 1.2067122e-38 321 287
0.0024125867 0.68800002 -0.056695789 1.1884529e-38 322 287
0.0036188802 0.68800002 -0.056695789 1.1884529e-38 323 287
0.0048391996 0.69 -0.0568606 1.1699783e-38 324 287
0.0060489997 0.69 -0.0568606 1.1607587e-38 325 287
0.0072587994 0.69 -0.0568606 1.1790546e-38 326 287
0.008480873 0.69099998 -0.056942999 1.1606515e-38 327 287
0.0096924258 0.69099998 -0.056942999 1.1515038e-38 328 287
0.01090398 0.69099998 -0.056942999 1.1515038e-38 329 287
0.012150601 0.69300002 -0.057107817 1.142284e-38 330 287
0.013384946 0.69400001 -0.057190225 1.1238809e-38 331 287
0.01460176 0.69400001 -0.057190225 1.1237728e-38 332 287
0.015818574 0.69400001 -0.057190225 1.1237728e-38 333 287
0.017035386 0.69400001 -0.057190225 1.1054063e-38 334 287
0.018304799 0.69599998 -0.057355035 1.0961867e-38 335 287
0.019469013 0.69400001 -0.057190225 1.0318313e-38 336 287
0.020685827 0.69400001 -0.057190225 1.0502704e-38 337 287
-0.0367148 0.69800001 -0.058743682 1.3087421e-38 290 288
-0.035389278 0.69599998 -0.058575355 1.290339e-38 291 288
-0.034168959 0.69599998 -0.058575355 1.2811542e-38 292 288
-0.032948639 0.69599998 -0.058575355 1.2719347e-38 293 288
-0.031728316 0.69599998 -0.058575355 1.2900844e-38 294 288
-0.030507999 0.69599998 -0.058575355 1.2808648e-38 295 288
-0.029287677 0.69599998 -0.058575355 1.2532415e-38 296 288
-0.027986705 0.69400001 -0.058407038 1.2348023e-38 297 288
-0.026769891 0.69400001 -0.058407038 1.2530267e-38 298 288
-0.02551626 0.69300002 -0.058322877 1.2530267e-38 299 288
-0.024301201 0.69300002 -0.058322877 1.2530267e-38 300 288
-0.023019511 0.69099998 -0.058154557 1.2530267e-38 301 288
-0.021807959 0.69099998 -0.058154557 1.2438068e-38 302 288
-0.020596405 0.69099998 -0.058154557 1.2345872e-38 303 288
-0.019356798 0.69 -0.058070395 1.2345152e-38 304 288
-0.018146999 0.69 -0.058070395 1.2345152e-38 305 288
-0.0169372 0.69 -0.058070395 1.2436622e-38 306 288
-0.015727401 0.69 -0.058070395 1.2436622e-38 307 288
-0.014517599 0.69 -0.058070395 1.225331e-38 308 288
-0.0133078 0.69 -0.058070395 1.225331e-38 309 288
-0.012062933 0.68800002 -0.057902083 1.2160755e-38 310 288
-0.010856641 0.68800002 -0.057902083 1.2160755e-38 311 288
-0.0096783992 0.69 -0.058070395 1.2160755e-38 312 288
-0.0084686 0.69 -0.058070395 1.206856e-38 313 288
-0.0072377604 0.68800002 -0.057902083 1.2068563e-38 314 288
-0.0060314666 0.68800002 -0.057902083 1.2068563e-38 315 288
-0.0048251734 0.68800002 -0.057902083 1.2068207e-38 316 288
-0.0036188802 0.68800002 -0.057902083 1.1884175e-38 317 288
-0.0024125867 0.68800002 -0.057902083 1.1884531e-38 318 288
-0.0012062934 0.68800002 -0.057902083 1.169978e-38 319 288
0 0.68800002 -0.057902083 1.1883448e-38 320 288
0.0012097999 0.69 -0.058070395 1.1883448e-38 321 288
0.0024195998 0.69 -0.058070395 1.1883451e-38 322 288
0.0036293997 0.69 -0.058070395 1.1790897e-38 323 288
0.0048391996 0.69 -0.058070395 1.1790181e-38 324 288
0.0060489997 0.69 -0.058070395 1.1697985e-38 325 288
0.0072587994 0.69 -0.058070395 1.1605433e-38 326 288
0.008480873 0.69099998 -0.058154557 1.1605433e-38 327 288
0.0096924258 0.69099998 -0.058154557 1.1422121e-38 328 288
0.01090398 0.69099998 -0.058154557 1.1422121e-38 329 288
0.012168133 0.69400001 -0.058407038 1.1513238e-38 330 288
0.013384946 0.69400001 -0.058407038 1.1513238e-38 331 288
0.01460176 0.69400001 -0.058407038 1.1145527e-38 332 288
0.0181733 0.69099998 -0.058154557 1.0317567e-38 335 288
0.019384852 0.69099998 -0.058154557 9.2130413e-39 336 288
-0.035440128 0.69700003 -0.05988159 1.281156e-38 291 289
-0.034168959 0.69599998 -0.059795678 1.2903385e-38 292 289
-0.032948639 0.69599998 -0.059795678 1.2903385e-38 293 289
-0.031728316 0.69599998 -0.059795678 1.2902645e-38 294 289
-0.030507999 0.69599998 -0.059795678 1.2717895e-38 295 289
-0.02932976 0.69700003 -0.05988159 1.2901197e-38 296 289
-0.028107686 0.69700003 -0.05988159 1.2532415e-38 297 289
-0.026847038 0.69599998 -0.059795678 1.2623178e-38 298 289
-0.025553079 0.69400001 -0.059623852 1.2530983e-38 299 289
-0.024336265 0.69400001 -0.059623852 1.2346954e-38 300 289
-0.02308614 0.69300002 -0.05953794 1.2254759e-38 301 289
-0.021871079 0.69300002 -0.05953794 1.2162204e-38 302 289
-0.020596405 0.69099998 -0.059366114 1.2070007e-38 303 289
-0.019384852 0.69099998 -0.059366114 1.2069644e-38 304 289
-0.0181733 0.69099998 -0.059366114 1.197709e-38 305 289
-0.0169372 0.69 -0.059280202 1.2160761e-38 306 289
-0.015727401 0.69 -0.059280202 1.2160761e-38 307 289
-0.014517599 0.69 -0.059280202 1.2160758e-38 308 289
-0.0133078 0.69 -0.059280202 1.2068563e-38 309 289
-0.012062933 0.68800002 -0.059108373 1.188525e-38 310 289
-0.010856641 0.68800002 -0.059108373 1.188525e-38 311 289
-0.0096783992 0.69 -0.059280202 1.1884531e-38 312 289
-0.0084686 0.69 -0.059280202 1.1884531e-38 313 289
-0.0072587994 0.69 -0.059280202 1.1884531e-38 314 289
-0.0060489997 0.69 -0.059280202 1.1884531e-38 315 289
-0.0048391996 0.69 -0.059280202 1.179198e-38 316 289
-0.0036293997 0.69 -0.059280202 1.1699783e-38 317 289
-0.0024195998 0.69 -0.059280202 1.1699783e-38 318 289
-0.0012115532 0.69099998 -0.059366114 1.1607587e-38 319 289
0 0.69099998 -0.059366114 1.1606865e-38 320 289
0.0012115532 0.69099998 -0.059366114 1.1606865e-38 321 289
0.0024231065 0.69099998 -0.059366114 1.1606512e-38 322 289
0.0036346598 0.69099998 -0.059366114 1.1514317e-38 323 289
0.00486024 0.69300002 -0.05953794 1.1422124e-38 324 289
0.0060753003 0.69300002 -0.05953794 1.1422124e-38 325 289
0.0074797203 0.71100003 -0.061084379 1.1422121e-38 326 289
0.0087263398 0.71100003 -0.061084379 1.1422121e-38 327 289
0.010001013 0.713 -0.061256204 1.1238806e-38 328 289
0.011251139 0.713 -0.061256204 1.114661e-38 329 289
0.012518799 0.71399999 -0.061342116 1.1239162e-38 330 289
0.01377068 0.71399999 -0.061342116 1.1146966e-38 331 289
0.01506464 0.71600002 -0.061513945 1.1054411e-38 332 289
0.0181733 0.69099998 -0.059366114 8.8449623e-39 335 289
-0.026924185 0.69800001 -0.061191335 1.2440941e-38 298 290
-0.025700359 0.69800001 -0.061191335 1.2348386e-38 299 290
-0.024476532 0.69800001 -0.061191335 1.2531339e-38 300 290
-0.023652466 0.70999998 -0.062243331 1.2346949e-38 301 290
-0.022407599 0.70999998 -0.062243331 1.2162557e-38 302 290
-0.020656019 0.69300002 -0.060752999 1.207036e-38 303 290
-0.01944096 0.69300002 -0.060752999 1.2252954e-38 304 290
-0.018225901 0.69300002 -0.060752999 1.2160758e-38 305 290
-0.016961746 0.69099998 -0.060577665 1.206856e-38 306 290
-0.015750192 0.69099998 -0.060577665 1.206856e-38 307 290
-0.014538639 0.69099998 -0.060577665 1.206856e-38 308 290
-0.0133078 0.69 -0.060489997 1.1884529e-38 309 290
-0.012062933 0.68800002 -0.060314666 1.17005e-38 310 290
-0.010856641 0.68800002 -0.060314666 1.17005e-38 311 290
-0.0096783992 0.69 -0.060489997 1.1699783e-38 312 290
-0.0084686 0.69 -0.060489997 1.1699783e-38 313 290
