# .PCD v.7 - Point Cloud Data file format
FIELDS x y z rgb imX imY
SIZE 4 4 4 4 4 4
TYPE F F F F F F
COUNT 1 1 1 1 1 1
WIDTH 826
HEIGHT 1
VIEWPOINT 0 0 0 1 0 0 0
POINTS 826
DATA ascii
0.00354524 0.67400002 -0 1.2352049e-38 323 240
0.0047269869 0.67400002 -0 1.2259498e-38 324 240
0.0059174998 0.67500001 -0 1.2259498e-38 325 240
0.0071115191 0.676 -0 1.2258779e-38 326 240
0.0082967728 0.676 -0 1.2258779e-38 327 240
0.0094820261 0.676 -0 1.2167655e-38 328 240
0.010698839 0.67799997 -0 1.2167655e-38 329 240
0.011887599 0.67799997 -0 1.2259132e-38 330 240
0.013076359 0.67799997 -0 1.2259132e-38 331 240
0.01428616 0.67900002 -0 1.2166936e-38 332 240
0.015476674 0.67900002 -0 1.2259132e-38 333 240
0.016667187 0.67900002 -0 1.2166934e-38 334 240
0.017936599 0.68199998 -0 1.2259129e-38 335 240
0.019160427 0.68300003 -0 1.2350246e-38 336 240
0.020387759 0.68400002 -0 1.2350246e-38 337 240
0.021681719 0.68699998 -0 1.2350246e-38 338 240
0.022919573 0.68800002 -0 1.2074018e-38 339 240
0.024195999 0.69 -0 1.2440995e-38 340 240
0.025405798 0.69 -0 1.2256964e-38 341 240
0.02673132 0.69300002 -0 1.2165132e-38 342 240
0.027946379 0.69300002 -0 1.2165132e-38 343 240
-0.053771228 0.69700003 -0.0012220733 1.4197771e-38 276 241
-0.052473757 0.69599998 -0.0012203199 1.3737152e-38 277 241
-0.051106159 0.69400001 -0.0012168133 1.3460562e-38 278 241
-0.049889345 0.69400001 -0.0012168133 1.3091779e-38 279 241
-0.048602402 0.69300002 -0.00121506 1.2724076e-38 280 241
-0.047250576 0.69099998 -0.0012115532 1.2724076e-38 281 241
-0.045972396 0.69 -0.0012097999 1.2447856e-38 282 241
-0.0447626 0.69 -0.0012097999 1.2447856e-38 283 241
-0.043363437 0.68699998 -0.0012045399 1.2447856e-38 284 241
-0.041974798 0.68400002 -0.00119928 1.2447856e-38 285 241
-0.040715907 0.68300003 -0.0011975267 1.2447856e-38 286 241
-0.039518382 0.68300003 -0.0011975267 1.2447856e-38 287 241
-0.038264744 0.68199998 -0.0011957732 1.2447856e-38 288 241
-0.036960267 0.68000001 -0.0011922666 1.2447856e-38 289 241
-0.035767999 0.68000001 -0.0011922666 1.2538974e-38 290 241
-0.034524884 0.67900002 -0.0011905134 1.2538974e-38 291 241
-0.033285279 0.67799997 -0.0011887599 1.2631171e-38 292 241
-0.032001842 0.676 -0.0011852533 1.2631171e-38 293 241
-0.030816587 0.676 -0.0011852533 1.2447856e-38 294 241
-0.0295875 0.67500001 -0.0011834999 1.2447856e-38 295 241
-0.028404001 0.67500001 -0.0011834999 1.2631527e-38 296 241
-0.027180174 0.67400002 -0.0011817467 1.2538971e-38 297 241
-0.025998428 0.67400002 -0.0011817467 1.2447856e-38 298 241
-0.024816679 0.67400002 -0.0011817467 1.2355659e-38 299 241
-0.023564799 0.67199999 -0.0011782399 1.2538974e-38 300 241
-0.022386558 0.67199999 -0.0011782399 1.2446779e-38 301 241
-0.021208318 0.67199999 -0.0011782399 1.2446779e-38 302 241
-0.020030079 0.67199999 -0.0011782399 1.2446779e-38 303 241
-0.018851839 0.67199999 -0.0011782399 1.2446776e-38 304 241
-0.017673599 0.67199999 -0.0011782399 1.2446776e-38 305 241
-0.01649536 0.67199999 -0.0011782399 1.2538608e-38 306 241
-0.01531712 0.67199999 -0.0011782399 1.2538608e-38 307 241
-0.01413888 0.67199999 -0.0011782399 1.2538608e-38 308 241
-0.012960639 0.67199999 -0.0011782399 1.2538608e-38 309 241
-0.011782399 0.67199999 -0.0011782399 1.2262742e-38 310 241
-0.010604159 0.67199999 -0.0011782399 1.2262742e-38 311 241
-0.0094118929 0.671 -0.0011764866 1.2445694e-38 312 241
-0.0082354061 0.671 -0.0011764866 1.2445694e-38 313 241
-0.0070694401 0.67199999 -0.0011782399 1.2445691e-38 314 241
-0.0058911997 0.67199999 -0.0011782399 1.2445691e-38 315 241
-0.0047129598 0.67199999 -0.0011782399 1.2629359e-38 316 241
-0.00353472 0.67199999 -0.0011782399 1.2536805e-38 317 241
-0.0023564799 0.67199999 -0.0011782399 1.2353849e-38 318 241
-0.0011782399 0.67199999 -0.0011782399 1.2353849e-38 319 241
0 0.67199999 -0.0011782399 1.2444961e-38 320 241
0.0011817467 0.67400002 -0.0011817467 1.2352765e-38 321 241
0.0023634934 0.67400002 -0.0011817467 1.2352768e-38 322 241
0.0035505001 0.67500001 -0.0011834999 1.2168378e-38 323 241
0.0047339997 0.67500001 -0.0011834999 1.2259495e-38 324 241
0.0059174998 0.67500001 -0.0011834999 1.2259495e-38 325 241
0.0071115191 0.676 -0.0011852533 1.2258776e-38 326 241
0.0082967728 0.676 -0.0011852533 1.2258776e-38 327 241
0.0095100794 0.67799997 -0.0011887599 1.2258776e-38 328 241
0.010698839 0.67799997 -0.0011887599 1.2258776e-38 329 241
0.011887599 0.67799997 -0.0011887599 1.2167655e-38 330 241
0.013095647 0.67900002 -0.0011905134 1.2075101e-38 331 241
0.01428616 0.67900002 -0.0011905134 1.2166934e-38 332 241
0.015476674 0.67900002 -0.0011905134 1.2166934e-38 333 241
0.016691733 0.68000001 -0.0011922666 1.2442797e-38 334 241
0.017936599 0.68199998 -0.0011957732 1.2442797e-38 335 241
0.019160427 0.68300003 -0.0011975267 1.2350246e-38 336 241
0.020447372 0.68599999 -0.0012027866 1.2350246e-38 337 241
0.021681719 0.68699998 -0.0012045399 1.2258053e-38 338 241
0.022919573 0.68800002 -0.0012062934 1.2258053e-38 339 241
0.024195999 0.69 -0.0012097999 1.2256608e-38 340 241
0.025442619 0.69099998 -0.0012115532 1.2256608e-38 341 241
0.02673132 0.69300002 -0.00121506 1.2165488e-38 342 241
0.027986705 0.69400001 -0.0012168133 1.2165488e-38 343 241
-0.053771228 0.69700003 -0.0024441467 1.3830066e-38 276 242
-0.052473757 0.69599998 -0.0024406398 1.3553481e-38 277 242
-0.051106159 0.69400001 -0.0024336267 1.3459839e-38 278 242
-0.049889345 0.69400001 -0.0024336267 1.3275448e-38 279 242
-0.048602402 0.69300002 -0.00243012 1.2999581e-38 280 242
-0.047250576 0.69099998 -0.0024231065 1.2999581e-38 281 242
-0.046039023 0.69099998 -0.0024231065 1.2631524e-38 282 242
-0.0447626 0.69 -0.0024195998 1.2631524e-38 283 242
-0.043363437 0.68699998 -0.0024090798 1.2447856e-38 284 242
-0.041974798 0.68400002 -0.0023985601 1.2447856e-38 285 242
-0.040775519 0.68400002 -0.0023985601 1.2447856e-38 286 242
-0.039518382 0.68300003 -0.0023950534 1.2447856e-38 287 242
-0.038264744 0.68199998 -0.0023915465 1.2447856e-38 288 242
-0.037068974 0.68199998 -0.0023915465 1.2447856e-38 289 242
-0.035767999 0.68000001 -0.0023845332 1.2631527e-38 290 242
-0.034524884 0.67900002 -0.0023810267 1.2631527e-38 291 242
-0.033285279 0.67799997 -0.0023775198 1.2447856e-38 292 242
-0.03209652 0.67799997 -0.0023775198 1.2447856e-38 293 242
-0.030816587 0.676 -0.0023705065 1.2631527e-38 294 242
-0.029631332 0.676 -0.0023705065 1.2631527e-38 295 242
-0.028404001 0.67500001 -0.0023669999 1.2448212e-38 296 242
-0.027220501 0.67500001 -0.0023669999 1.2448212e-38 297 242
-0.025998428 0.67400002 -0.0023634934 1.2631527e-38 298 242
-0.024816679 0.67400002 -0.0023634934 1.2538971e-38 299 242
-0.023634933 0.67400002 -0.0023634934 1.2630807e-38 300 242
-0.022453187 0.67400002 -0.0023634934 1.2538253e-38 301 242
-0.021271439 0.67400002 -0.0023634934 1.2538253e-38 302 242
-0.020089693 0.67400002 -0.0023634934 1.2630807e-38 303 242
-0.018907947 0.67400002 -0.0023634934 1.2446776e-38 304 242
-0.017673599 0.67199999 -0.0023564799 1.2262745e-38 305 242
-0.01649536 0.67199999 -0.0023564799 1.2446776e-38 306 242
-0.01531712 0.67199999 -0.0023564799 1.2262745e-38 307 242
-0.01413888 0.67199999 -0.0023564799 1.2446776e-38 308 242
-0.012960639 0.67199999 -0.0023564799 1.2446776e-38 309 242
-0.011782399 0.67199999 -0.0023564799 1.2538608e-38 310 242
-0.010604159 0.67199999 -0.0023564799 1.2446413e-38 311 242
-0.0094259195 0.67199999 -0.0023564799 1.244641e-38 312 242
-0.00824768 0.67199999 -0.0023564799 1.2354214e-38 313 242
-0.0070694401 0.67199999 -0.0023564799 1.2536808e-38 314 242
-0.0058911997 0.67199999 -0.0023564799 1.2629003e-38 315 242
-0.0047129598 0.67199999 -0.0023564799 1.2536805e-38 316 242
-0.00353472 0.67199999 -0.0023564799 1.2536805e-38 317 242
-0.0023564799 0.67199999 -0.0023564799 1.2444965e-38 318 242
-0.0011817467 0.67400002 -0.0023634934 1.2444965e-38 319 242
0 0.67400002 -0.0023634934 1.2536438e-38 320 242
0.0011834999 0.67500001 -0.0023669999 1.2444242e-38 321 242
0.0023669999 0.67500001 -0.0023669999 1.2352047e-38 322 242
0.0035505001 0.67500001 -0.0023669999 1.2352047e-38 323 242
0.0047339997 0.67500001 -0.0023669999 1.2259851e-38 324 242
0.0059262668 0.676 -0.0023705065 1.2259851e-38 325 242
0.0071115191 0.676 -0.0023705065 1.2351328e-38 326 242
0.0083213197 0.67799997 -0.0023775198 1.2259132e-38 327 242
0.0095100794 0.67799997 -0.0023775198 1.2259132e-38 328 242
0.010698839 0.67799997 -0.0023775198 1.2259132e-38 329 242
0.011905133 0.67900002 -0.0023810267 1.2259132e-38 330 242
0.013095647 0.67900002 -0.0023810267 1.2166936e-38 331 242
0.01428616 0.67900002 -0.0023810267 1.2166936e-38 332 242
0.015499466 0.68000001 -0.0023845332 1.2259132e-38 333 242
0.016740825 0.68199998 -0.0023915465 1.2166934e-38 334 242
0.017962901 0.68300003 -0.0023950534 1.2166934e-38 335 242
0.019160427 0.68300003 -0.0023950534 1.2166934e-38 336 242
0.020447372 0.68599999 -0.0024055731 1.2166934e-38 337 242
0.021681719 0.68699998 -0.0024090798 1.2258046e-38 338 242
0.022986198 0.69 -0.0024195998 1.2074015e-38 339 242
0.024231065 0.69099998 -0.0024231065 1.2165488e-38 340 242
0.02551626 0.69300002 -0.00243012 1.2073292e-38 341 242
0.026769891 0.69400001 -0.0024336267 1.2073289e-38 342 242
0.028067358 0.69599998 -0.0024406398 1.2073289e-38 343 242
-0.054079808 0.70099998 -0.0036872597 1.3922259e-38 276 243
-0.052473757 0.69599998 -0.0036609597 1.3737868e-38 277 243
-0.051106159 0.69400001 -0.0036504399 1.3552032e-38 278 243
-0.049889345 0.69400001 -0.0036504399 1.336764e-38 279 243
-0.048602402 0.69300002 -0.0036451798 1.3091777e-38 280 243
-0.047387339 0.69300002 -0.0036451798 1.2999581e-38 281 243
-0.046039023 0.69099998 -0.0036346598 1.2907032e-38 282 243
-0.0447626 0.69 -0.0036293997 1.2907032e-38 283 243
-0.043363437 0.68699998 -0.0036136196 1.2447859e-38 284 243
-0.042158898 0.68699998 -0.0036136196 1.2447859e-38 285 243
-0.040775519 0.68400002 -0.00359784 1.2447859e-38 286 243
-0.03957624 0.68400002 -0.00359784 1.2447859e-38 287 243
-0.038320854 0.68300003 -0.0035925799 1.2447856e-38 288 243
-0.037068974 0.68199998 -0.00358732 1.2447856e-38 289 243
-0.035873197 0.68199998 -0.00358732 1.2631527e-38 290 243
-0.034575731 0.68000001 -0.0035767998 1.2723723e-38 291 243
-0.033334374 0.67900002 -0.0035715401 1.2723723e-38 292 243
-0.03209652 0.67799997 -0.0035662798 1.2631527e-38 293 243
-0.030907756 0.67799997 -0.0035662798 1.2631527e-38 294 243
-0.029631332 0.676 -0.0035557596 1.2631527e-38 295 243
-0.028404001 0.67500001 -0.0035505001 1.2448212e-38 296 243
-0.027220501 0.67500001 -0.0035505001 1.2448212e-38 297 243
-0.026037 0.67500001 -0.0035505001 1.2631527e-38 298 243
-0.0248535 0.67500001 -0.0035505001 1.2631527e-38 299 243
-0.023669999 0.67500001 -0.0035505001 1.2630807e-38 300 243
-0.022453187 0.67400002 -0.00354524 1.2630807e-38 301 243
-0.021271439 0.67400002 -0.00354524 1.2630807e-38 302 243
-0.020119499 0.67500001 -0.0035505001 1.2538253e-38 303 243
-0.018935999 0.67500001 -0.0035505001 1.2447132e-38 304 243
-0.0177262 0.67400002 -0.00354524 1.2447132e-38 305 243
-0.016544454 0.67400002 -0.00354524 1.2538608e-38 306 243
-0.015362706 0.67400002 -0.00354524 1.2538608e-38 307 243
-0.01418096 0.67400002 -0.00354524 1.2538608e-38 308 243
-0.012999214 0.67400002 -0.00354524 1.2538608e-38 309 243
-0.011782399 0.67199999 -0.00353472 1.2629725e-38 310 243
-0.010604159 0.67199999 -0.00353472 1.2629725e-38 311 243
-0.0094259195 0.67199999 -0.00353472 1.2445694e-38 312 243
-0.00824768 0.67199999 -0.00353472 1.2445694e-38 313 243
-0.0070694401 0.67199999 -0.00353472 1.2629003e-38 314 243
-0.0058911997 0.67199999 -0.00353472 1.2629003e-38 315 243
-0.0047129598 0.67199999 -0.00353472 1.2629359e-38 316 243
-0.00354524 0.67400002 -0.00354524 1.2536805e-38 317 243
-0.0023634934 0.67400002 -0.00354524 1.262864e-38 318 243
-0.0011817467 0.67400002 -0.00354524 1.2536086e-38 319 243
0 0.67500001 -0.0035505001 1.2536438e-38 320 243
0.0011834999 0.67500001 -0.0035505001 1.2536438e-38 321 243
0.0023669999 0.67500001 -0.0035505001 1.262791e-38 322 243
0.0035557596 0.676 -0.0035557596 1.262791e-38 323 243
0.0047410131 0.676 -0.0035557596 1.2535359e-38 324 243
0.0059262668 0.676 -0.0035557596 1.2351328e-38 325 243
0.0071115191 0.676 -0.0035557596 1.2351328e-38 326 243
0.0083213197 0.67799997 -0.0035662798 1.2351328e-38 327 243
0.0095100794 0.67799997 -0.0035662798 1.2351325e-38 328 243
0.010714619 0.67900002 -0.0035715401 1.2351325e-38 329 243
0.011905133 0.67900002 -0.0035715401 1.2166936e-38 330 243
0.013095647 0.67900002 -0.0035715401 1.2166936e-38 331 243
0.014307199 0.68000001 -0.0035767998 1.2166936e-38 332 243
0.015545053 0.68199998 -0.00358732 1.2166936e-38 333 243
0.016740825 0.68199998 -0.00358732 1.2074737e-38 334 243
0.017962901 0.68300003 -0.0035925799 1.2166934e-38 335 243
0.01918848 0.68400002 -0.00359784 1.2166934e-38 336 243
0.020477179 0.68699998 -0.0036136196 1.2074737e-38 337 243
0.021681719 0.68699998 -0.0036136196 1.1982541e-38 338 243
0.022986198 0.69 -0.0036293997 1.1982541e-38 339 243
0.024195999 0.69 -0.0036293997 1.2165488e-38 340 243
0.02551626 0.69300002 -0.0036451798 1.2165488e-38 341 243
0.026769891 0.69400001 -0.0036504399 1.207257e-38 342 243
0.028107686 0.69700003 -0.00366622 1.1980375e-38 343 243
0.029455997 0.69999999 -0.0036819996 1.2903415e-38 344 243
-0.054079808 0.70099998 -0.0049163462 1.438324e-38 276 244
-0.052624546 0.69800001 -0.0048953067 1.3922263e-38 277 244
-0.051327083 0.69700003 -0.0048882933 1.3459123e-38 278 244
-0.050105009 0.69700003 -0.0048882933 1.3459123e-38 279 244
-0.048672531 0.69400001 -0.0048672534 1.3091779e-38 280 244
-0.047387339 0.69300002 -0.00486024 1.3091779e-38 281 244
-0.046039023 0.69099998 -0.0048462129 1.2815916e-38 282 244
-0.0447626 0.69 -0.0048391996 1.272372e-38 283 244
-0.043426562 0.68800002 -0.0048251734 1.2631171e-38 284 244
-0.042158898 0.68699998 -0.0048181596 1.2631171e-38 285 244
-0.040894743 0.68599999 -0.0048111463 1.2631171e-38 286 244
-0.03957624 0.68400002 -0.0047971201 1.2631171e-38 287 244
-0.038320854 0.68300003 -0.0047901068 1.2447859e-38 288 244
-0.037123326 0.68300003 -0.0047901068 1.2447859e-38 289 244
-0.035873197 0.68199998 -0.004783093 1.2447856e-38 290 244
-0.034575731 0.68000001 -0.0047690663 1.2540411e-38 291 244
-0.033383466 0.68000001 -0.0047690663 1.2723723e-38 292 244
-0.032143861 0.67900002 -0.0047620535 1.2631527e-38 293 244
-0.030907756 0.67799997 -0.0047550397 1.2447856e-38 294 244
-0.029718997 0.67799997 -0.0047550397 1.2540411e-38 295 244
-0.028446076 0.676 -0.0047410131 1.2448212e-38 296 244
-0.027220501 0.67500001 -0.0047339997 1.2448212e-38 297 244
-0.026037 0.67500001 -0.0047339997 1.2447856e-38 298 244
-0.0248535 0.67500001 -0.0047339997 1.2447856e-38 299 244
-0.023669999 0.67500001 -0.0047339997 1.2355659e-38 300 244
-0.022486499 0.67500001 -0.0047339997 1.2355659e-38 301 244
-0.021303 0.67500001 -0.0047339997 1.2538971e-38 302 244
-0.020119499 0.67500001 -0.0047339997 1.2538971e-38 303 244
-0.018935999 0.67500001 -0.0047339997 1.2446776e-38 304 244
-0.0177525 0.67500001 -0.0047339997 1.2446776e-38 305 244
-0.016544454 0.67400002 -0.0047269869 1.2538253e-38 306 244
-0.015362706 0.67400002 -0.0047269869 1.2538253e-38 307 244
-0.01418096 0.67400002 -0.0047269869 1.2538608e-38 308 244
-0.012999214 0.67400002 -0.0047269869 1.2538608e-38 309 244
-0.011817466 0.67400002 -0.0047269869 1.2538608e-38 310 244
-0.01063572 0.67400002 -0.0047269869 1.2446413e-38 311 244
-0.0094539737 0.67400002 -0.0047269869 1.2445691e-38 312 244
-0.0082722269 0.67400002 -0.0047269869 1.2445691e-38 313 244
-0.0070904801 0.67400002 -0.0047269869 1.2629003e-38 314 244
-0.0059087332 0.67400002 -0.0047269869 1.2629003e-38 315 244
-0.0047269869 0.67400002 -0.0047269869 1.2536805e-38 316 244
-0.00354524 0.67400002 -0.0047269869 1.2536805e-38 317 244
-0.0023669999 0.67500001 -0.0047339997 1.262864e-38 318 244
-0.0011834999 0.67500001 -0.0047339997 1.2443889e-38 319 244
0 0.67500001 -0.0047339997 1.2627557e-38 320 244
0.0011834999 0.67500001 -0.0047339997 1.2627557e-38 321 244
0.0023705065 0.676 -0.0047410131 1.2535359e-38 322 244
0.0035557596 0.676 -0.0047410131 1.2535359e-38 323 244
0.0047410131 0.676 -0.0047410131 1.2351328e-38 324 244
0.0059262668 0.676 -0.0047410131 1.2351328e-38 325 244
0.0071325595 0.67799997 -0.0047550397 1.2351328e-38 326 244
0.0083213197 0.67799997 -0.0047550397 1.2351328e-38 327 244
0.009524107 0.67900002 -0.0047620535 1.2351328e-38 328 244
0.010714619 0.67900002 -0.0047620535 1.2351328e-38 329 244
0.011922667 0.68000001 -0.0047690663 1.2259132e-38 330 244
0.013114933 0.68000001 -0.0047690663 1.2166936e-38 331 244
0.01434928 0.68199998 -0.004783093 1.2166936e-38 332 244
0.015545053 0.68199998 -0.004783093 1.2074382e-38 333 244
0.016765373 0.68300003 -0.0047901068 1.2074382e-38 334 244
0.0179892 0.68400002 -0.0047971201 1.2074382e-38 335 244
0.01918848 0.68400002 -0.0047971201 1.2074382e-38 336 244
0.020477179 0.68699998 -0.0048181596 1.2074382e-38 337 244
0.021681719 0.68699998 -0.0048181596 1.1982185e-38 338 244
0.022986198 0.69 -0.0048391996 1.1982185e-38 339 244
0.024195999 0.69 -0.0048391996 1.2257327e-38 340 244
0.025553079 0.69400001 -0.0048672534 1.2165132e-38 341 244
0.026847038 0.69599998 -0.0048812795 1.207257e-38 342 244
0.028148014 0.69800001 -0.0048953067 1.1980375e-38 343 244
0.029455997 0.69999999 -0.0049093333 1.3179641e-38 344 244
-0.054234106 0.70300001 -0.0061629666 1.5394522e-38 276 245
-0.052624546 0.69800001 -0.006119133 1.4749153e-38 277 245
-0.051327083 0.69700003 -0.0061103669 1.3826831e-38 278 245
-0.050105009 0.69700003 -0.0061103669 1.3734634e-38 279 245
-0.048812799 0.69599998 -0.0061015999 1.3367643e-38 280 245
-0.047455717 0.69400001 -0.0060840664 1.3275448e-38 281 245
-0.04617228 0.69300002 -0.0060753003 1.3091779e-38 282 245
-0.044827472 0.69099998 -0.0060577663 1.2999584e-38 283 245
-0.043426562 0.68800002 -0.0060314666 1.2814839e-38 284 245
-0.042158898 0.68699998 -0.0060226996 1.2814839e-38 285 245
-0.040894743 0.68599999 -0.0060139326 1.2538974e-38 286 245
-0.039691959 0.68599999 -0.0060139326 1.2631171e-38 287 245
-0.038376961 0.68400002 -0.0059964 1.2631527e-38 288 245
-0.037123326 0.68300003 -0.0059876335 1.2631527e-38 289 245
-0.035873197 0.68199998 -0.005978866 1.2723723e-38 290 245
-0.034677424 0.68199998 -0.005978866 1.2723723e-38 291 245
-0.033383466 0.68000001 -0.0059613334 1.2907032e-38 292 245
-0.032191198 0.68000001 -0.0059613334 1.2907032e-38 293 245
-0.030953348 0.67900002 -0.0059525664 1.272372e-38 294 245
-0.029718997 0.67799997 -0.0059437994 1.272372e-38 295 245
-0.028530238 0.67799997 -0.0059437994 1.2631527e-38 296 245
-0.027260827 0.676 -0.0059262668 1.2631527e-38 297 245
-0.026075572 0.676 -0.0059262668 1.2447856e-38 298 245
-0.024890319 0.676 -0.0059262668 1.2447856e-38 299 245
-0.023669999 0.67500001 -0.0059174998 1.2631524e-38 300 245
-0.022486499 0.67500001 -0.0059174998 1.2539327e-38 301 245
-0.021303 0.67500001 -0.0059174998 1.2538971e-38 302 245
-0.020149305 0.676 -0.0059262668 1.2446776e-38 303 245
-0.018935999 0.67500001 -0.0059174998 1.2538253e-38 304 245
-0.0177525 0.67500001 -0.0059174998 1.2630807e-38 305 245
-0.016569 0.67500001 -0.0059174998 1.2538608e-38 306 245
-0.0153855 0.67500001 -0.0059174998 1.2538608e-38 307 245
-0.014202001 0.67500001 -0.0059174998 1.2721921e-38 308 245
-0.012999214 0.67400002 -0.0059087332 1.2721921e-38 309 245
-0.011817466 0.67400002 -0.0059087332 1.2629725e-38 310 245
-0.01063572 0.67400002 -0.0059087332 1.2445694e-38 311 245
-0.0094539737 0.67400002 -0.0059087332 1.2629722e-38 312 245
-0.0082722269 0.67400002 -0.0059087332 1.2629722e-38 313 245
-0.0071010003 0.67500001 -0.0059174998 1.2629003e-38 314 245
-0.0059174998 0.67500001 -0.0059174998 1.2629003e-38 315 245
-0.0047339997 0.67500001 -0.0059174998 1.2812316e-38 316 245
-0.0035505001 0.67500001 -0.0059174998 1.2628285e-38 317 245
-0.0023669999 0.67500001 -0.0059174998 1.262864e-38 318 245
-0.0011834999 0.67500001 -0.0059174998 1.2536086e-38 319 245
0 0.676 -0.0059262668 1.2627557e-38 320 245
0.0011852533 0.676 -0.0059262668 1.2627557e-38 321 245
0.0023705065 0.676 -0.0059262668 1.2535362e-38 322 245
0.0035557596 0.676 -0.0059262668 1.2535362e-38 323 245
0.0047550397 0.67799997 -0.0059437994 1.2351328e-38 324 245
0.0059437994 0.67799997 -0.0059437994 1.2351328e-38 325 245
0.0071325595 0.67799997 -0.0059437994 1.2534643e-38 326 245
0.0083213197 0.67799997 -0.0059437994 1.2534643e-38 327 245
0.009524107 0.67900002 -0.0059525664 1.2442444e-38 328 245
0.0107304 0.68000001 -0.0059613334 1.253464e-38 329 245
0.011922667 0.68000001 -0.0059613334 1.2350246e-38 330 245
0.013153506 0.68199998 -0.005978866 1.2442442e-38 331 245
0.014370319 0.68300003 -0.0059876335 1.2166934e-38 332 245
0.015567848 0.68300003 -0.0059876335 1.2166934e-38 333 245
0.016789921 0.68400002 -0.0059964 1.2074737e-38 334 245
0.0179892 0.68400002 -0.0059964 1.2074737e-38 335 245
0.019244585 0.68599999 -0.0060139326 1.2074737e-38 336 245
0.020477179 0.68699998 -0.0060226996 1.2074737e-38 337 245
0.021713281 0.68800002 -0.0060314666 1.1982541e-38 338 245
0.022986198 0.69 -0.0060489997 1.1890345e-38 339 245
0.024301201 0.69300002 -0.0060753003 1.2165132e-38 340 245
0.025626717 0.69599998 -0.0061015999 1.2257327e-38 341 245
0.026885614 0.69700003 -0.0061103669 1.244063e-38 342 245
0.028228667 0.69999999 -0.0061366665 1.2532825e-38 343 245
0.029455997 0.69999999 -0.0061366665 1.4283823e-38 344 245
-0.054234106 0.70300001 -0.0073955595 1.5206162e-38 276 246
-0.053001512 0.70300001 -0.0073955595 1.4745543e-38 277 246
-0.051400717 0.69800001 -0.0073429602 1.4193088e-38 278 246
-0.050176892 0.69800001 -0.0073429602 1.4100892e-38 279 246
-0.048882935 0.69700003 -0.00733244 1.3275092e-38 280 246
-0.047455717 0.69400001 -0.0073008798 1.3275092e-38 281 246
-0.04617228 0.69300002 -0.0072903596 1.2908111e-38 282 246
-0.044827472 0.69099998 -0.0072693196 1.2908111e-38 283 246
-0.043426562 0.68800002 -0.0072377604 1.2540411e-38 284 246
-0.042158898 0.68699998 -0.0072272392 1.2540411e-38 285 246
-0.040954359 0.68699998 -0.0072272392 1.2814483e-38 286 246
-0.039691959 0.68599999 -0.0072167199 1.2814483e-38 287 246
-0.038376961 0.68400002 -0.0071956799 1.2540055e-38 288 246
-0.037123326 0.68300003 -0.0071851597 1.2540055e-38 289 246
-0.035873197 0.68199998 -0.00717464 1.2723367e-38 290 246
-0.034677424 0.68199998 -0.00717464 1.2723367e-38 291 246
-0.033383466 0.68000001 -0.0071535995 1.2907035e-38 292 246
-0.032191198 0.68000001 -0.0071535995 1.2907035e-38 293 246
-0.030998932 0.68000001 -0.0071535995 1.2723723e-38 294 246
-0.029762832 0.67900002 -0.0071430802 1.2631527e-38 295 246
-0.028530238 0.67799997 -0.0071325595 1.2631527e-38 296 246
-0.027260827 0.676 -0.0071115191 1.2631527e-38 297 246
-0.026075572 0.676 -0.0071115191 1.2538974e-38 298 246
-0.024890319 0.676 -0.0071115191 1.2538974e-38 299 246
-0.023705067 0.676 -0.0071115191 1.2355662e-38 300 246
-0.022519812 0.676 -0.0071115191 1.2355662e-38 301 246
-0.021334561 0.676 -0.0071115191 1.2538971e-38 302 246
-0.020149305 0.676 -0.0071115191 1.2538971e-38 303 246
-0.018964052 0.676 -0.0071115191 1.2538253e-38 304 246
-0.017778801 0.676 -0.0071115191 1.2630807e-38 305 246
-0.016593546 0.676 -0.0071115191 1.2539327e-38 306 246
-0.0153855 0.67500001 -0.0071010003 1.2539327e-38 307 246
-0.014202001 0.67500001 -0.0071010003 1.2539327e-38 308 246
-0.0130185 0.67500001 -0.0071010003 1.2447132e-38 309 246
-0.011835 0.67500001 -0.0071010003 1.2538608e-38 310 246
-0.0106515 0.67500001 -0.0071010003 1.2446413e-38 311 246
-0.0094679995 0.67500001 -0.0071010003 1.2445691e-38 312 246
-0.0082844999 0.67500001 -0.0071010003 1.2445691e-38 313 246
-0.0071010003 0.67500001 -0.0071010003 1.2629003e-38 314 246
-0.0059174998 0.67500001 -0.0071010003 1.2629003e-38 315 246
-0.0047339997 0.67500001 -0.0071010003 1.2812316e-38 316 246
-0.0035505001 0.67500001 -0.0071010003 1.2628285e-38 317 246
-0.0023705065 0.676 -0.0071115191 1.2536805e-38 318 246
-0.0011852533 0.676 -0.0071115191 1.2444609e-38 319 246
0 0.676 -0.0071115191 1.2536442e-38 320 246
0.0011852533 0.676 -0.0071115191 1.2444245e-38 321 246
0.0023705065 0.676 -0.0071115191 1.2627554e-38 322 246
0.0035662798 0.67799997 -0.0071325595 1.2535359e-38 323 246
0.0047550397 0.67799997 -0.0071325595 1.2351328e-38 324 246
0.0059437994 0.67799997 -0.0071325595 1.2351328e-38 325 246
0.0071325595 0.67799997 -0.0071325595 1.2351328e-38 326 246
0.0083335936 0.67900002 -0.0071430802 1.2259132e-38 327 246
0.0095381327 0.68000001 -0.0071535995 1.2351328e-38 328 246
0.010761959 0.68199998 -0.00717464 1.2259132e-38 329 246
0.011957732 0.68199998 -0.00717464 1.2167655e-38 330 246
0.013172794 0.68300003 -0.0071851597 1.2075101e-38 331 246
0.014370319 0.68300003 -0.0071851597 1.2350249e-38 332 246
0.015567848 0.68300003 -0.0071851597 1.2258053e-38 333 246
0.016789921 0.68400002 -0.0071956799 1.2074382e-38 334 246
0.018041799 0.68599999 -0.0072167199 1.2074382e-38 335 246
0.019272638 0.68699998 -0.0072272392 1.2074737e-38 336 246
0.020506985 0.68800002 -0.0072377604 1.1982541e-38 337 246
0.021713281 0.68800002 -0.0072377604 1.2074018e-38 338 246
0.02308614 0.69300002 -0.0072903596 1.2074018e-38 339 246
0.024336265 0.69400001 -0.0073008798 1.2440998e-38 340 246
0.025626717 0.69599998 -0.0073219193 1.2440998e-38 341 246
0.026924185 0.69800001 -0.0073429602 1.2993448e-38 342 246
0.028228667 0.69999999 -0.0073639993 1.3546621e-38 343 246
0.029455997 0.69999999 -0.0073639993 1.5297252e-38 344 246
-0.051621638 0.70099998 -0.0086036054 1.4742293e-38 278 247
-0.050320663 0.69999999 -0.0085913334 1.4834489e-38 279 247
-0.048953064 0.69800001 -0.0085667865 1.3366924e-38 280 247
-0.047592476 0.69599998 -0.0085422397 1.3366924e-38 281 247
-0.046238903 0.69400001 -0.0085176928 1.3091782e-38 282 247
-0.044957221 0.69300002 -0.0085054198 1.3091782e-38 283 247
-0.043426562 0.68800002 -0.0084440531 1.3090707e-38 284 247
-0.042220265 0.68800002 -0.0084440531 1.2998512e-38 285 247
-0.040954359 0.68699998 -0.0084317802 1.2907038e-38 286 247
-0.039749816 0.68699998 -0.0084317802 1.2907038e-38 287 247
-0.03848917 0.68599999 -0.0084195063 1.2907038e-38 288 247
-0.037177678 0.68400002 -0.0083949603 1.2907038e-38 289 247
-0.035925802 0.68300003 -0.0083826864 1.2723723e-38 290 247
-0.034677424 0.68199998 -0.0083704125 1.2723723e-38 291 247
-0.03348165 0.68199998 -0.0083704125 1.2723723e-38 292 247
-0.032285877 0.68199998 -0.0083704125 1.2723723e-38 293 247
-0.030998932 0.68000001 -0.0083458666 1.2907035e-38 294 247
-0.029806666 0.68000001 -0.0083458666 1.2907035e-38 295 247
-0.028572321 0.67900002 -0.0083335936 1.2631171e-38 296 247
-0.027341479 0.67799997 -0.0083213197 1.2631171e-38 297 247
-0.026075572 0.676 -0.0082967728 1.2447859e-38 298 247
-0.024890319 0.676 -0.0082967728 1.2447859e-38 299 247
-0.023705067 0.676 -0.0082967728 1.2355659e-38 300 247
-0.022519812 0.676 -0.0082967728 1.2355659e-38 301 247
-0.021334561 0.676 -0.0082967728 1.2538971e-38 302 247
-0.020149305 0.676 -0.0082967728 1.2538971e-38 303 247
-0.018964052 0.676 -0.0082967728 1.2538253e-38 304 247
-0.017778801 0.676 -0.0082967728 1.2538253e-38 305 247
-0.016593546 0.676 -0.0082967728 1.2538971e-38 306 247
-0.015408293 0.676 -0.0082967728 1.2446776e-38 307 247
-0.014202001 0.67500001 -0.0082844999 1.2447132e-38 308 247
-0.0130185 0.67500001 -0.0082844999 1.2447132e-38 309 247
-0.011835 0.67500001 -0.0082844999 1.2538606e-38 310 247
-0.0106515 0.67500001 -0.0082844999 1.244641e-38 311 247
-0.0094679995 0.67500001 -0.0082844999 1.2445691e-38 312 247
-0.0082844999 0.67500001 -0.0082844999 1.2445691e-38 313 247
-0.0071115191 0.676 -0.0082967728 1.2536808e-38 314 247
-0.0059174998 0.67500001 -0.0082844999 1.2629003e-38 315 247
-0.0047339997 0.67500001 -0.0082844999 1.2629359e-38 316 247
-0.0035557596 0.676 -0.0082967728 1.2629359e-38 317 247
-0.0023705065 0.676 -0.0082967728 1.2353849e-38 318 247
-0.0011852533 0.676 -0.0082967728 1.2261653e-38 319 247
0 0.676 -0.0082967728 1.2444245e-38 320 247
0.0011852533 0.676 -0.0082967728 1.2444245e-38 321 247
0.0023775198 0.67799997 -0.0083213197 1.2627554e-38 322 247
0.0035662798 0.67799997 -0.0083213197 1.2627554e-38 323 247
0.0047550397 0.67799997 -0.0083213197 1.2351328e-38 324 247
0.0059437994 0.67799997 -0.0083213197 1.2351328e-38 325 247
0.0071430802 0.67900002 -0.0083335936 1.2351328e-38 326 247
0.0083335936 0.67900002 -0.0083335936 1.2259132e-38 327 247
0.0095381327 0.68000001 -0.0083458666 1.2167655e-38 328 247
0.010761959 0.68199998 -0.0083704125 1.2167655e-38 329 247
0.011957732 0.68199998 -0.0083704125 1.2259132e-38 330 247
0.013172794 0.68300003 -0.0083826864 1.2166936e-38 331 247
0.014370319 0.68300003 -0.0083826864 1.2350249e-38 332 247
0.01559064 0.68400002 -0.0083949603 1.2258053e-38 333 247
0.016789921 0.68400002 -0.0083949603 1.2074382e-38 334 247
0.018068098 0.68699998 -0.0084317802 1.2074382e-38 335 247
0.019272638 0.68699998 -0.0084317802 1.2258049e-38 336 247
0.020506985 0.68800002 -0.0084440531 1.2258049e-38 337 247
0.021776399 0.69 -0.0084686 1.2257683e-38 338 247
0.02308614 0.69300002 -0.0085054198 1.2349879e-38 339 247
0.024336265 0.69400001 -0.0085176928 1.2349879e-38 340 247
0.025626717 0.69599998 -0.0085422397 1.2442076e-38 341 247
0.026924185 0.69800001 -0.0085667865 1.3270393e-38 342 247
0.028228667 0.69999999 -0.0085913334 1.3915763e-38 343 247
0.029455997 0.69999999 -0.0085913334 1.5389445e-38 344 247
-0.051621638 0.70099998 -0.0098326923 1.5750684e-38 278 248
-0.050392549 0.70099998 -0.0098326923 1.602763e-38 279 248
-0.048953064 0.69800001 -0.0097906133 1.3459117e-38 280 248
-0.047660861 0.69700003 -0.0097765867 1.3459117e-38 281 248
-0.046372157 0.69599998 -0.0097625591 1.3183978e-38 282 248
-0.044957221 0.69300002 -0.0097204801 1.3091782e-38 283 248
-0.043615919 0.69099998 -0.0096924258 1.2999231e-38 284 248
-0.042342998 0.69 -0.0096783992 1.2907035e-38 285 248
-0.040954359 0.68699998 -0.0096363192 1.2907035e-38 286 248
-0.039749816 0.68699998 -0.0096363192 1.2907035e-38 287 248
-0.03848917 0.68599999 -0.0096222926 1.2723723e-38 288 248
-0.037177678 0.68400002 -0.0095942402 1.2723723e-38 289 248
-0.035978399 0.68400002 -0.0095942402 1.2540411e-38 290 248
-0.034728274 0.68300003 -0.0095802136 1.2540411e-38 291 248
-0.03348165 0.68199998 -0.009566186 1.2907038e-38 292 248
-0.032285877 0.68199998 -0.009566186 1.2907038e-38 293 248
-0.030998932 0.68000001 -0.0095381327 1.2907038e-38 294 248
-0.029806666 0.68000001 -0.0095381327 1.2814483e-38 295 248
-0.028614398 0.68000001 -0.0095381327 1.2631171e-38 296 248
-0.027422134 0.68000001 -0.0095381327 1.2631171e-38 297 248
-0.026191294 0.67900002 -0.009524107 1.2447859e-38 298 248
-0.024963958 0.67799997 -0.0095100794 1.2447859e-38 299 248
-0.023775198 0.67799997 -0.0095100794 1.2447859e-38 300 248
-0.022519812 0.676 -0.0094820261 1.2355662e-38 301 248
-0.021334561 0.676 -0.0094820261 1.2538971e-38 302 248
-0.020208918 0.67799997 -0.0095100794 1.2446776e-38 303 248
-0.018964052 0.676 -0.0094820261 1.2538253e-38 304 248
-0.017778801 0.676 -0.0094820261 1.2538253e-38 305 248
-0.016593546 0.676 -0.0094820261 1.2538253e-38 306 248
-0.015408293 0.676 -0.0094820261 1.2538253e-38 307 248
-0.014223038 0.676 -0.0094820261 1.2447132e-38 308 248
-0.0130185 0.67500001 -0.0094679995 1.2447132e-38 309 248
-0.011835 0.67500001 -0.0094679995 1.2538606e-38 310 248
-0.01066728 0.676 -0.0094820261 1.244641e-38 311 248
-0.0094820261 0.676 -0.0094820261 1.2445688e-38 312 248
-0.0082967728 0.676 -0.0094820261 1.2445688e-38 313 248
-0.0071115191 0.676 -0.0094820261 1.2629357e-38 314 248
-0.0059262668 0.676 -0.0094820261 1.2629357e-38 315 248
-0.0047410131 0.676 -0.0094820261 1.2445688e-38 316 248
-0.0035557596 0.676 -0.0094820261 1.2353493e-38 317 248
-0.0023705065 0.676 -0.0094820261 1.2353493e-38 318 248
-0.0011852533 0.676 -0.0094820261 1.2261297e-38 319 248
0 0.67799997 -0.0095100794 1.2444965e-38 320 248
0.0011887599 0.67799997 -0.0095100794 1.2352768e-38 321 248
0.0023775198 0.67799997 -0.0095100794 1.2627557e-38 322 248
0.0035662798 0.67799997 -0.0095100794 1.2535362e-38 323 248
0.0047550397 0.67799997 -0.0095100794 1.2350975e-38 324 248
0.0059525664 0.67900002 -0.009524107 1.2350975e-38 325 248
0.0071430802 0.67900002 -0.009524107 1.2351328e-38 326 248
0.0083458666 0.68000001 -0.0095381327 1.2259132e-38 327 248
0.009566186 0.68199998 -0.009566186 1.2259132e-38 328 248
0.010761959 0.68199998 -0.009566186 1.2259132e-38 329 248
0.011975267 0.68300003 -0.0095802136 1.2350249e-38 330 248
0.013172794 0.68300003 -0.0095802136 1.2258053e-38 331 248
0.01439136 0.68400002 -0.0095942402 1.2350249e-38 332 248
0.01559064 0.68400002 -0.0095942402 1.2258053e-38 333 248
0.016839013 0.68599999 -0.0096222926 1.2166934e-38 334 248
0.018068098 0.68699998 -0.0096363192 1.2166934e-38 335 248
0.019300694 0.68800002 -0.0096503468 1.2074734e-38 336 248
0.020596405 0.69099998 -0.0096924258 1.2166931e-38 337 248
0.021807959 0.69099998 -0.0096924258 1.2166931e-38 338 248
0.02308614 0.69300002 -0.0097204801 1.2166931e-38 339 248
0.024336265 0.69400001 -0.0097345067 1.2625744e-38 340 248
0.025626717 0.69599998 -0.0097625591 1.2625744e-38 341 248
0.026924185 0.69800001 -0.0097906133 1.3086718e-38 342 248
0.028228667 0.69999999 -0.0098186666 1.391648e-38 343 248
0.029455997 0.69999999 -0.0098186666 1.5481641e-38 344 248
-0.051768921 0.70300001 -0.01109334 1.5931832e-38 278 249
-0.050392549 0.70099998 -0.011061779 1.6853789e-38 279 249
-0.049093332 0.69999999 -0.011045999 1.3734984e-38 280 249
-0.047729239 0.69800001 -0.01101444 1.3734984e-38 281 249
-0.046438783 0.69700003 -0.01099866 1.3183975e-38 282 249
-0.045022093 0.69400001 -0.01095132 1.3183975e-38 283 249
-0.043615919 0.69099998 -0.01090398 1.3275095e-38 284 249
-0.042342998 0.69 -0.010888199 1.3091063e-38 285 249
-0.041013971 0.68800002 -0.010856641 1.2999231e-38 286 249
-0.039749816 0.68699998 -0.010840859 1.2999231e-38 287 249
-0.038545277 0.68699998 -0.010840859 1.2907035e-38 288 249
-0.037286382 0.68599999 -0.010825079 1.2907035e-38 289 249
-0.035978399 0.68400002 -0.01079352 1.2540411e-38 290 249
-0.03477912 0.68400002 -0.01079352 1.2540411e-38 291 249
-0.033530746 0.68300003 -0.01077774 1.2907035e-38 292 249
-0.032333218 0.68300003 -0.01077774 1.2907035e-38 293 249
-0.031090107 0.68199998 -0.010761959 1.2907035e-38 294 249
-0.029894331 0.68199998 -0.010761959 1.2814839e-38 295 249
-0.028614398 0.68000001 -0.0107304 1.2814839e-38 296 249
-0.027422134 0.68000001 -0.0107304 1.2814839e-38 297 249
-0.026229866 0.68000001 -0.0107304 1.2538971e-38 298 249
-0.025000781 0.67900002 -0.010714619 1.2631527e-38 299 249
-0.023775198 0.67799997 -0.010698839 1.2447856e-38 300 249
-0.022586439 0.67799997 -0.010698839 1.2355659e-38 301 249
-0.021397678 0.67799997 -0.010698839 1.2631524e-38 302 249
-0.020208918 0.67799997 -0.010698839 1.2539327e-38 303 249
-0.019020159 0.67799997 -0.010698839 1.2630804e-38 304 249
-0.017778801 0.676 -0.01066728 1.2538608e-38 305 249
-0.016593546 0.676 -0.01066728 1.2538608e-38 306 249
-0.015408293 0.676 -0.01066728 1.2538608e-38 307 249
-0.014223038 0.676 -0.01066728 1.2538608e-38 308 249
-0.013037786 0.676 -0.01066728 1.2446413e-38 309 249
-0.011852534 0.676 -0.01066728 1.2538606e-38 310 249
-0.01066728 0.676 -0.01066728 1.244641e-38 311 249
-0.0094820261 0.676 -0.01066728 1.2630075e-38 312 249
-0.0082967728 0.676 -0.01066728 1.2446044e-38 313 249
-0.0071115191 0.676 -0.01066728 1.2445688e-38 314 249
-0.0059262668 0.676 -0.01066728 1.2445688e-38 315 249
-0.0047410131 0.676 -0.01066728 1.2812672e-38 316 249
-0.0035557596 0.676 -0.01066728 1.262864e-38 317 249
-0.0023705065 0.676 -0.01066728 1.2444609e-38 318 249
-0.0011887599 0.67799997 -0.010698839 1.2444609e-38 319 249
0 0.67799997 -0.010698839 1.2443889e-38 320 249
0.0011887599 0.67799997 -0.010698839 1.2443889e-38 321 249
0.0023775198 0.67799997 -0.010698839 1.2535362e-38 322 249
0.0035662798 0.67799997 -0.010698839 1.2535362e-38 323 249
0.0047550397 0.67799997 -0.010698839 1.2351331e-38 324 249
0.0059525664 0.67900002 -0.010714619 1.2351331e-38 325 249
0.0071535995 0.68000001 -0.0107304 1.2351331e-38 326 249
0.0083458666 0.68000001 -0.0107304 1.2258776e-38 327 249
0.009566186 0.68199998 -0.010761959 1.2167655e-38 328 249
0.010761959 0.68199998 -0.010761959 1.2259851e-38 329 249
0.011975267 0.68300003 -0.01077774 1.2350249e-38 330 249
0.01319208 0.68400002 -0.01079352 1.2350249e-38 331 249
0.01439136 0.68400002 -0.01079352 1.2350249e-38 332 249
0.01559064 0.68400002 -0.01079352 1.2350249e-38 333 249
0.01686356 0.68699998 -0.010840859 1.2350246e-38 334 249
0.0180944 0.68800002 -0.010856641 1.2350246e-38 335 249
0.019356798 0.69 -0.010888199 1.2350602e-38 336 249
0.020596405 0.69099998 -0.01090398 1.2442797e-38 337 249
0.021871079 0.69300002 -0.010935539 1.2442795e-38 338 249
0.023119451 0.69400001 -0.01095132 1.2442795e-38 339 249
0.0244064 0.69599998 -0.010982879 1.2901255e-38 340 249
0.025700359 0.69800001 -0.01101444 1.2901255e-38 341 249
0.027001332 0.69999999 -0.011045999 1.2995245e-38 342 249
0.028268991 0.70099998 -0.011061779 1.3825366e-38 343 249
0.029498078 0.70099998 -0.011061779 1.5757153e-38 344 249
-0.051621638 0.70099998 -0.012290866 1.6021491e-38 278 250
-0.050392549 0.70099998 -0.012290866 1.7681012e-38 279 250
-0.049093332 0.69999999 -0.012273333 1.4102689e-38 280 250
-0.047729239 0.69800001 -0.012238266 1.4102689e-38 281 250
-0.046505414 0.69800001 -0.012238266 1.3460206e-38 282 250
-0.045216713 0.69700003 -0.012220734 1.3276174e-38 283 250
-0.043805279 0.69400001 -0.012168133 1.3274739e-38 284 250
-0.042404365 0.69099998 -0.012115533 1.3090707e-38 285 250
-0.041013971 0.68800002 -0.012062933 1.2999231e-38 286 250
-0.039807681 0.68800002 -0.012062933 1.2999231e-38 287 250
-0.038545277 0.68699998 -0.012045399 1.2999231e-38 288 250
-0.037286382 0.68599999 -0.012027865 1.2907035e-38 289 250
-0.036083598 0.68599999 -0.012027865 1.2724442e-38 290 250
-0.03477912 0.68400002 -0.0119928 1.2724442e-38 291 250
-0.033579841 0.68400002 -0.0119928 1.2907035e-38 292 250
-0.032333218 0.68300003 -0.011975267 1.2907035e-38 293 250
-0.031135695 0.68300003 -0.011975267 1.2907035e-38 294 250
-0.029894331 0.68199998 -0.011957732 1.2907035e-38 295 250
-0.02869856 0.68199998 -0.011957732 1.2723723e-38 296 250
-0.027502786 0.68199998 -0.011957732 1.2631527e-38 297 250
-0.026229866 0.68000001 -0.011922667 1.2447856e-38 298 250
-0.025037598 0.68000001 -0.011922667 1.2447856e-38 299 250
-0.023810266 0.67900002 -0.011905133 1.2631527e-38 300 250
-0.022619752 0.67900002 -0.011905133 1.2631527e-38 301 250
-0.021397678 0.67799997 -0.011887599 1.2631524e-38 302 250
-0.020208918 0.67799997 -0.011887599 1.2631524e-38 303 250
-0.019020159 0.67799997 -0.011887599 1.2630804e-38 304 250
-0.0178314 0.67799997 -0.011887599 1.2630804e-38 305 250
-0.016642639 0.67799997 -0.011887599 1.2721921e-38 306 250
-0.015408293 0.676 -0.011852534 1.2721921e-38 307 250
-0.014223038 0.676 -0.011852534 1.2538606e-38 308 250
-0.013037786 0.676 -0.011852534 1.2538606e-38 309 250
-0.011852534 0.676 -0.011852534 1.2630078e-38 310 250
-0.01066728 0.676 -0.011852534 1.2630078e-38 311 250
-0.0094820261 0.676 -0.011852534 1.2630078e-38 312 250
-0.0082967728 0.676 -0.011852534 1.2445688e-38 313 250
-0.0071115191 0.676 -0.011852534 1.2629359e-38 314 250
-0.0059262668 0.676 -0.011852534 1.2629359e-38 315 250
-0.0047410131 0.676 -0.011852534 1.2812672e-38 316 250
-0.0035662798 0.67799997 -0.011887599 1.2812672e-38 317 250
-0.0023775198 0.67799997 -0.011887599 1.2537161e-38 318 250
-0.0011887599 0.67799997 -0.011887599 1.2444965e-38 319 250
0 0.67799997 -0.011887599 1.2444245e-38 320 250
0.0011887599 0.67799997 -0.011887599 1.2444245e-38 321 250
0.0023775198 0.67799997 -0.011887599 1.2535362e-38 322 250
0.0035715401 0.67900002 -0.011905133 1.2535362e-38 323 250
0.0047620535 0.67900002 -0.011905133 1.2535362e-38 324 250
0.0059525664 0.67900002 -0.011905133 1.2351331e-38 325 250
0.0071535995 0.68000001 -0.011922667 1.2351331e-38 326 250
0.0083704125 0.68199998 -0.011957732 1.2351331e-38 327 250
0.0095802136 0.68300003 -0.011975267 1.2351328e-38 328 250
0.01077774 0.68300003 -0.011975267 1.2351328e-38 329 250
0.0119928 0.68400002 -0.0119928 1.253464e-38 330 250
0.01319208 0.68400002 -0.0119928 1.253464e-38 331 250
0.01443344 0.68599999 -0.012027865 1.2351325e-38 332 250
0.015659019 0.68699998 -0.012045399 1.2259129e-38 333 250
0.01686356 0.68699998 -0.012045399 1.2351681e-38 334 250
0.018146999 0.69 -0.012097999 1.2351681e-38 335 250
0.019384852 0.69099998 -0.012115533 1.2351678e-38 336 250
0.020656019 0.69300002 -0.012150601 1.2351678e-38 337 250
0.021871079 0.69300002 -0.012150601 1.253499e-38 338 250
0.023119451 0.69400001 -0.012168133 1.253499e-38 339 250
0.0244064 0.69599998 -0.0122032 1.2810138e-38 340 250
0.025700359 0.69800001 -0.012238266 1.2902334e-38 341 250
0.027001332 0.69999999 -0.012273333 1.3455502e-38 342 250
0.028228667 0.69999999 -0.012273333 1.4193426e-38 343 250
0.029455997 0.69999999 -0.012273333 1.5849348e-38 344 250
-0.051621638 0.70099998 -0.013519952 1.6026177e-38 278 251
-0.050392549 0.70099998 -0.013519952 1.6764101e-38 279 251
-0.049093332 0.69999999 -0.013500666 1.4287439e-38 280 251
-0.047729239 0.69800001 -0.013462093 1.4194884e-38 281 251
-0.046505414 0.69800001 -0.013462093 1.3552758e-38 282 251
-0.045216713 0.69700003 -0.013442807 1.3460562e-38 283 251
-0.043931518 0.69599998 -0.013423519 1.3276174e-38 284 251
-0.042527102 0.69300002 -0.01336566 1.3183978e-38 285 251
-0.041133199 0.69 -0.0133078 1.3092145e-38 286 251
-0.039807681 0.68800002 -0.013269227 1.2908114e-38 287 251
-0.038545277 0.68699998 -0.013249939 1.3091429e-38 288 251
-0.037340738 0.68699998 -0.013249939 1.2999233e-38 289 251
-0.036136195 0.68699998 -0.013249939 1.2723367e-38 290 251
-0.034880809 0.68599999 -0.013230653 1.2815562e-38 291 251
-0.033579841 0.68400002 -0.01319208 1.2999231e-38 292 251
-0.032380559 0.68400002 -0.01319208 1.2907035e-38 293 251
-0.031135695 0.68300003 -0.013172794 1.2999231e-38 294 251
-0.029938167 0.68300003 -0.013172794 1.2907035e-38 295 251
-0.028740639 0.68300003 -0.013172794 1.2540411e-38 296 251
-0.027502786 0.68199998 -0.013153506 1.2540411e-38 297 251
-0.026307013 0.68199998 -0.013153506 1.2631527e-38 298 251
-0.025037598 0.68000001 -0.013114933 1.2631527e-38 299 251
-0.023845334 0.68000001 -0.013114933 1.2631527e-38 300 251
-0.022619752 0.67900002 -0.013095647 1.2631527e-38 301 251
-0.021429239 0.67900002 -0.013095647 1.2631527e-38 302 251
-0.020238725 0.67900002 -0.013095647 1.2631527e-38 303 251
-0.019048214 0.67900002 -0.013095647 1.2539327e-38 304 251
-0.017857701 0.67900002 -0.013095647 1.2447132e-38 305 251
-0.016642639 0.67799997 -0.013076359 1.2630804e-38 306 251
-0.015453878 0.67799997 -0.013076359 1.2538608e-38 307 251
-0.014265119 0.67799997 -0.013076359 1.2538606e-38 308 251
-0.013037786 0.676 -0.013037786 1.2538606e-38 309 251
-0.011852534 0.676 -0.013037786 1.2721918e-38 310 251
-0.010698839 0.67799997 -0.013076359 1.2629722e-38 311 251
-0.0095100794 0.67799997 -0.013076359 1.2629722e-38 312 251
-0.0083213197 0.67799997 -0.013076359 1.2629722e-38 313 251
-0.0071325595 0.67799997 -0.013076359 1.2629003e-38 314 251
-0.0059437994 0.67799997 -0.013076359 1.2721199e-38 315 251
-0.0047550397 0.67799997 -0.013076359 1.2812672e-38 316 251
-0.0035662798 0.67799997 -0.013076359 1.2812672e-38 317 251
-0.0023775198 0.67799997 -0.013076359 1.2628638e-38 318 251
-0.0011887599 0.67799997 -0.013076359 1.2536442e-38 319 251
0 0.67799997 -0.013076359 1.2536442e-38 320 251
0.0011905134 0.67900002 -0.013095647 1.2444245e-38 321 251
0.0023810267 0.67900002 -0.013095647 1.2627554e-38 322 251
0.0035715401 0.67900002 -0.013095647 1.2627554e-38 323 251
0.0047690663 0.68000001 -0.013114933 1.2627554e-38 324 251
0.0059613334 0.68000001 -0.013114933 1.2535359e-38 325 251
0.00717464 0.68199998 -0.013153506 1.2535359e-38 326 251
0.0083704125 0.68199998 -0.013153506 1.2627554e-38 327 251
0.0095802136 0.68300003 -0.013172794 1.2535715e-38 328 251
0.01077774 0.68300003 -0.013172794 1.2535715e-38 329 251
0.0119928 0.68400002 -0.01319208 1.2535715e-38 330 251
0.013230653 0.68599999 -0.013230653 1.2351325e-38 331 251
0.01443344 0.68599999 -0.013230653 1.2534996e-38 332 251
0.015659019 0.68699998 -0.013249939 1.2534996e-38 333 251
0.016888106 0.68800002 -0.013269227 1.2534996e-38 334 251
0.018146999 0.69 -0.0133078 1.2627192e-38 335 251
0.019384852 0.69099998 -0.013327086 1.2627189e-38 336 251
0.020656019 0.69300002 -0.01336566 1.2627189e-38 337 251
0.021902639 0.69400001 -0.013384946 1.271974e-38 338 251
0.023119451 0.69400001 -0.013384946 1.271974e-38 339 251
0.024441468 0.69700003 -0.013442807 1.290305e-38 340 251
0.025700359 0.69800001 -0.013462093 1.2995245e-38 341 251
0.026924185 0.69800001 -0.013462093 1.3455502e-38 342 251
0.028228667 0.69999999 -0.013500666 1.4377457e-38 343 251
0.029455997 0.69999999 -0.013500666 1.6125931e-38 344 251
-0.051768921 0.70300001 -0.014791119 1.5938315e-38 278 252
-0.050536323 0.70300001 -0.014791119 1.5938315e-38 279 252
-0.049093332 0.69999999 -0.014727999 1.4562947e-38 280 252
-0.047729239 0.69800001 -0.01468592 1.4470751e-38 281 252
-0.046505414 0.69800001 -0.01468592 1.373643e-38 282 252
-0.045216713 0.69700003 -0.01466488 1.3644234e-38 283 252
-0.043931518 0.69599998 -0.014643839 1.3551683e-38 284 252
-0.042588469 0.69400001 -0.01460176 1.3459486e-38 285 252
-0.041192811 0.69099998 -0.014538639 1.3184697e-38 286 252
-0.0399234 0.69 -0.014517599 1.3092501e-38 287 252
-0.038601387 0.68800002 -0.014475521 1.2908114e-38 288 252
-0.037340738 0.68699998 -0.014454478 1.2815918e-38 289 252
-0.036136195 0.68699998 -0.014454478 1.2999233e-38 290 252
-0.034880809 0.68599999 -0.01443344 1.2907038e-38 291 252
-0.033678025 0.68599999 -0.01443344 1.2998512e-38 292 252
-0.032380559 0.68400002 -0.01439136 1.3090707e-38 293 252
-0.031135695 0.68300003 -0.014370319 1.2999231e-38 294 252
-0.029938167 0.68300003 -0.014370319 1.2907035e-38 295 252
-0.028740639 0.68300003 -0.014370319 1.2723723e-38 296 252
-0.027543113 0.68300003 -0.014370319 1.2723723e-38 297 252
-0.026307013 0.68199998 -0.01434928 1.272372e-38 298 252
-0.025111238 0.68199998 -0.01434928 1.272372e-38 299 252
-0.023845334 0.68000001 -0.014307199 1.2907032e-38 300 252
-0.022653066 0.68000001 -0.014307199 1.2907032e-38 301 252
-0.0214608 0.68000001 -0.014307199 1.2814837e-38 302 252
-0.020268533 0.68000001 -0.014307199 1.2907032e-38 303 252
-0.019048214 0.67900002 -0.01428616 1.2814837e-38 304 252
-0.017857701 0.67900002 -0.01428616 1.2630804e-38 305 252
-0.016667187 0.67900002 -0.01428616 1.2814472e-38 306 252
-0.015476674 0.67900002 -0.01428616 1.2814472e-38 307 252
-0.014265119 0.67799997 -0.014265119 1.2814469e-38 308 252
-0.013076359 0.67799997 -0.014265119 1.2814469e-38 309 252
-0.011887599 0.67799997 -0.014265119 1.2722274e-38 310 252
-0.010698839 0.67799997 -0.014265119 1.2722274e-38 311 252
-0.0095100794 0.67799997 -0.014265119 1.2721918e-38 312 252
-0.0083213197 0.67799997 -0.014265119 1.2629722e-38 313 252
-0.0071325595 0.67799997 -0.014265119 1.290487e-38 314 252
-0.0059437994 0.67799997 -0.014265119 1.290487e-38 315 252
-0.0047550397 0.67799997 -0.014265119 1.2904864e-38 316 252
-0.0035662798 0.67799997 -0.014265119 1.2812669e-38 317 252
-0.0023775198 0.67799997 -0.014265119 1.2812306e-38 318 252
-0.0011905134 0.67900002 -0.01428616 1.271975e-38 319 252
0 0.67900002 -0.01428616 1.2903421e-38 320 252
0.0011905134 0.67900002 -0.01428616 1.2719031e-38 321 252
0.0023810267 0.67900002 -0.01428616 1.2627554e-38 322 252
0.0035767998 0.68000001 -0.014307199 1.271975e-38 323 252
0.0047690663 0.68000001 -0.014307199 1.2719031e-38 324 252
0.005978866 0.68199998 -0.01434928 1.2719031e-38 325 252
0.00717464 0.68199998 -0.01434928 1.2627554e-38 326 252
0.0083826864 0.68300003 -0.014370319 1.2627554e-38 327 252
0.0095802136 0.68300003 -0.014370319 1.2535715e-38 328 252
0.01079352 0.68400002 -0.01439136 1.2535715e-38 329 252
0.012027865 0.68599999 -0.01443344 1.2535715e-38 330 252
0.013230653 0.68599999 -0.01443344 1.2535715e-38 331 252
0.014454478 0.68699998 -0.014454478 1.2535715e-38 332 252
0.015681813 0.68800002 -0.014475521 1.2535715e-38 333 252
0.0169372 0.69 -0.014517599 1.2351325e-38 334 252
0.0181733 0.69099998 -0.014538639 1.2535715e-38 335 252
