# .PCD v.7 - Point Cloud Data file format
FIELDS x y z rgb imX imY
SIZE 4 4 4 4 4 4
TYPE F F F F F F
COUNT 1 1 1 1 1 1
WIDTH 347
HEIGHT 1
VIEWPOINT 0 0 0 1 0 0 0
POINTS 347
DATA ascii
0.0077637597 0.73799998 -0.041406717 1.6493269e-38 326 272
0.0090577193 0.73799998 -0.041406717 1.6401073e-38 327 272
0.010365707 0.73900002 -0.041462827 1.6126284e-38 328 272
0.01166142 0.73900002 -0.041462827 1.6126284e-38 329 272
0.0129922 0.741 -0.041575037 1.6401076e-38 330 272
-0.0064522666 0.736 -0.042584959 1.6125568e-38 315 273
-0.005161813 0.736 -0.042584959 1.6309234e-38 316 273
0.005161813 0.736 -0.042584959 1.5848609e-38 324 273
0.0064522666 0.736 -0.042584959 1.5848609e-38 325 273
0.0077637597 0.73799998 -0.042700678 1.575641e-38 326 273
0.0090577193 0.73799998 -0.042700678 1.5664214e-38 327 273
0.010351679 0.73799998 -0.042700678 1.5572019e-38 328 273
0.011645639 0.73799998 -0.042700678 1.5572019e-38 329 273
0.012939599 0.73799998 -0.042700678 1.5572745e-38 330 273
0.014233559 0.73799998 -0.042700678 1.5756776e-38 331 273
0.01554856 0.73900002 -0.042758539 1.5940098e-38 332 273
-0.0077216802 0.73400003 -0.043756187 1.3911053e-38 314 274
-0.006434733 0.73400003 -0.043756187 1.3726301e-38 315 274
-0.0051477868 0.73400003 -0.043756187 1.3908516e-38 316 274
-0.0038608401 0.73400003 -0.043756187 1.3724124e-38 317 274
-0.0025738934 0.73400003 -0.043756187 1.3999982e-38 318 274
-0.0012869467 0.73400003 -0.043756187 1.3999982e-38 319 274
0 0.73400003 -0.043756187 1.3907421e-38 320 274
0.0012869467 0.73400003 -0.043756187 1.3907421e-38 321 274
0.0038713599 0.736 -0.043875411 1.4092885e-38 323 274
0.005161813 0.736 -0.043875411 1.4000323e-38 324 274
0.0064522666 0.736 -0.043875411 1.3354953e-38 325 274
0.0077427197 0.736 -0.043875411 1.3445345e-38 326 274
0.0090577193 0.73799998 -0.043994635 1.335315e-38 327 274
0.010351679 0.73799998 -0.043994635 1.2708133e-38 328 274
0.011645639 0.73799998 -0.043994635 1.1786176e-38 329 274
0.012939599 0.73799998 -0.043994635 1.1973088e-38 330 274
0.014233559 0.73799998 -0.043994635 1.3540415e-38 331 274
0.015527519 0.73799998 -0.043994635 1.4832631e-38 332 274
0.016821479 0.73799998 -0.043994635 1.5939337e-38 333 274
-0.021878093 0.73400003 -0.045043133 1.2349472e-38 303 275
-0.020591147 0.73400003 -0.045043133 1.4092182e-38 304 275
-0.019356798 0.736 -0.045165867 1.3539008e-38 305 275
-0.018066347 0.736 -0.045165867 1.2987278e-38 306 275
-0.0090086265 0.73400003 -0.045043133 1.381345e-38 313 275
-0.0077216802 0.73400003 -0.045043133 1.3262417e-38 314 275
-0.006434733 0.73400003 -0.045043133 1.363156e-38 315 275
-0.0051477868 0.73400003 -0.045043133 1.4826132e-38 316 275
-0.0038608401 0.73400003 -0.045043133 1.4733934e-38 317 275
-0.0025738934 0.73400003 -0.045043133 1.4551696e-38 318 275
-0.0012869467 0.73400003 -0.045043133 1.4736087e-38 319 275
0 0.73400003 -0.045043133 1.4828283e-38 320 275
0.0012869467 0.73400003 -0.045043133 1.4920478e-38 321 275
0.0025738934 0.73400003 -0.045043133 1.5104144e-38 322 275
0.0038713599 0.736 -0.045165867 1.4827557e-38 323 275
0.005161813 0.736 -0.045165867 1.4642793e-38 324 275
0.0064522666 0.736 -0.045165867 1.4550597e-38 325 275
0.0077427197 0.736 -0.045165867 1.436548e-38 326 275
0.0090331733 0.736 -0.045165867 1.3904862e-38 327 275
0.010323626 0.736 -0.045165867 1.2891782e-38 328 275
0.011645639 0.73799998 -0.0452886 1.1416659e-38 329 275
0.012904533 0.736 -0.045165867 1.2245331e-38 330 275
0.014194986 0.736 -0.045165867 1.3443861e-38 331 275
0.015485439 0.736 -0.045165867 1.4185431e-38 332 275
0.016775893 0.736 -0.045165867 1.5937147e-38 333 275
0.018066347 0.736 -0.045165867 1.5941167e-38 334 275
-0.024418673 0.73299998 -0.046266954 5.0552571e-39 301 276
-0.023133477 0.73299998 -0.046266954 6.1669688e-39 302 276
-0.021848286 0.73299998 -0.046266954 9.5781693e-39 303 276
-0.020591147 0.73400003 -0.046330083 1.2517609e-38 304 276
-0.019356798 0.736 -0.046456318 1.2517609e-38 305 276
-0.018066347 0.736 -0.046456318 1.1321953e-38 306 276
-0.016775893 0.736 -0.046456318 1.1598895e-38 307 276
-0.015485439 0.736 -0.046456318 1.151281e-38 308 276
-0.014156413 0.73400003 -0.046330083 1.2065984e-38 309 276
-0.012869466 0.73400003 -0.046330083 1.2158903e-38 310 276
-0.011582521 0.73400003 -0.046330083 1.262024e-38 311 276
-0.010295574 0.73400003 -0.046330083 1.4089975e-38 312 276
-0.0090086265 0.73400003 -0.046330083 1.399742e-38 313 276
-0.0077216802 0.73400003 -0.046330083 1.2895752e-38 314 276
-0.006434733 0.73400003 -0.046330083 1.3448565e-38 315 276
-0.0051477868 0.73400003 -0.046330083 1.4828613e-38 316 276
-0.0038608401 0.73400003 -0.046330083 1.4644222e-38 317 276
-0.0025738934 0.73400003 -0.046330083 1.4553096e-38 318 276
-0.0012869467 0.73400003 -0.046330083 1.44609e-38 319 276
0 0.73400003 -0.046330083 1.4644931e-38 320 276
0.0012869467 0.73400003 -0.046330083 1.4921159e-38 321 276
0.0025738934 0.73400003 -0.046330083 1.4825721e-38 322 276
0.0038713599 0.736 -0.046456318 1.4088156e-38 323 276
0.005161813 0.736 -0.046456318 1.3809774e-38 324 276
0.0064522666 0.736 -0.046456318 1.3994164e-38 325 276
0.0077427197 0.736 -0.046456318 1.3718297e-38 326 276
0.0090331733 0.736 -0.046456318 1.3257678e-38 327 276
0.010323626 0.736 -0.046456318 1.2704867e-38 328 276
0.01161408 0.736 -0.046456318 1.252012e-38 329 276
0.012904533 0.736 -0.046456318 1.2889973e-38 330 276
0.014194986 0.736 -0.046456318 1.3904116e-38 331 276
0.015485439 0.736 -0.046456318 1.3815926e-38 332 276
0.016775893 0.736 -0.046456318 1.5291056e-38 333 276
0.018066347 0.736 -0.046456318 1.5757126e-38 334 276
-0.025598666 0.73000002 -0.047357533 1.0957546e-38 300 277
-0.024352046 0.73100001 -0.047422405 1.0312176e-38 301 277
-0.02307036 0.73100001 -0.047422405 1.1232652e-38 302 277
-0.021848286 0.73299998 -0.04755215 1.2892174e-38 303 277
-0.020563092 0.73299998 -0.04755215 1.4269306e-38 304 277
-0.019356798 0.736 -0.047746774 1.399272e-38 305 277
-0.018066347 0.736 -0.047746774 1.2702356e-38 306 277
-0.016775893 0.736 -0.047746774 1.2610162e-38 307 277
-0.015485439 0.736 -0.047746774 1.1604276e-38 308 277
-0.014156413 0.73400003 -0.047617026 1.0958916e-38 309 277
-0.012869466 0.73400003 -0.047617026 1.0405392e-38 310 277
-0.011582521 0.73400003 -0.047617026 1.0405392e-38 311 277
-0.010281546 0.73299998 -0.04755215 1.0313915e-38 312 277
-0.0089963535 0.73299998 -0.04755215 1.0313915e-38 313 277
-0.0077216802 0.73400003 -0.047617026 9.6725019e-39 314 277
-0.006434733 0.73400003 -0.047617026 9.9490846e-39 315 277
-0.0051477868 0.73400003 -0.047617026 1.0592292e-38 316 277
-0.0038608401 0.73400003 -0.047617026 1.0592292e-38 317 277
-0.0025738934 0.73400003 -0.047617026 1.0593009e-38 318 277
-0.0012869467 0.73400003 -0.047617026 1.0961427e-38 319 277
0 0.73400003 -0.047617026 1.2157083e-38 320 277
0.0012904532 0.736 -0.047746774 1.2618054e-38 321 277
0.0025809065 0.736 -0.047746774 1.2798496e-38 322 277
0.0038713599 0.736 -0.047746774 1.2245331e-38 323 277
0.005161813 0.736 -0.047746774 1.1416659e-38 324 277
0.0064522666 0.736 -0.047746774 1.1693242e-38 325 277
0.0077427197 0.736 -0.047746774 1.1508853e-38 326 277
0.0090331733 0.736 -0.047746774 1.1508853e-38 327 277
0.010323626 0.736 -0.047746774 1.1692165e-38 328 277
0.01161408 0.736 -0.047746774 1.1692165e-38 329 277
0.012904533 0.736 -0.047746774 1.2154213e-38 330 277
0.014194986 0.736 -0.047746774 1.3260546e-38 331 277
0.015485439 0.736 -0.047746774 1.2985798e-38 332 277
0.016775893 0.736 -0.047746774 1.4460929e-38 333 277
0.018066347 0.736 -0.047746774 1.5203943e-38 334 277
-0.026878599 0.73000002 -0.048637468 1.0322276e-38 299 278
-0.025598666 0.73000002 -0.048637468 1.3081273e-38 300 278
-0.024352046 0.73100001 -0.048704091 1.2435903e-38 301 278
-0.02307036 0.73100001 -0.048704091 1.2711e-38 302 278
-0.021848286 0.73299998 -0.048837345 1.2987947e-38 303 278
-0.020563092 0.73299998 -0.048837345 1.3996309e-38 304 278
-0.019304199 0.73400003 -0.048903972 1.3904114e-38 305 278
-0.018017253 0.73400003 -0.048903972 1.3624657e-38 306 278
-0.016730307 0.73400003 -0.048903972 1.3624657e-38 307 278
-0.01544336 0.73400003 -0.048903972 1.2064171e-38 308 278
-0.014137126 0.73299998 -0.048837345 1.1234423e-38 309 278
-0.012851933 0.73299998 -0.048837345 1.068054e-38 310 278
-0.011566739 0.73299998 -0.048837345 1.0588346e-38 311 278
-0.010281546 0.73299998 -0.048837345 1.012881e-38 312 278
-0.0089963535 0.73299998 -0.048837345 1.0221004e-38 313 278
-0.0077216802 0.73400003 -0.048903972 1.0223515e-38 314 278
-0.006434733 0.73400003 -0.048903972 1.0315709e-38 315 278
-0.0051477868 0.73400003 -0.048903972 1.0590857e-38 316 278
-0.0038608401 0.73400003 -0.048903972 1.0498663e-38 317 278
-0.0025738934 0.73400003 -0.048903972 1.0590857e-38 318 278
-0.0012869467 0.73400003 -0.048903972 1.0775604e-38 319 278
0 0.73400003 -0.048903972 1.1879424e-38 320 278
0.0012904532 0.736 -0.049037226 1.2063812e-38 321 278
0.0025809065 0.736 -0.049037226 1.1511364e-38 322 278
0.0038713599 0.736 -0.049037226 1.1142587e-38 323 278
0.005161813 0.736 -0.049037226 1.0405392e-38 324 278
0.0064522666 0.736 -0.049037226 1.0313198e-38 325 278
0.0077427197 0.736 -0.049037226 9.9444211e-39 326 278
0.0090331733 0.736 -0.049037226 9.9444211e-39 327 278
0.010323626 0.736 -0.049037226 1.0587628e-38 328 278
0.01161408 0.736 -0.049037226 1.0679822e-38 329 278
0.012904533 0.736 -0.049037226 1.1142587e-38 330 278
0.014194986 0.736 -0.049037226 1.2156735e-38 331 278
0.015485439 0.736 -0.049037226 1.2431539e-38 332 278
0.016775893 0.736 -0.049037226 1.3907028e-38 333 278
0.018066347 0.736 -0.049037226 1.5018823e-38 334 278
0.019356798 0.736 -0.049037226 1.529541e-38 335 278
-0.028197108 0.73100001 -0.049985781 3.6838245e-39 298 279
-0.026915418 0.73100001 -0.049985781 6.2653021e-39 299 279
-0.025633732 0.73100001 -0.049985781 8.1009106e-39 300 279
-0.024352046 0.73100001 -0.049985781 7.6399325e-39 301 279
-0.02307036 0.73100001 -0.049985781 7.9208115e-39 302 279
-0.021848286 0.73299998 -0.050122537 9.3962793e-39 303 279
-0.020563092 0.73299998 -0.050122537 1.1881935e-38 304 279
-0.019304199 0.73400003 -0.050190922 1.2803887e-38 305 279
-0.018017253 0.73400003 -0.050190922 1.3719362e-38 306 279
-0.016707512 0.73299998 -0.050122537 1.3719362e-38 307 279
-0.015422319 0.73299998 -0.050122537 1.3078307e-38 308 279
-0.014137126 0.73299998 -0.050122537 1.3078307e-38 309 279
-0.012851933 0.73299998 -0.050122537 1.3353458e-38 310 279
-0.011566739 0.73299998 -0.050122537 1.3261262e-38 311 279
-0.010281546 0.73299998 -0.050122537 1.3077234e-38 312 279
-0.0089963535 0.73299998 -0.050122537 1.3353461e-38 313 279
-0.0077216802 0.73400003 -0.050190922 1.3077953e-38 314 279
-0.006434733 0.73400003 -0.050190922 1.3077953e-38 315 279
-0.0051477868 0.73400003 -0.050190922 1.3260909e-38 316 279
-0.0038608401 0.73400003 -0.050190922 1.3260909e-38 317 279
-0.0025738934 0.73400003 -0.050190922 1.3077953e-38 318 279
-0.0012904532 0.736 -0.050327681 1.2709172e-38 319 279
0 0.736 -0.050327681 1.2619493e-38 320 279
0.0012904532 0.736 -0.050327681 1.1974129e-38 321 279
0.0025738934 0.73400003 -0.050190922 9.9476496e-39 322 279
0.0038608401 0.73400003 -0.050190922 8.8413189e-39 323 279
0.0051477868 0.73400003 -0.050190922 8.4729007e-39 324 279
0.0064522666 0.736 -0.050327681 8.4729007e-39 325 279
0.0077427197 0.736 -0.050327681 8.6565717e-39 326 279
0.0090331733 0.736 -0.050327681 8.6565717e-39 327 279
0.010323626 0.736 -0.050327681 9.6646098e-39 328 279
0.01161408 0.736 -0.050327681 9.6646098e-39 329 279
0.012904533 0.736 -0.050327681 1.0312481e-38 330 279
0.014194986 0.736 -0.050327681 1.1879425e-38 331 279
0.015485439 0.736 -0.050327681 1.1970914e-38 332 279
0.016775893 0.736 -0.050327681 1.35386e-38 333 279
0.018066347 0.736 -0.050327681 1.5019176e-38 334 279
0.019356798 0.736 -0.050327681 1.5387958e-38 335 279
-0.029559445 0.73299998 -0.051407732 4.3263423e-39 297 280
-0.028197108 0.73100001 -0.051267464 1.4715203e-39 298 280
-0.026915418 0.73100001 -0.051267464 3.4076286e-39 299 280
-0.025633732 0.73100001 -0.051267464 4.5117901e-39 300 280
-0.024352046 0.73100001 -0.051267464 4.9724081e-39 301 280
-0.02307036 0.73100001 -0.051267464 6.2627504e-39 302 280
-0.021848286 0.73299998 -0.051407732 7.5534752e-39 303 280
-0.020563092 0.73299998 -0.051407732 1.0867798e-38 304 280
-0.019304199 0.73400003 -0.051477864 1.2803902e-38 305 280
-0.018017253 0.73400003 -0.051477864 1.307759e-38 306 280
-0.016707512 0.73299998 -0.051407732 1.2893201e-38 307 280
-0.015422319 0.73299998 -0.051407732 1.2709889e-38 308 280
-0.014137126 0.73299998 -0.051407732 1.2709889e-38 309 280
-0.012851933 0.73299998 -0.051407732 1.2985754e-38 310 280
-0.011566739 0.73299998 -0.051407732 1.2985754e-38 311 280
-0.010281546 0.73299998 -0.051407732 1.2986113e-38 312 280
-0.0089963535 0.73299998 -0.051407732 1.2986113e-38 313 280
-0.0077216802 0.73400003 -0.051477864 1.2893201e-38 314 280
-0.006434733 0.73400003 -0.051477864 1.2708813e-38 315 280
-0.0051477868 0.73400003 -0.051477864 1.2432948e-38 316 280
-0.0038608401 0.73400003 -0.051477864 1.2525142e-38 317 280
-0.0025738934 0.73400003 -0.051477864 1.2617336e-38 318 280
-0.0012904532 0.736 -0.051618133 1.2432948e-38 319 280
0 0.736 -0.051618133 1.2249635e-38 320 280
0.0012869467 0.73400003 -0.051477864 1.1789023e-38 321 280
0.0025738934 0.73400003 -0.051477864 9.8547379e-39 322 280
0.0038608401 0.73400003 -0.051477864 9.0246312e-39 323 280
0.0051477868 0.73400003 -0.051477864 8.8395252e-39 324 280
0.0064522666 0.736 -0.051618133 8.8395252e-39 325 280
0.0077427197 0.736 -0.051618133 9.023555e-39 326 280
0.0090331733 0.736 -0.051618133 9.1157492e-39 327 280
0.010323626 0.736 -0.051618133 9.6649685e-39 328 280
0.01161408 0.736 -0.051618133 9.5727743e-39 329 280
0.012904533 0.736 -0.051618133 1.049651e-38 330 280
0.014194986 0.736 -0.051618133 1.1510647e-38 331 280
0.015485439 0.736 -0.051618133 1.2061668e-38 332 280
0.016775893 0.736 -0.051618133 1.372155e-38 333 280
0.018066347 0.736 -0.051618133 1.5111376e-38 334 280
0.019409399 0.73799998 -0.051758397 1.5387602e-38 335 280
0.020703359 0.73799998 -0.051758397 1.5293634e-38 336 280
-0.030844638 0.73299998 -0.052692924 8.7524528e-39 296 281
-0.029559445 0.73299998 -0.052692924 3.9582786e-39 297 281
-0.028274251 0.73299998 -0.052692924 1.1967383e-39 298 281
-0.026989058 0.73299998 -0.052692924 2.303446e-39 299 281
-0.025633732 0.73100001 -0.052549154 2.0290045e-39 300 281
-0.024352046 0.73100001 -0.052549154 3.0431564e-39 301 281
-0.02307036 0.73100001 -0.052549154 6.1694897e-39 302 281
-0.021788673 0.73100001 -0.052549154 7.3680329e-39 303 281
-0.020563092 0.73299998 -0.052692924 1.0223523e-38 304 281
-0.019277899 0.73299998 -0.052692924 1.1790489e-38 305 281
-0.017992707 0.73299998 -0.052692924 1.2798496e-38 306 281
-0.016707512 0.73299998 -0.052692924 1.2522272e-38 307 281
-0.015422319 0.73299998 -0.052692924 1.1879782e-38 308 281
-0.014137126 0.73299998 -0.052692924 1.1971977e-38 309 281
-0.012851933 0.73299998 -0.052692924 1.2155289e-38 310 281
-0.011566739 0.73299998 -0.052692924 1.2063095e-38 311 281
-0.010281546 0.73299998 -0.052692924 1.1787229e-38 312 281
-0.0090086265 0.73400003 -0.052764814 1.1695035e-38 313 281
-0.0077216802 0.73400003 -0.052764814 1.1695035e-38 314 281
-0.006434733 0.73400003 -0.052764814 1.1602841e-38 315 281
-0.0051477868 0.73400003 -0.052764814 1.1601765e-38 316 281
-0.0038608401 0.73400003 -0.052764814 1.1417376e-38 317 281
-0.0025738934 0.73400003 -0.052764814 1.14163e-38 318 281
-0.0012904532 0.736 -0.052908584 1.14163e-38 319 281
0 0.736 -0.052908584 1.1967672e-38 320 281
0.0012869467 0.73400003 -0.052764814 1.2059866e-38 321 281
0.0025738934 0.73400003 -0.052764814 1.0498663e-38 322 281
0.0038713599 0.736 -0.052908584 9.7607501e-39 323 281
0.005161813 0.736 -0.052908584 9.1175429e-39 324 281
0.0064522666 0.736 -0.052908584 9.3944843e-39 325 281
0.0077427197 0.736 -0.052908584 9.5788727e-39 326 281
0.0090331733 0.736 -0.052908584 9.4866785e-39 327 281
0.010323626 0.736 -0.052908584 1.0037333e-38 328 281
0.01161408 0.736 -0.052908584 9.9451385e-39 329 281
0.012904533 0.736 -0.052908584 1.1507418e-38 330 281
0.014194986 0.736 -0.052908584 1.2244972e-38 331 281
0.015485439 0.736 -0.052908584 1.2246062e-38 332 281
0.016775893 0.736 -0.052908584 1.3721194e-38 333 281
0.018115439 0.73799998 -0.053052358 1.5019179e-38 334 281
0.019409399 0.73799998 -0.053052358 1.5387602e-38 335 281
-0.032392833 0.73900002 -0.054419957 1.3729565e-38 295 282
-0.030970879 0.736 -0.05419904 9.7633663e-39 296 282
-0.029559445 0.73299998 -0.053978115 5.3376159e-39 297 282
-0.028274251 0.73299998 -0.053978115 2.2094483e-39 298 282
-0.026989058 0.73299998 -0.053978115 3.4079915e-39 299 282
-0.025633732 0.73100001 -0.053830836 3.3179511e-39 300 282
-0.024352046 0.73100001 -0.053830836 3.5023423e-39 301 282
-0.02307036 0.73100001 -0.053830836 4.606857e-39 302 282
-0.021788673 0.73100001 -0.053830836 5.9897914e-39 303 282
-0.020563092 0.73299998 -0.053978115 8.658008e-39 304 282
-0.019277899 0.73299998 -0.053978115 9.8565512e-39 305 282
-0.017992707 0.73299998 -0.053978115 1.0589781e-38 306 282
-0.016707512 0.73299998 -0.053978115 1.077381e-38 307 282
-0.015422319 0.73299998 -0.053978115 1.0683051e-38 308 282
-0.014137126 0.73299998 -0.053978115 1.0683051e-38 309 282
-0.012851933 0.73299998 -0.053978115 1.095784e-38 310 282
-0.011566739 0.73299998 -0.053978115 1.0773452e-38 311 282
-0.010281546 0.73299998 -0.053978115 1.0680899e-38 312 282
-0.0090086265 0.73400003 -0.054051761 1.0680899e-38 313 282
-0.0077216802 0.73400003 -0.054051761 1.0773093e-38 314 282
-0.006434733 0.73400003 -0.054051761 1.0680899e-38 315 282
-0.0051477868 0.73400003 -0.054051761 1.0956405e-38 316 282
-0.0038608401 0.73400003 -0.054051761 1.0864211e-38 317 282
-0.0025809065 0.736 -0.05419904 1.1139e-38 318 282
-0.0012904532 0.736 -0.05419904 1.1231194e-38 319 282
0 0.736 -0.05419904 1.1048241e-38 320 282
0.0012904532 0.736 -0.05419904 1.1048241e-38 321 282
0.0025809065 0.736 -0.05419904 1.0683051e-38 322 282
0.0038713599 0.736 -0.05419904 1.0683051e-38 323 282
0.005161813 0.736 -0.05419904 1.0683051e-38 324 282
0.0064522666 0.736 -0.05419904 1.1051828e-38 325 282
0.0077427197 0.736 -0.05419904 1.0684845e-38 326 282
0.0090331733 0.736 -0.05419904 1.0684845e-38 327 282
0.010323626 0.736 -0.05419904 1.0683769e-38 328 282
0.011645639 0.73799998 -0.054346316 1.0314992e-38 329 282
-0.030970879 0.736 -0.055489492 1.0225786e-38 296 283
-0.029599773 0.73400003 -0.055338707 5.800036e-39 297 283
-0.028312827 0.73400003 -0.055338707 3.312912e-39 298 283
-0.026989058 0.73299998 -0.055263311 4.5114552e-39 299 283
-0.025703866 0.73299998 -0.055263311 4.9717075e-39 300 283
-0.024418673 0.73299998 -0.055263311 4.4185351e-39 301 283
-0.023133477 0.73299998 -0.055263311 4.3277478e-39 302 283
-0.021848286 0.73299998 -0.055263311 6.0794619e-39 303 283
-0.020563092 0.73299998 -0.055263311 8.1044881e-39 304 283
-0.019277899 0.73299998 -0.055263311 8.7498576e-39 305 283
-0.017992707 0.73299998 -0.055263311 9.2990615e-39 306 283
-0.016707512 0.73299998 -0.055263311 9.4838086e-39 307 283
-0.015422319 0.73299998 -0.055263311 9.5767203e-39 308 283
-0.014156413 0.73400003 -0.055338707 9.6692733e-39 309 283
-0.012851933 0.73299998 -0.055263311 9.8518681e-39 310 283
-0.011566739 0.73299998 -0.055263311 9.7596739e-39 311 283
-0.010295574 0.73400003 -0.055338707 9.8522268e-39 312 283
-0.0090086265 0.73400003 -0.055338707 9.9444211e-39 313 283
-0.0077427197 0.736 -0.055489492 1.0128092e-38 314 283
-0.0064522666 0.736 -0.055489492 1.0128092e-38 315 283
-0.005161813 0.736 -0.055489492 1.0312122e-38 316 283
-0.02702588 0.73400003 -0.056625653 6.9056465e-39 299 284
-0.025738932 0.73400003 -0.056625653 7.9129629e-39 300 284
-0.024418673 0.73299998 -0.056548502 5.7002692e-39 301 284
-0.023133477 0.73299998 -0.056548502 3.2239281e-39 302 284
-0.021848286 0.73299998 -0.056548502 5.3444192e-39 303 284
-0.020563092 0.73299998 -0.056548502 8.2870969e-39 304 284
