# .PCD v.7 - Point Cloud Data file format
FIELDS x y z rgb imX imY
SIZE 4 4 4 4 4 4
TYPE F F F F F F
COUNT 1 1 1 1 1 1
WIDTH 838
HEIGHT 1
VIEWPOINT 0 0 0 1 0 0 0
POINTS 838
DATA ascii
-0.053336397 0.676 -0.040298611 2.3963661e-39 275 274
-0.052305438 0.67799997 -0.040417835 2.3963633e-39 276 274
-0.051116679 0.67799997 -0.040417835 2.3963633e-39 277 274
-0.050001562 0.67900002 -0.040477451 2.5796784e-39 278 274
-0.048811045 0.67900002 -0.040477451 2.5796784e-39 279 274
-0.047690667 0.68000001 -0.040537067 2.5793224e-39 280 274
-0.046498399 0.68000001 -0.040537067 2.5793224e-39 281 274
-0.045306131 0.68000001 -0.040537067 2.3960102e-39 282 274
-0.044113863 0.68000001 -0.040537067 2.3960102e-39 283 274
-0.043047838 0.68199998 -0.040656291 2.3960102e-39 284 274
-0.041852064 0.68199998 -0.040656291 2.3960102e-39 285 274
-0.040656291 0.68199998 -0.040656291 2.5793224e-39 286 274
-0.039460517 0.68199998 -0.040656291 2.5793224e-39 287 274
-0.038320854 0.68300003 -0.040715907 2.5793224e-39 288 274
-0.037123326 0.68300003 -0.040715907 2.6718782e-39 289 274
-0.035978399 0.68400002 -0.040775519 2.3952913e-39 290 274
-0.03477912 0.68400002 -0.040775519 2.3952913e-39 291 274
-0.033678025 0.68599999 -0.040894743 2.3038117e-39 292 274
-0.032475237 0.68599999 -0.040894743 2.3038117e-39 293 274
-0.031272452 0.68599999 -0.040894743 2.3041677e-39 294 274
-0.030113498 0.68699998 -0.040954359 2.211972e-39 295 274
-0.029287677 0.69599998 -0.041490879 2.2108973e-39 296 274
-0.028067358 0.69599998 -0.041490879 2.2108973e-39 297 274
-0.026885614 0.69700003 -0.041550495 2.3942123e-39 298 274
-0.025700359 0.69800001 -0.041610107 2.3942123e-39 299 274
-0.024476532 0.69800001 -0.041610107 2.4867639e-39 300 274
-0.023252707 0.69800001 -0.041610107 2.4867639e-39 301 274
-0.022091998 0.69999999 -0.041729331 2.4867611e-39 302 274
-0.020864666 0.69999999 -0.041729331 2.5789567e-39 303 274
-0.019721493 0.70300001 -0.041908171 2.3038117e-39 304 274
-0.018488899 0.70300001 -0.041908171 2.3038117e-39 305 274
-0.017280852 0.704 -0.041967787 2.3956444e-39 306 274
-0.016046507 0.704 -0.041967787 2.3956444e-39 307 274
-0.014854239 0.70599997 -0.042087011 2.3956416e-39 308 274
-0.013616386 0.70599997 -0.042087011 2.3956416e-39 309 274
-0.012378532 0.70599997 -0.042087011 2.3041649e-39 310 274
-0.011156459 0.70700002 -0.042146627 2.3041649e-39 311 274
-0.0099168532 0.70700002 -0.042146627 2.3956416e-39 312 274
-0.008689519 0.708 -0.042206239 2.3956416e-39 313 274
-0.0074481601 0.708 -0.042206239 2.3956416e-39 314 274
-0.0062067998 0.708 -0.042206239 2.3956416e-39 315 274
-0.0049794666 0.70999998 -0.042325463 2.5793126e-39 316 274
-0.0037345996 0.70999998 -0.042325463 2.5793126e-39 317 274
-0.0024897333 0.70999998 -0.042325463 2.3956416e-39 318 274
-0.00124662 0.71100003 -0.042385083 2.3956416e-39 319 274
0 0.71100003 -0.042385083 2.3956444e-39 320 274
0.0012501266 0.713 -0.042504307 2.3956444e-39 321 274
0.0025002533 0.713 -0.042504307 2.5789567e-39 322 274
0.00376616 0.71600002 -0.042683143 2.4867611e-39 323 274
0.0050215465 0.71600002 -0.042683143 2.5789595e-39 324 274
0.0062769335 0.71600002 -0.042683143 2.5789595e-39 325 274
0.0075428397 0.71700001 -0.042742759 2.5789595e-39 326 274
0.0088245263 0.71899998 -0.042861983 2.4867639e-39 327 274
0.010085173 0.71899998 -0.042861983 2.211972e-39 328 274
0.011361601 0.72000003 -0.042921603 2.211972e-39 329 274
0.012624 0.72000003 -0.042921603 2.211972e-39 330 274
0.0138864 0.72000003 -0.042921603 2.211972e-39 331 274
0.0151488 0.72000003 -0.042921603 2.211972e-39 332 274
0.016456785 0.722 -0.043040827 2.211972e-39 333 274
0.017722692 0.722 -0.043040827 2.2112532e-39 334 274
0.0189886 0.722 -0.043040827 2.3034488e-39 335 274
0.020282559 0.72299999 -0.043100435 2.4867639e-39 336 274
0.021550218 0.72299999 -0.043100435 2.3945682e-39 337 274
0.02281788 0.72299999 -0.043100435 2.3030929e-39 338 274
0.024085538 0.72299999 -0.043100435 2.3030929e-39 339 274
0.025353199 0.72299999 -0.043100435 2.3020167e-39 340 274
0.026694499 0.72500002 -0.043219667 2.3020167e-39 341 274
0.027965667 0.72500002 -0.043219667 2.3020195e-39 342 274
0.029317487 0.727 -0.043338891 2.3942151e-39 343 274
0.030634239 0.72799999 -0.043398503 2.3942123e-39 344 274
0.031998333 0.73000002 -0.043517731 2.3942123e-39 345 274
0.033278264 0.73000002 -0.043517731 2.3934934e-39 346 274
0.034558199 0.73000002 -0.043517731 2.3934934e-39 347 274
0.035838135 0.73000002 -0.043517731 2.3938494e-39 348 274
0.037118066 0.73000002 -0.043517731 2.486045e-39 349 274
0.038450599 0.73100001 -0.043577347 2.3034488e-39 350 274
0.039732285 0.73100001 -0.043577347 2.3034488e-39 351 274
0.041126184 0.73299998 -0.043696571 2.3945654e-39 352 274
0.042411376 0.73299998 -0.043696571 2.3023698e-39 353 274
0.043756187 0.73400003 -0.043756187 2.3023698e-39 354 274
0.045165867 0.736 -0.043875411 2.3945654e-39 355 274
0.046456318 0.736 -0.043875411 2.3034488e-39 356 274
0.047746774 0.736 -0.043875411 2.3034488e-39 357 274
0.049037226 0.736 -0.043875411 2.3034488e-39 358 274
0.050327681 0.736 -0.043875411 2.2112532e-39 359 274
0.051618133 0.736 -0.043875411 2.3945654e-39 360 274
0.052908584 0.736 -0.043875411 2.3023698e-39 361 274
0.054051761 0.73400003 -0.043756187 2.3945682e-39 362 274
0.055338707 0.73400003 -0.043756187 2.3945682e-39 363 274
0.056779943 0.736 -0.043875411 2.1187044e-39 364 274
0.0584649 0.741 -0.044173479 2.1187044e-39 365 274
0.059764117 0.741 -0.044173479 2.1194205e-39 366 274
0.061063338 0.741 -0.044173479 2.1194205e-39 367 274
0.062362559 0.741 -0.044173479 2.2116161e-39 368 274
0.063747689 0.74199998 -0.044233091 2.2116161e-39 369 274
0.065223999 0.74400002 -0.044352323 2.4867639e-39 370 274
0.066707321 0.74599999 -0.044471547 2.4867639e-39 371 274
0.068015307 0.74599999 -0.044471547 2.3038117e-39 372 274
0.069323286 0.74599999 -0.044471547 2.3038117e-39 373 274
0.070631281 0.74599999 -0.044471547 2.3956472e-39 374 274
0.072035693 0.74699998 -0.044531155 2.6718754e-39 375 274
0.073345438 0.74699998 -0.044531155 2.8566226e-39 376 274
0.074655175 0.74699998 -0.044531155 3.225045e-39 377 274
-0.107304 0.72000003 -0.044183999 1.6217776e-38 235 275
-0.1060416 0.72000003 -0.044183999 1.4375666e-38 236 275
-0.10463367 0.71899998 -0.044122629 1.0319058e-38 237 275
-0.10337302 0.71899998 -0.044122629 2.8566226e-39 238 275
-0.10211238 0.71899998 -0.044122629 1.2889367e-39 239 275
-0.10085172 0.71899998 -0.044122629 2.1205051e-39 240 275
-0.099591084 0.71899998 -0.044122629 1.9357551e-39 241 275
-0.098330431 0.71899998 -0.044122629 1.8435623e-39 242 275
-0.097069785 0.71899998 -0.044122629 2.2123448e-39 243 275
-0.095809139 0.71899998 -0.044122629 2.4903764e-39 244 275
-0.094548494 0.71899998 -0.044122629 4.7949084e-39 245 275
-0.093287848 0.71899998 -0.044122629 6.2660784e-39 246 275
-0.085883528 0.671 -0.041177034 5.5285134e-39 247 275
-0.084707037 0.671 -0.041177034 3.9615408e-39 248 275
-0.083530545 0.671 -0.041177034 3.4083684e-39 249 275
-0.082354069 0.671 -0.041177034 2.9488182e-39 250 275
-0.081177577 0.671 -0.041177034 2.764427e-39 251 275
-0.080001086 0.671 -0.041177034 2.2126951e-39 252 275
-0.078824602 0.671 -0.041177034 2.3970864e-39 253 275
-0.077648118 0.671 -0.041177034 2.3967332e-39 254 275
-0.076471634 0.671 -0.041177034 2.3967332e-39 255 275
-0.075295143 0.671 -0.041177034 2.5807588e-39 256 275
-0.074118659 0.671 -0.041177034 2.4885631e-39 257 275
-0.072942175 0.671 -0.041177034 2.4885631e-39 258 275
-0.071765684 0.671 -0.041177034 2.3963661e-39 259 275
-0.0705892 0.671 -0.041177034 2.396013e-39 260 275
-0.069412716 0.671 -0.041177034 2.396013e-39 261 275
-0.068337917 0.67199999 -0.041238401 2.396013e-39 262 275
-0.067359567 0.67400002 -0.041361131 2.48821e-39 263 275
-0.066177815 0.67400002 -0.041361131 2.3960102e-39 264 275
-0.065092497 0.67500001 -0.041422497 2.3960102e-39 265 275
-0.063909002 0.67500001 -0.041422497 2.3960102e-39 266 275
-0.062725499 0.67500001 -0.041422497 2.3960102e-39 267 275
-0.061542001 0.67500001 -0.041422497 2.3960102e-39 268 275
-0.060358498 0.67500001 -0.041422497 2.3960102e-39 269 275
-0.059175 0.67500001 -0.041422497 2.3960102e-39 270 275
-0.058077414 0.676 -0.041483864 2.3038145e-39 271 275
-0.056892153 0.676 -0.041483864 2.3952913e-39 272 275
-0.055706903 0.676 -0.041483864 2.3952913e-39 273 275
-0.054521654 0.676 -0.041483864 2.3960102e-39 274 275
-0.053336397 0.676 -0.041483864 2.3960102e-39 275 275
-0.052305438 0.67799997 -0.041606598 2.3038117e-39 276 275
-0.051192071 0.67900002 -0.041667968 2.3963661e-39 277 275
-0.050001562 0.67900002 -0.041667968 2.3963661e-39 278 275
-0.048882935 0.68000001 -0.041729335 2.3963661e-39 279 275
-0.047690667 0.68000001 -0.041729335 2.3963661e-39 280 275
-0.046498399 0.68000001 -0.041729335 2.3038117e-39 281 275
-0.045306131 0.68000001 -0.041729335 2.3963661e-39 282 275
-0.044113863 0.68000001 -0.041729335 2.3963661e-39 283 275
-0.043047838 0.68199998 -0.041852064 2.3960102e-39 284 275
-0.041852064 0.68199998 -0.041852064 2.3038145e-39 285 275
-0.040656291 0.68199998 -0.041852064 2.3960102e-39 286 275
-0.039460517 0.68199998 -0.041852064 2.3960102e-39 287 275
-0.038320854 0.68300003 -0.041913435 2.3038145e-39 288 275
-0.037123326 0.68300003 -0.041913435 2.3960102e-39 289 275
-0.035978399 0.68400002 -0.041974798 2.3038145e-39 290 275
-0.03477912 0.68400002 -0.041974798 2.3038145e-39 291 275
-0.033579841 0.68400002 -0.041974798 2.3038117e-39 292 275
-0.032475237 0.68599999 -0.042097531 2.3038117e-39 293 275
-0.031272452 0.68599999 -0.042097531 2.5789567e-39 294 275
-0.030113498 0.68699998 -0.042158898 2.4867611e-39 295 275
-0.029287677 0.69599998 -0.042711195 2.3030929e-39 296 275
-0.028067358 0.69599998 -0.042711195 2.2108973e-39 297 275
-0.026924185 0.69800001 -0.042833932 2.2108973e-39 298 275
-0.025700359 0.69800001 -0.042833932 2.3030929e-39 299 275
-0.024476532 0.69800001 -0.042833932 2.4867611e-39 300 275
-0.023319334 0.69999999 -0.042956665 2.4867611e-39 301 275
-0.022091998 0.69999999 -0.042956665 2.3034488e-39 302 275
-0.020864666 0.69999999 -0.042956665 2.3956444e-39 303 275
-0.019721493 0.70300001 -0.043140765 2.3956444e-39 304 275
-0.018515198 0.704 -0.043202132 2.3956444e-39 305 275
-0.017280852 0.704 -0.043202132 2.3956416e-39 306 275
-0.016046507 0.704 -0.043202132 2.5800315e-39 307 275
-0.014854239 0.70599997 -0.043324865 2.5800287e-39 308 275
-0.013616386 0.70599997 -0.043324865 2.3959976e-39 309 275
-0.012378532 0.70599997 -0.043324865 2.3956416e-39 310 275
-0.011156459 0.70700002 -0.043386232 2.3956416e-39 311 275
-0.0099308798 0.708 -0.043447599 2.3956416e-39 312 275
-0.008689519 0.708 -0.043447599 2.3956416e-39 313 275
-0.0074481601 0.708 -0.043447599 2.4867583e-39 314 275
-0.0062243328 0.70999998 -0.043570329 2.5793126e-39 315 275
-0.0049794666 0.70999998 -0.043570329 2.3956416e-39 316 275
-0.0037398601 0.71100003 -0.043631699 2.3956416e-39 317 275
-0.0024932399 0.71100003 -0.043631699 2.5800315e-39 318 275
-0.00124662 0.71100003 -0.043631699 2.3956416e-39 319 275
0 0.713 -0.043754432 2.3956416e-39 320 275
0.00125188 0.71399999 -0.043815799 2.3956416e-39 321 275
0.0025037599 0.71399999 -0.043815799 2.3956416e-39 322 275
0.00376616 0.71600002 -0.043938532 2.3956416e-39 323 275
0.0050215465 0.71600002 -0.043938532 2.5789567e-39 324 275
0.0062857 0.71700001 -0.043999899 2.5789567e-39 325 275
0.0075428397 0.71700001 -0.043999899 2.3956472e-39 326 275
0.0088245263 0.71899998 -0.044122629 2.3030929e-39 327 275
0.010085173 0.71899998 -0.044122629 2.3945682e-39 328 275
0.011361601 0.72000003 -0.044183999 2.3945682e-39 329 275
0.012624 0.72000003 -0.044183999 2.2108973e-39 330 275
0.0138864 0.72000003 -0.044183999 2.3030929e-39 331 275
0.0151488 0.72000003 -0.044183999 2.3030929e-39 332 275
0.016456785 0.722 -0.044306733 2.2108973e-39 333 275
0.017722692 0.722 -0.044306733 2.2108973e-39 334 275
0.019014901 0.72299999 -0.044368099 2.2108973e-39 335 275
0.020282559 0.72299999 -0.044368099 2.2108973e-39 336 275
0.021550218 0.72299999 -0.044368099 2.3030929e-39 337 275
0.02281788 0.72299999 -0.044368099 2.3030929e-39 338 275
0.024085538 0.72299999 -0.044368099 2.2108973e-39 339 275
0.025423333 0.72500002 -0.044490833 2.3030957e-39 340 275
0.026694499 0.72500002 -0.044490833 2.2109001e-39 341 275
0.028042812 0.727 -0.044613566 2.2109001e-39 342 275
0.029357811 0.72799999 -0.044674929 2.2109001e-39 343 275
0.030718399 0.73000002 -0.044797666 2.2109001e-39 344 275
0.031998333 0.73000002 -0.044797666 2.2109001e-39 345 275
0.033278264 0.73000002 -0.044797666 2.3942123e-39 346 275
0.034558199 0.73000002 -0.044797666 2.3942123e-39 347 275
0.035838135 0.73000002 -0.044797666 2.2112532e-39 348 275
0.037118066 0.73000002 -0.044797666 2.3034488e-39 349 275
0.038450599 0.73100001 -0.044859033 2.3034488e-39 350 275
0.039840993 0.73299998 -0.044981763 2.3034488e-39 351 275
0.041126184 0.73299998 -0.044981763 2.3034488e-39 352 275
0.042411376 0.73299998 -0.044981763 2.2112532e-39 353 275
0.043756187 0.73400003 -0.045043133 2.3034488e-39 354 275
0.045165867 0.736 -0.045165867 2.3034488e-39 355 275
0.046456318 0.736 -0.045165867 2.211972e-39 356 275
0.047746774 0.736 -0.045165867 2.211972e-39 357 275
0.049037226 0.736 -0.045165867 2.2112504e-39 358 275
0.050327681 0.736 -0.045165867 2.2112504e-39 359 275
0.051618133 0.736 -0.045165867 2.3945626e-39 360 275
0.052908584 0.736 -0.045165867 2.3945626e-39 361 275
0.054051761 0.73400003 -0.045043133 2.4860422e-39 362 275
0.055338707 0.73400003 -0.045043133 2.6700733e-39 363 275
0.056625653 0.73400003 -0.045043133 2.3945682e-39 364 275
0.059569497 0.755 -0.04633183 2.4867639e-39 365 275
0.060893264 0.755 -0.04633183 2.211972e-39 366 275
0.062217031 0.755 -0.04633183 2.211972e-39 367 275
0.063035838 0.74900001 -0.045963634 2.3956416e-39 368 275
0.064349085 0.74900001 -0.045963634 2.5800315e-39 369 275
0.065662332 0.74900001 -0.045963634 2.4885603e-39 370 275
0.066975579 0.74900001 -0.045963634 2.4885603e-39 371 275
-0.10886797 0.722 -0.045572639 1.5481288e-38 234 276
-0.107304 0.72000003 -0.045446403 1.585007e-38 235 276
-0.1060416 0.72000003 -0.045446403 1.4376019e-38 236 276
-0.1047792 0.72000003 -0.045446403 1.0872225e-38 237 276
-0.10351679 0.72000003 -0.045446403 3.5001871e-39 238 276
-0.10225441 0.72000003 -0.045446403 1.4718833e-39 239 276
-0.100992 0.72000003 -0.045446403 2.1205051e-39 240 276
-0.099729598 0.72000003 -0.045446403 1.9357551e-39 241 276
-0.098330431 0.71899998 -0.045383278 1.9357551e-39 242 276
-0.097069785 0.71899998 -0.045383278 2.3967332e-39 243 276
-0.095809139 0.71899998 -0.045383278 3.0431817e-39 244 276
-0.094680004 0.72000003 -0.045446403 6.5462555e-39 245 276
-0.0934176 0.72000003 -0.045446403 8.1063981e-39 246 276
-0.092155196 0.72000003 -0.045446403 7.1844404e-39 247 276
-0.084707037 0.671 -0.042353518 4.2388536e-39 248 276
-0.083530545 0.671 -0.042353518 3.3165386e-39 249 276
-0.082354069 0.671 -0.042353518 2.8573415e-39 250 276
-0.081177577 0.671 -0.042353518 2.580756e-39 251 276
-0.080001086 0.671 -0.042353518 2.2126979e-39 252 276
-0.078824602 0.671 -0.042353518 2.2126979e-39 253 276
-0.077648118 0.671 -0.042353518 2.2126979e-39 254 276
-0.076471634 0.671 -0.042353518 2.2126979e-39 255 276
-0.075295143 0.671 -0.042353518 2.3963661e-39 256 276
-0.074118659 0.671 -0.042353518 2.3963661e-39 257 276
-0.072942175 0.671 -0.042353518 2.3038117e-39 258 276
-0.071765684 0.671 -0.042353518 2.3038117e-39 259 276
-0.0705892 0.671 -0.042353518 2.3038145e-39 260 276
-0.069412716 0.671 -0.042353518 2.3038145e-39 261 276
-0.068337917 0.67199999 -0.042416636 2.3038145e-39 262 276
-0.067359567 0.67400002 -0.042542879 2.3038145e-39 263 276
-0.066177815 0.67400002 -0.042542879 2.3038145e-39 264 276
-0.065092497 0.67500001 -0.042606 2.3038145e-39 265 276
-0.063909002 0.67500001 -0.042606 2.3038145e-39 266 276
-0.062725499 0.67500001 -0.042606 2.3038145e-39 267 276
-0.061542001 0.67500001 -0.042606 2.3038145e-39 268 276
-0.060358498 0.67500001 -0.042606 2.3038145e-39 269 276
-0.059175 0.67500001 -0.042606 2.3038145e-39 270 276
-0.058077414 0.676 -0.042669121 2.3038145e-39 271 276
-0.056892153 0.676 -0.042669121 2.3952913e-39 272 276
-0.055706903 0.676 -0.042669121 2.3030957e-39 273 276
-0.054521654 0.676 -0.042669121 2.3038117e-39 274 276
-0.053494196 0.67799997 -0.042795356 2.3038117e-39 275 276
-0.052305438 0.67799997 -0.042795356 2.3038117e-39 276 276
-0.051192071 0.67900002 -0.042858478 2.3038117e-39 277 276
-0.050001562 0.67900002 -0.042858478 2.3038117e-39 278 276
-0.048882935 0.68000001 -0.042921599 2.3038117e-39 279 276
-0.047690667 0.68000001 -0.042921599 2.3038117e-39 280 276
-0.046498399 0.68000001 -0.042921599 2.3038117e-39 281 276
-0.045306131 0.68000001 -0.042921599 2.3038117e-39 282 276
-0.044243611 0.68199998 -0.043047838 2.3038117e-39 283 276
-0.043047838 0.68199998 -0.043047838 2.3038117e-39 284 276
-0.041852064 0.68199998 -0.043047838 2.3038117e-39 285 276
-0.040656291 0.68199998 -0.043047838 2.3038145e-39 286 276
-0.039518382 0.68300003 -0.043110959 2.3038145e-39 287 276
-0.038320854 0.68300003 -0.043110959 2.3038145e-39 288 276
-0.037123326 0.68300003 -0.043110959 2.3960102e-39 289 276
-0.035978399 0.68400002 -0.043174081 2.3038117e-39 290 276
-0.03477912 0.68400002 -0.043174081 2.3038117e-39 291 276
-0.033579841 0.68400002 -0.043174081 2.3038117e-39 292 276
-0.032475237 0.68599999 -0.043300316 2.3038117e-39 293 276
-0.031272452 0.68599999 -0.043300316 2.3956444e-39 294 276
-0.030113498 0.68699998 -0.043363437 2.3034488e-39 295 276
-0.02932976 0.69700003 -0.043994639 2.3030929e-39 296 276
-0.028107686 0.69700003 -0.043994639 2.3030929e-39 297 276
-0.026924185 0.69800001 -0.04405776 2.2116161e-39 298 276
-0.025700359 0.69800001 -0.04405776 2.3038117e-39 299 276
-0.024546666 0.69999999 -0.044183996 2.3956444e-39 300 276
-0.023319334 0.69999999 -0.044183996 2.3034488e-39 301 276
-0.022091998 0.69999999 -0.044183996 2.3034488e-39 302 276
-0.020864666 0.69999999 -0.044183996 2.3956444e-39 303 276
-0.019721493 0.70300001 -0.04437336 2.3956416e-39 304 276
-0.018515198 0.704 -0.044436477 2.5800315e-39 305 276
-0.017280852 0.704 -0.044436477 2.5800315e-39 306 276
-0.016092092 0.70599997 -0.044562716 2.5800315e-39 307 276
-0.014854239 0.70599997 -0.044562716 2.3956416e-39 308 276
-0.013616386 0.70599997 -0.044562716 2.3956416e-39 309 276
-0.012396066 0.70700002 -0.044625837 2.4867611e-39 310 276
-0.01117224 0.708 -0.044688959 2.4867611e-39 311 276
-0.0099308798 0.708 -0.044688959 2.3956444e-39 312 276
-0.008689519 0.708 -0.044688959 2.3956444e-39 313 276
-0.0074691991 0.70999998 -0.044815198 2.3956416e-39 314 276
-0.0062243328 0.70999998 -0.044815198 2.3956416e-39 315 276
-0.0049794666 0.70999998 -0.044815198 2.3956416e-39 316 276
-0.0037398601 0.71100003 -0.044878319 2.3956416e-39 317 276
-0.0024932399 0.71100003 -0.044878319 2.5800315e-39 318 276
-0.00124662 0.71100003 -0.044878319 2.5800315e-39 319 276
0 0.713 -0.045004558 2.3956416e-39 320 276
0.00125188 0.71399999 -0.045067675 2.3956416e-39 321 276
0.0025037599 0.71399999 -0.045067675 2.3956444e-39 322 276
0.00376616 0.71600002 -0.045193922 2.3956444e-39 323 276
0.0050285598 0.71700001 -0.045257039 2.5789595e-39 324 276
0.0062857 0.71700001 -0.045257039 2.5789595e-39 325 276
0.0075638802 0.71899998 -0.045383278 2.6697202e-39 326 276
0.0088245263 0.71899998 -0.045383278 2.4856891e-39 327 276
0.010085173 0.71899998 -0.045383278 2.4856891e-39 328 276
0.011361601 0.72000003 -0.045446403 2.3934934e-39 329 276
0.012624 0.72000003 -0.045446403 2.3945682e-39 330 276
0.013924973 0.722 -0.045572639 2.3945682e-39 331 276
0.015190879 0.722 -0.045572639 2.2108973e-39 332 276
0.016456785 0.722 -0.045572639 2.2108973e-39 333 276
0.017747238 0.72299999 -0.04563576 2.2116161e-39 334 276
0.019014901 0.72299999 -0.04563576 2.2116161e-39 335 276
0.020282559 0.72299999 -0.04563576 2.1194205e-39 336 276
0.021550218 0.72299999 -0.04563576 2.2116161e-39 337 276
0.022880999 0.72500002 -0.045761999 2.3041677e-39 338 276
0.024152167 0.72500002 -0.045761999 2.211972e-39 339 276
0.025493465 0.727 -0.045888241 2.2108973e-39 340 276
0.026768139 0.727 -0.045888241 2.2108973e-39 341 276
0.028042812 0.727 -0.045888241 2.4867611e-39 342 276
0.029357811 0.72799999 -0.045951359 2.4867611e-39 343 276
0.030634239 0.72799999 -0.045951359 2.211972e-39 344 276
0.031910665 0.72799999 -0.045951359 2.211972e-39 345 276
0.033278264 0.73000002 -0.046077598 2.3034488e-39 346 276
0.034558199 0.73000002 -0.046077598 2.3034488e-39 347 276
0.035887226 0.73100001 -0.046140719 2.3034488e-39 348 276
0.037168913 0.73100001 -0.046140719 2.2112532e-39 349 276
0.038608398 0.73400003 -0.046330083 2.3030929e-39 350 276
0.039895348 0.73400003 -0.046330083 2.3030929e-39 351 276
0.041182294 0.73400003 -0.046330083 2.3030957e-39 352 276
0.042584959 0.736 -0.046456318 2.2109001e-39 353 276
0.043994635 0.73799998 -0.046582557 2.3030929e-39 354 276
0.045349967 0.73900002 -0.046645679 2.3030929e-39 355 276
0.046582557 0.73799998 -0.046582557 2.2119692e-39 356 276
0.047876518 0.73799998 -0.046582557 2.2119692e-39 357 276
0.049170475 0.73799998 -0.046582557 2.5793126e-39 358 276
-0.10886797 0.722 -0.046838548 1.5297252e-38 234 277
-0.107304 0.72000003 -0.0467088 1.5757872e-38 235 277
-0.1060416 0.72000003 -0.0467088 1.5020309e-38 236 277
-0.1047792 0.72000003 -0.0467088 1.2162245e-38 237 277
-0.10351679 0.72000003 -0.0467088 5.338346e-39 238 277
-0.10225441 0.72000003 -0.0467088 2.4802801e-39 239 277
-0.100992 0.72000003 -0.0467088 2.2126979e-39 240 277
-0.099729598 0.72000003 -0.0467088 2.0283067e-39 241 277
-0.098330431 0.71899998 -0.046643924 2.1194233e-39 242 277
-0.097069785 0.71899998 -0.046643924 2.4882072e-39 243 277
-0.095809139 0.71899998 -0.046643924 3.0439033e-39 244 277
-0.094680004 0.72000003 -0.0467088 6.5473387e-39 245 277
-0.0934176 0.72000003 -0.0467088 8.1064009e-39 246 277
-0.092155196 0.72000003 -0.0467088 6.3546839e-39 247 277
-0.084580801 0.67000002 -0.043465134 3.6881979e-39 248 277
-0.083406061 0.67000002 -0.043465134 2.7662402e-39 249 277
-0.082354069 0.671 -0.043530006 2.8562667e-39 250 277
-0.081177577 0.671 -0.043530006 2.5796784e-39 251 277
-0.080001086 0.671 -0.043530006 2.3038145e-39 252 277
-0.078824602 0.671 -0.043530006 2.3038145e-39 253 277
-0.077648118 0.671 -0.043530006 2.1205023e-39 254 277
-0.076471634 0.671 -0.043530006 2.1205023e-39 255 277
-0.075295143 0.671 -0.043530006 2.3038145e-39 256 277
-0.074118659 0.671 -0.043530006 2.2116189e-39 257 277
-0.072942175 0.671 -0.043530006 2.3030957e-39 258 277
-0.071765684 0.671 -0.043530006 2.3030957e-39 259 277
-0.0705892 0.671 -0.043530006 2.2116189e-39 260 277
-0.069412716 0.671 -0.043530006 2.2116189e-39 261 277
-0.068337917 0.67199999 -0.043594878 2.2116189e-39 262 277
-0.067359567 0.67400002 -0.043724626 2.2116189e-39 263 277
-0.066177815 0.67400002 -0.043724626 2.3952913e-39 264 277
-0.065092497 0.67500001 -0.043789499 2.3952913e-39 265 277
-0.063909002 0.67500001 -0.043789499 2.3038145e-39 266 277
-0.062725499 0.67500001 -0.043789499 2.3038145e-39 267 277
-0.061542001 0.67500001 -0.043789499 2.3038145e-39 268 277
-0.060358498 0.67500001 -0.043789499 2.2116189e-39 269 277
-0.059175 0.67500001 -0.043789499 2.3030985e-39 270 277
-0.058077414 0.676 -0.043854371 2.3030985e-39 271 277
-0.056892153 0.676 -0.043854371 2.3030985e-39 272 277
-0.055706903 0.676 -0.043854371 2.3030985e-39 273 277
-0.054521654 0.676 -0.043854371 2.3030957e-39 274 277
-0.053494196 0.67799997 -0.043984115 2.3030957e-39 275 277
-0.052305438 0.67799997 -0.043984115 2.3038117e-39 276 277
-0.051192071 0.67900002 -0.044048995 2.2116161e-39 277 277
-0.050001562 0.67900002 -0.044048995 2.3956444e-39 278 277
-0.048811045 0.67900002 -0.044048995 2.3034488e-39 279 277
-0.047690667 0.68000001 -0.044113863 2.3030929e-39 280 277
-0.046498399 0.68000001 -0.044113863 2.3030929e-39 281 277
-0.045306131 0.68000001 -0.044113863 2.2116189e-39 282 277
-0.044243611 0.68199998 -0.044243611 2.2116189e-39 283 277
-0.043047838 0.68199998 -0.044243611 2.2116161e-39 284 277
-0.041852064 0.68199998 -0.044243611 2.2116161e-39 285 277
-0.040656291 0.68199998 -0.044243611 2.2116161e-39 286 277
-0.039518382 0.68300003 -0.044308487 2.2116161e-39 287 277
-0.038320854 0.68300003 -0.044308487 2.3038117e-39 288 277
-0.037177678 0.68400002 -0.04437336 2.3963661e-39 289 277
-0.035978399 0.68400002 -0.04437336 2.2116161e-39 290 277
-0.03477912 0.68400002 -0.04437336 2.2116161e-39 291 277
-0.033678025 0.68599999 -0.044503104 2.5789595e-39 292 277
-0.032475237 0.68599999 -0.044503104 2.5789595e-39 293 277
-0.031272452 0.68599999 -0.044503104 2.3956444e-39 294 277
-0.030113498 0.68699998 -0.044567976 2.3956444e-39 295 277
-0.02932976 0.69700003 -0.045216713 2.3034488e-39 296 277
-0.028107686 0.69700003 -0.045216713 2.3034488e-39 297 277
-0.026924185 0.69800001 -0.045281585 2.3956472e-39 298 277
-0.025773998 0.69999999 -0.04541133 2.3030929e-39 299 277
-0.024546666 0.69999999 -0.04541133 2.2116161e-39 300 277
-0.023319334 0.69999999 -0.04541133 2.2116161e-39 301 277
-0.022091998 0.69999999 -0.04541133 2.3956444e-39 302 277
-0.020894472 0.70099998 -0.045476202 2.3956444e-39 303 277
-0.019721493 0.70300001 -0.04560595 2.5800315e-39 304 277
-0.018515198 0.704 -0.045670826 2.5800315e-39 305 277
-0.017329946 0.70599997 -0.04580057 2.5800315e-39 306 277
-0.016092092 0.70599997 -0.04580057 2.3956416e-39 307 277
-0.014854239 0.70599997 -0.04580057 2.3041677e-39 308 277
-0.013635674 0.70700002 -0.045865446 2.3041677e-39 309 277
-0.012396066 0.70700002 -0.045865446 2.3034488e-39 310 277
-0.01117224 0.708 -0.045930319 2.3956444e-39 311 277
-0.0099308798 0.708 -0.045930319 2.3956416e-39 312 277
-0.0087140659 0.70999998 -0.046060063 2.3956416e-39 313 277
-0.0074691991 0.70999998 -0.046060063 2.5800287e-39 314 277
-0.0062243328 0.70999998 -0.046060063 2.5800287e-39 315 277
-0.0049864799 0.71100003 -0.046124939 2.5800315e-39 316 277
-0.0037398601 0.71100003 -0.046124939 2.3956416e-39 317 277
-0.0025002533 0.713 -0.046254687 2.3956416e-39 318 277
-0.0012501266 0.713 -0.046254687 2.3956416e-39 319 277
0 0.71399999 -0.046319555 2.3956444e-39 320 277
0.0012553866 0.71600002 -0.046449307 2.3956444e-39 321 277
0.0025107733 0.71600002 -0.046449307 2.3956472e-39 322 277
0.0037714199 0.71700001 -0.046514176 2.3956472e-39 323 277
0.0050285598 0.71700001 -0.046514176 2.5789595e-39 324 277
0.0062857 0.71700001 -0.046514176 2.5789595e-39 325 277
0.0075638802 0.71899998 -0.046643924 2.6700761e-39 326 277
0.0088245263 0.71899998 -0.046643924 2.6700761e-39 327 277
0.010085173 0.71899998 -0.046643924 2.2108973e-39 328 277
0.011361601 0.72000003 -0.0467088 2.2108973e-39 329 277
0.012624 0.72000003 -0.0467088 2.1197764e-39 330 277
0.013924973 0.722 -0.046838548 2.1197764e-39 331 277
0.015190879 0.722 -0.046838548 2.1187016e-39 332 277
0.016456785 0.722 -0.046838548 2.1187016e-39 333 277
0.017747238 0.72299999 -0.046903417 2.1194205e-39 334 277
0.019014901 0.72299999 -0.046903417 2.1194205e-39 335 277
0.020338668 0.72500002 -0.047033165 2.1194205e-39 336 277
0.021609833 0.72500002 -0.047033165 2.2116161e-39 337 277
0.022880999 0.72500002 -0.047033165 2.2116189e-39 338 277
0.024152167 0.72500002 -0.047033165 2.1194233e-39 339 277
0.025493465 0.727 -0.047162913 2.2116189e-39 340 277
0.026768139 0.727 -0.047162913 2.2116189e-39 341 277
0.028042812 0.727 -0.047162913 2.3030957e-39 342 277
0.029357811 0.72799999 -0.047227785 2.3030957e-39 343 277
0.030634239 0.72799999 -0.047227785 2.2116161e-39 344 277
0.031910665 0.72799999 -0.047227785 2.2116161e-39 345 277
0.033278264 0.73000002 -0.047357533 2.2116161e-39 346 277
0.034558199 0.73000002 -0.047357533 2.2116161e-39 347 277
0.035838135 0.73000002 -0.047357533 2.3030929e-39 348 277
0.03798246 0.74699998 -0.048460379 2.3030929e-39 349 277
0.039292198 0.74699998 -0.048460379 2.3956472e-39 350 277
0.040601939 0.74699998 -0.048460379 2.3956472e-39 351 277
-0.10886797 0.722 -0.048104454 1.5204698e-38 234 278
-0.107304 0.72000003 -0.0479712 1.5481644e-38 235 278
-0.10589432 0.71899998 -0.04790457 1.5204348e-38 236 278
-0.10463367 0.71899998 -0.04790457 1.3176044e-38 237 278
-0.10337302 0.71899998 -0.04790457 5.9840811e-39 238 278
-0.10211238 0.71899998 -0.04790457 2.1122234e-39 239 278
-0.100992 0.72000003 -0.0479712 2.6718782e-39 240 278
-0.099591084 0.71899998 -0.04790457 2.3030957e-39 241 278
-0.098330431 0.71899998 -0.04790457 2.1190702e-39 242 278
-0.097069785 0.71899998 -0.04790457 2.3956571e-39 243 278
-0.095809139 0.71899998 -0.04790457 2.9499266e-39 244 278
-0.094680004 0.72000003 -0.0479712 5.4392087e-39 245 278
-0.0934176 0.72000003 -0.0479712 7.2784381e-39 246 278
-0.085371546 0.667 -0.044439986 4.8813517e-39 247 278
-0.084202074 0.667 -0.044439986 3.1342983e-39 248 278
-0.083406061 0.67000002 -0.044639867 2.6733201e-39 249 278
-0.082231335 0.67000002 -0.044639867 2.6715223e-39 250 278
-0.081056595 0.67000002 -0.044639867 2.3030985e-39 251 278
-0.080001086 0.671 -0.044706494 2.1183485e-39 252 278
-0.078824602 0.671 -0.044706494 2.2109029e-39 253 278
-0.077648118 0.671 -0.044706494 2.0279507e-39 254 278
-0.076471634 0.671 -0.044706494 2.0279507e-39 255 278
-0.075295143 0.671 -0.044706494 2.2116217e-39 256 278
-0.074118659 0.671 -0.044706494 2.1190674e-39 257 278
-0.072942175 0.671 -0.044706494 2.1190674e-39 258 278
-0.071765684 0.671 -0.044706494 2.1190674e-39 259 278
-0.0705892 0.671 -0.044706494 2.1190674e-39 260 278
-0.069412716 0.671 -0.044706494 2.1190674e-39 261 278
-0.068337917 0.67199999 -0.044773117 2.2109029e-39 262 278
-0.067359567 0.67400002 -0.044906374 2.2109029e-39 263 278
-0.066177815 0.67400002 -0.044906374 2.2116217e-39 264 278
-0.065092497 0.67500001 -0.044972997 2.2116217e-39 265 278
-0.063909002 0.67500001 -0.044972997 2.3038145e-39 266 278
-0.062725499 0.67500001 -0.044972997 2.3038145e-39 267 278
-0.061542001 0.67500001 -0.044972997 2.2116189e-39 268 278
-0.060358498 0.67500001 -0.044972997 2.2116189e-39 269 278
-0.059175 0.67500001 -0.044972997 2.2116217e-39 270 278
-0.058077414 0.676 -0.045039624 2.1190674e-39 271 278
-0.056892153 0.676 -0.045039624 2.2109029e-39 272 278
-0.055706903 0.676 -0.045039624 2.2109029e-39 273 278
-0.054521654 0.676 -0.045039624 2.1194233e-39 274 278
-0.053494196 0.67799997 -0.045172878 2.2116189e-39 275 278
-0.052305438 0.67799997 -0.045172878 2.2116161e-39 276 278
-0.051192071 0.67900002 -0.045239504 2.2116161e-39 277 278
-0.050001562 0.67900002 -0.045239504 2.211972e-39 278 278
-0.048811045 0.67900002 -0.045239504 2.211972e-39 279 278
-0.047690667 0.68000001 -0.045306131 2.3030929e-39 280 278
-0.046498399 0.68000001 -0.045306131 2.3030929e-39 281 278
-0.045306131 0.68000001 -0.045306131 2.3030929e-39 282 278
-0.044243611 0.68199998 -0.045439381 2.3030929e-39 283 278
-0.043047838 0.68199998 -0.045439381 2.2116161e-39 284 278
-0.041852064 0.68199998 -0.045439381 2.2116161e-39 285 278
-0.040656291 0.68199998 -0.045439381 2.3041677e-39 286 278
-0.039518382 0.68300003 -0.045506012 2.3041677e-39 287 278
-0.038320854 0.68300003 -0.045506012 2.3041677e-39 288 278
-0.037177678 0.68400002 -0.045572639 2.3041677e-39 289 278
-0.035978399 0.68400002 -0.045572639 2.3030929e-39 290 278
-0.03477912 0.68400002 -0.045572639 2.3030929e-39 291 278
-0.033678025 0.68599999 -0.045705888 2.3956472e-39 292 278
-0.032475237 0.68599999 -0.045705888 2.3956472e-39 293 278
-0.031272452 0.68599999 -0.045705888 2.3956444e-39 294 278
-0.030113498 0.68699998 -0.045772515 2.3956444e-39 295 278
-0.029371841 0.69800001 -0.046505414 2.5789567e-39 296 278
-0.028148014 0.69800001 -0.046505414 2.5789567e-39 297 278
-0.027001332 0.69999999 -0.046638668 2.3956472e-39 298 278
-0.025810819 0.70099998 -0.046705291 2.3956472e-39 299 278
-0.024581732 0.70099998 -0.046705291 2.3038117e-39 300 278
-0.023352645 0.70099998 -0.046705291 2.3038117e-39 301 278
-0.02218668 0.70300001 -0.046838548 2.3956444e-39 302 278
-0.020954086 0.70300001 -0.046838548 2.5796756e-39 303 278
-0.019749546 0.704 -0.046905171 2.5800315e-39 304 278
-0.018567799 0.70599997 -0.047038425 2.5800315e-39 305 278
-0.017354494 0.70700002 -0.047105055 2.6715083e-39 306 278
-0.016114887 0.70700002 -0.047105055 2.6715083e-39 307 278
-0.01487528 0.70700002 -0.047105055 2.3956444e-39 308 278
-0.013654959 0.708 -0.047171678 2.3956444e-39 309 278
-0.0124136 0.708 -0.047171678 2.3956416e-39 310 278
-0.011203799 0.70999998 -0.047304932 2.5800315e-39 311 278
-0.0099589331 0.70999998 -0.047304932 2.6715055e-39 312 278
-0.0087140659 0.70999998 -0.047304932 2.6715055e-39 313 278
-0.0074797203 0.71100003 -0.047371563 2.5800315e-39 314 278
-0.0062330998 0.71100003 -0.047371563 2.3956416e-39 315 278
-0.0049864799 0.71100003 -0.047371563 2.3956416e-39 316 278
-0.0037503797 0.713 -0.047504812 2.3956416e-39 317 278
-0.0025002533 0.713 -0.047504812 2.3956444e-39 318 278
-0.0012501266 0.713 -0.047504812 2.3956444e-39 319 278
0 0.71399999 -0.047571439 2.3952913e-39 320 278
0.0012553866 0.71600002 -0.047704693 2.3952913e-39 321 278
0.0025107733 0.71600002 -0.047704693 2.5786036e-39 322 278
0.0037714199 0.71700001 -0.04777132 2.5786036e-39 323 278
0.0050285598 0.71700001 -0.04777132 2.7622718e-39 324 278
0.0062857 0.71700001 -0.04777132 2.7622718e-39 325 278
0.0075638802 0.71899998 -0.04790457 2.7622718e-39 326 278
0.0088245263 0.71899998 -0.04790457 2.6700761e-39 327 278
0.010085173 0.71899998 -0.04790457 2.3945654e-39 328 278
0.011361601 0.72000003 -0.0479712 2.3945654e-39 329 278
0.012659066 0.722 -0.048104454 2.2112532e-39 330 278
0.013924973 0.722 -0.048104454 2.2112532e-39 331 278
0.015190879 0.722 -0.048104454 2.3945654e-39 332 278
0.016456785 0.722 -0.048104454 2.3945654e-39 333 278
0.017747238 0.72299999 -0.048171077 2.3034488e-39 334 278
0.019014901 0.72299999 -0.048171077 2.3034488e-39 335 278
0.020338668 0.72500002 -0.048304334 2.2112532e-39 336 278
0.021609833 0.72500002 -0.048304334 2.2112532e-39 337 278
0.022880999 0.72500002 -0.048304334 2.3945682e-39 338 278
0.024152167 0.72500002 -0.048304334 2.3945682e-39 339 278
0.025528532 0.72799999 -0.048504211 2.3030929e-39 340 278
0.026804959 0.72799999 -0.048504211 2.3956472e-39 341 278
0.028891427 0.74900001 -0.04990337 2.4867639e-39 342 278
0.030204674 0.74900001 -0.04990337 2.5789595e-39 343 278
0.031433757 0.74699998 -0.049770117 2.5796756e-39 344 278
0.032743499 0.74699998 -0.049770117 2.3956444e-39 345 278
0.034053236 0.74699998 -0.049770117 2.6715083e-39 346 278
0.035362978 0.74699998 -0.049770117 2.7637053e-39 347 278
0.039292198 0.74699998 -0.049770117 3.0402852e-39 350 278
-0.107304 0.72000003 -0.0492336 1.557276e-38 235 279
-0.10589432 0.71899998 -0.049165215 1.5112505e-38 236 279
-0.10463367 0.71899998 -0.049165215 1.3452984e-38 237 279
-0.10337302 0.71899998 -0.049165215 5.5259743e-39 238 279
-0.10211238 0.71899998 -0.049165215 1.4693679e-39 239 279
-0.100992 0.72000003 -0.0492336 2.3985283e-39 240 279
-0.099591084 0.71899998 -0.049165215 1.8457133e-39 241 279
-0.098330431 0.71899998 -0.049165215 2.1194205e-39 242 279
-0.097069785 0.71899998 -0.049165215 2.2116161e-39 243 279
-0.095809139 0.71899998 -0.049165215 2.3956641e-39 244 279
-0.087315999 0.66399997 -0.045404319 2.9488364e-39 245 279
-0.086151779 0.66399997 -0.045404319 2.9484805e-39 246 279
-0.084987566 0.66399997 -0.045404319 2.4875038e-39 247 279
-0.084202074 0.667 -0.045609459 2.856638e-39 248 279
-0.083406061 0.67000002 -0.0458146 2.7644424e-39 249 279
-0.082231335 0.67000002 -0.0458146 2.213421e-39 250 279
-0.081056595 0.67000002 -0.0458146 1.936474e-39 251 279
-0.080001086 0.671 -0.045882981 2.2109001e-39 252 279
-0.078824602 0.671 -0.045882981 2.2109001e-39 253 279
-0.077648118 0.671 -0.045882981 2.1194233e-39 254 279
-0.076471634 0.671 -0.045882981 2.2116189e-39 255 279
-0.075295143 0.671 -0.045882981 2.3030985e-39 256 279
-0.074118659 0.671 -0.045882981 2.2109029e-39 257 279
-0.072942175 0.671 -0.045882981 2.2109029e-39 258 279
-0.071765684 0.671 -0.045882981 2.1183485e-39 259 279
-0.0705892 0.671 -0.045882981 2.3942151e-39 260 279
-0.069516152 0.67199999 -0.045951359 2.3942151e-39 261 279
-0.068337917 0.67199999 -0.045951359 2.3938592e-39 262 279
-0.067359567 0.67400002 -0.046088122 2.3938592e-39 263 279
-0.066275999 0.67500001 -0.0461565 2.2116189e-39 264 279
-0.065092497 0.67500001 -0.0461565 2.2116189e-39 265 279
-0.063909002 0.67500001 -0.0461565 2.211972e-39 266 279
-0.062725499 0.67500001 -0.0461565 2.3041677e-39 267 279
-0.061542001 0.67500001 -0.0461565 2.211972e-39 268 279
-0.060358498 0.67500001 -0.0461565 2.211972e-39 269 279
-0.059175 0.67500001 -0.0461565 2.2116161e-39 270 279
-0.058077414 0.676 -0.046224877 2.2116161e-39 271 279
-0.056892153 0.676 -0.046224877 2.3030957e-39 272 279
-0.055706903 0.676 -0.046224877 2.3030957e-39 273 279
-0.054682959 0.67799997 -0.046361636 2.1194233e-39 274 279
-0.053494196 0.67799997 -0.046361636 2.2116189e-39 275 279
-0.052382588 0.67900002 -0.046430022 2.2116189e-39 276 279
-0.051192071 0.67900002 -0.046430022 2.2116189e-39 277 279
-0.050001562 0.67900002 -0.046430022 2.2108973e-39 278 279
-0.048882935 0.68000001 -0.046498399 2.3030929e-39 279 279
-0.047690667 0.68000001 -0.046498399 2.2116161e-39 280 279
-0.046498399 0.68000001 -0.046498399 2.2116161e-39 281 279
-0.045306131 0.68000001 -0.046498399 2.3030929e-39 282 279
-0.044243611 0.68199998 -0.046635158 2.3030929e-39 283 279
-0.043047838 0.68199998 -0.046635158 2.2116161e-39 284 279
-0.041852064 0.68199998 -0.046635158 2.2116161e-39 285 279
-0.040715907 0.68300003 -0.04670354 2.5789567e-39 286 279
-0.039518382 0.68300003 -0.04670354 2.5789567e-39 287 279
-0.038376961 0.68400002 -0.046771921 2.3956444e-39 288 279
-0.037177678 0.68400002 -0.046771921 2.3956444e-39 289 279
-0.036083598 0.68599999 -0.046908677 2.2116189e-39 290 279
-0.034880809 0.68599999 -0.046908677 2.2116189e-39 291 279
-0.033678025 0.68599999 -0.046908677 2.3956472e-39 292 279
-0.032475237 0.68599999 -0.046908677 2.3956472e-39 293 279
-0.031272452 0.68599999 -0.046908677 2.3956444e-39 294 279
-0.030113498 0.68699998 -0.046977058 2.3956444e-39 295 279
-0.029371841 0.69800001 -0.047729239 2.5789567e-39 296 279
-0.028148014 0.69800001 -0.047729239 2.5789567e-39 297 279
-0.027039904 0.70099998 -0.047934376 2.3956444e-39 298 279
-0.025810819 0.70099998 -0.047934376 2.3956444e-39 299 279
-0.024651866 0.70300001 -0.048071139 2.3038117e-39 300 279
-0.023419274 0.70300001 -0.048071139 2.3963661e-39 301 279
-0.02218668 0.70300001 -0.048071139 2.3963661e-39 302 279
-0.020983893 0.704 -0.048139516 2.3963661e-39 303 279
-0.019805651 0.70599997 -0.048276275 2.5796756e-39 304 279
-0.018594101 0.70700002 -0.048344657 2.5796756e-39 305 279
-0.017354494 0.70700002 -0.048344657 2.5789567e-39 306 279
-0.01613768 0.708 -0.048413038 2.6711523e-39 307 279
-0.01489632 0.708 -0.048413038 2.3963661e-39 308 279
-0.013654959 0.708 -0.048413038 2.3038117e-39 309 279
-0.012448666 0.70999998 -0.048549797 2.5796784e-39 310 279
-0.011203799 0.70999998 -0.048549797 2.5796784e-39 311 279
-0.0099729598 0.71100003 -0.048618179 2.5800315e-39 312 279
-0.0087263398 0.71100003 -0.048618179 2.5800315e-39 313 279
-0.0074797203 0.71100003 -0.048618179 2.5789567e-39 314 279
-0.0062330998 0.71100003 -0.048618179 2.5789567e-39 315 279
-0.0049864799 0.71100003 -0.048618179 2.3956472e-39 316 279
-0.0037503797 0.713 -0.048754938 2.5796784e-39 317 279
-0.0025002533 0.713 -0.048754938 2.5793224e-39 318 279
-0.0012501266 0.713 -0.048754938 2.3952913e-39 319 279
0 0.71399999 -0.048823316 2.3952913e-39 320 279
0.0012553866 0.71600002 -0.048960082 2.5793224e-39 321 279
0.0025107733 0.71600002 -0.048960082 2.5796784e-39 322 279
0.0037714199 0.71700001 -0.04902846 2.6718754e-39 323 279
0.0050285598 0.71700001 -0.04902846 2.8544674e-39 324 279
0.0062857 0.71700001 -0.04902846 2.7622718e-39 325 279
0.0075638802 0.71899998 -0.049165215 2.6697202e-39 326 279
0.0088245263 0.71899998 -0.049165215 2.4856891e-39 327 279
0.010085173 0.71899998 -0.049165215 2.3030957e-39 328 279
0.011361601 0.72000003 -0.0492336 2.3030957e-39 329 279
0.012624 0.72000003 -0.0492336 2.2116161e-39 330 279
0.0138864 0.72000003 -0.0492336 2.3038117e-39 331 279
0.0151488 0.72000003 -0.0492336 2.3038117e-39 332 279
0.0164112 0.72000003 -0.0492336 2.3038117e-39 333 279
0.017747238 0.72299999 -0.049438741 2.3041677e-39 334 279
0.019014901 0.72299999 -0.049438741 2.3963633e-39 335 279
0.020338668 0.72500002 -0.0495755 2.3960102e-39 336 279
0.021609833 0.72500002 -0.0495755 2.3960102e-39 337 279
-0.107304 0.72000003 -0.050496001 1.5205773e-38 235 280
-0.1060416 0.72000003 -0.050496001 1.5205054e-38 236 280
-0.1047792 0.72000003 -0.050496001 1.4006511e-38 237 280
-0.10351679 0.72000003 -0.050496001 7.3673561e-39 238 280
-0.10225441 0.72000003 -0.050496001 2.6650231e-39 239 280
-0.100992 0.72000003 -0.050496001 3.1317619e-39 240 280
-0.099729598 0.72000003 -0.050496001 2.9473707e-39 241 280
-0.098330431 0.71899998 -0.050425861 2.3030929e-39 242 280
-0.097069785 0.71899998 -0.050425861 2.3030929e-39 243 280
-0.095809139 0.71899998 -0.050425861 2.3027482e-39 244 280
-0.087315999 0.66399997 -0.046568532 2.5789763e-39 245 280
-0.086151779 0.66399997 -0.046568532 2.0272473e-39 246 280
-0.084987566 0.66399997 -0.046568532 2.4882254e-39 247 280
-0.084202074 0.667 -0.046778932 2.5811245e-39 248 280
-0.083406061 0.67000002 -0.046989333 2.6733201e-39 249 280
-0.082354069 0.671 -0.047059465 2.4889163e-39 250 280
-0.081177577 0.671 -0.047059465 2.3041649e-39 251 280
-0.080001086 0.671 -0.047059465 2.2108973e-39 252 280
-0.078824602 0.671 -0.047059465 2.1187016e-39 253 280
-0.077648118 0.671 -0.047059465 1.9350362e-39 254 280
-0.076471634 0.671 -0.047059465 2.1190674e-39 255 280
-0.075295143 0.671 -0.047059465 2.1190674e-39 256 280
-0.074118659 0.671 -0.047059465 2.2116217e-39 257 280
-0.072942175 0.671 -0.047059465 2.0283067e-39 258 280
-0.071765684 0.671 -0.047059465 1.936111e-39 259 280
-0.070694394 0.67199999 -0.047129598 2.1190674e-39 260 280
-0.069516152 0.67199999 -0.047129598 2.1190674e-39 261 280
-0.068541311 0.67400002 -0.047269866 2.1190702e-39 262 280
-0.067359567 0.67400002 -0.047269866 2.1190702e-39 263 280
-0.066275999 0.67500001 -0.047339998 2.3030957e-39 264 280
-0.065092497 0.67500001 -0.047339998 2.3030957e-39 265 280
-0.063909002 0.67500001 -0.047339998 2.2116161e-39 266 280
-0.062725499 0.67500001 -0.047339998 2.2116161e-39 267 280
-0.061542001 0.67500001 -0.047339998 2.2116161e-39 268 280
-0.060358498 0.67500001 -0.047339998 2.2116161e-39 269 280
-0.059175 0.67500001 -0.047339998 2.3956444e-39 270 280
-0.058077414 0.676 -0.047410134 2.3034488e-39 271 280
-0.056892153 0.676 -0.047410134 2.2116161e-39 272 280
-0.055706903 0.676 -0.047410134 2.2116161e-39 273 280
-0.054682959 0.67799997 -0.047550395 2.2116189e-39 274 280
-0.053494196 0.67799997 -0.047550395 2.2116189e-39 275 280
-0.052382588 0.67900002 -0.047620531 2.3030957e-39 276 280
-0.051192071 0.67900002 -0.047620531 2.3030957e-39 277 280
-0.050075196 0.68000001 -0.047690667 2.2116161e-39 278 280
-0.048882935 0.68000001 -0.047690667 2.2116161e-39 279 280
-0.047690667 0.68000001 -0.047690667 2.5789567e-39 280 280
-0.046635158 0.68199998 -0.047830928 2.5789567e-39 281 280
-0.045439381 0.68199998 -0.047830928 2.5789567e-39 282 280
-0.044243611 0.68199998 -0.047830928 2.5789567e-39 283 280
-0.043047838 0.68199998 -0.047830928 2.3956444e-39 284 280
-0.041852064 0.68199998 -0.047830928 2.3956444e-39 285 280
-0.040715907 0.68300003 -0.047901068 2.5789567e-39 286 280
-0.039518382 0.68300003 -0.047901068 2.5789567e-39 287 280
-0.038376961 0.68400002 -0.0479712 2.5789595e-39 288 280
-0.037286382 0.68599999 -0.048111461 2.5789595e-39 289 280
-0.036083598 0.68599999 -0.048111461 2.5789595e-39 290 280
-0.034880809 0.68599999 -0.048111461 2.5789595e-39 291 280
-0.033678025 0.68599999 -0.048111461 2.3038117e-39 292 280
-0.032475237 0.68599999 -0.048111461 2.3038117e-39 293 280
-0.031272452 0.68599999 -0.048111461 2.3956444e-39 294 280
-0.030069664 0.68599999 -0.048111461 2.3956444e-39 295 280
-0.029498078 0.70099998 -0.049163464 2.5789595e-39 296 280
-0.028268991 0.70099998 -0.049163464 2.5789595e-39 297 280
-0.027117053 0.70300001 -0.049303733 2.3952913e-39 298 280
-0.025884461 0.70300001 -0.049303733 2.3952913e-39 299 280
-0.024651866 0.70300001 -0.049303733 2.3038145e-39 300 280
-0.023419274 0.70300001 -0.049303733 2.3038145e-39 301 280
-0.022218239 0.704 -0.049373865 2.5796784e-39 302 280
-0.020983893 0.704 -0.049373865 2.6718754e-39 303 280
-0.019805651 0.70599997 -0.04951413 2.5800315e-39 304 280
-0.018594101 0.70700002 -0.049584266 2.5800315e-39 305 280
-0.017379038 0.708 -0.049654398 2.6711523e-39 306 280
-0.01613768 0.708 -0.049654398 2.6711523e-39 307 280
-0.014938398 0.70999998 -0.049794663 2.6711551e-39 308 280
-0.013693533 0.70999998 -0.049794663 2.6711551e-39 309 280
-0.012448666 0.70999998 -0.049794663 2.5796756e-39 310 280
-0.01121958 0.71100003 -0.049864799 2.5796756e-39 311 280
-0.0099729598 0.71100003 -0.049864799 2.5793126e-39 312 280
-0.0087263398 0.71100003 -0.049864799 2.6715083e-39 313 280
-0.0074797203 0.71100003 -0.049864799 2.5796756e-39 314 280
-0.0062330998 0.71100003 -0.049864799 2.5796756e-39 315 280
-0.0049864799 0.71100003 -0.049864799 2.6711523e-39 316 280
-0.0037503797 0.713 -0.050005067 2.6711523e-39 317 280
-0.0025002533 0.713 -0.050005067 2.7637081e-39 318 280
-0.0012501266 0.713 -0.050005067 2.7637081e-39 319 280
0 0.71399999 -0.050075196 2.7637081e-39 320 280
0.0012553866 0.71600002 -0.050215468 2.7637081e-39 321 280
0.0025107733 0.71600002 -0.050215468 2.9477392e-39 322 280
0.0037714199 0.71700001 -0.0502856 2.9477392e-39 323 280
0.0050285598 0.71700001 -0.0502856 3.0392132e-39 324 280
0.0062857 0.71700001 -0.0502856 2.9470176e-39 325 280
0.0075428397 0.71700001 -0.0502856 2.9470176e-39 326 280
0.0087877065 0.71600002 -0.050215468 2.9470176e-39 327 280
0.010043093 0.71600002 -0.050215468 2.9480923e-39 328 280
0.011361601 0.72000003 -0.050496001 3.040288e-39 329 280
0.012624 0.72000003 -0.050496001 3.2239576e-39 330 280
0.0138864 0.72000003 -0.050496001 3.2239576e-39 331 280
0.0151488 0.72000003 -0.050496001 3.4083418e-39 332 280
0.0164112 0.72000003 -0.050496001 3.4083418e-39 333 280
0.017673599 0.72000003 -0.050496001 3.593089e-39 334 280
-0.107304 0.72000003 -0.051758397 1.5112858e-38 235 281
-0.1060416 0.72000003 -0.051758397 1.4837357e-38 236 281
-0.10463367 0.71899998 -0.05168651 1.4376738e-38 237 281
-0.10337302 0.71899998 -0.05168651 9.1176437e-39 238 281
-0.10225441 0.72000003 -0.051758397 4.046524e-39 239 281
-0.100992 0.72000003 -0.051758397 2.5843489e-39 240 281
-0.099591084 0.71899998 -0.05168651 1.8467825e-39 241 281
-0.098330431 0.71899998 -0.05168651 2.3041677e-39 242 281
-0.096799776 0.71700001 -0.051542737 2.211972e-39 243 281
-0.095542639 0.71700001 -0.051542737 2.1194233e-39 244 281
-0.087315999 0.66399997 -0.047732744 2.2116189e-39 245 281
-0.086151779 0.66399997 -0.047732744 2.3038117e-39 246 281
-0.08524356 0.66600001 -0.047876518 2.4885631e-39 247 281
-0.084202074 0.667 -0.047948405 2.6736733e-39 248 281
-0.083406061 0.67000002 -0.048164066 2.6736733e-39 249 281
-0.082354069 0.671 -0.048235953 2.489282e-39 250 281
-0.081177577 0.671 -0.048235953 2.0283039e-39 251 281
-0.080001086 0.671 -0.048235953 1.9353922e-39 252 281
-0.078824602 0.671 -0.048235953 1.9353922e-39 253 281
-0.077648118 0.671 -0.048235953 2.1183485e-39 254 281
-0.076471634 0.671 -0.048235953 2.2109029e-39 255 281
-0.075295143 0.671 -0.048235953 2.0279507e-39 256 281
-0.074118659 0.671 -0.048235953 1.9357551e-39 257 281
-0.073050871 0.67199999 -0.04830784 2.2109001e-39 258 281
-0.071872637 0.67199999 -0.04830784 2.2109001e-39 259 281
-0.070694394 0.67199999 -0.04830784 2.3030957e-39 260 281
-0.069516152 0.67199999 -0.04830784 2.3030957e-39 261 281
-0.068541311 0.67400002 -0.048451614 2.3030929e-39 262 281
-0.067359567 0.67400002 -0.048451614 2.3030929e-39 263 281
-0.066275999 0.67500001 -0.048523501 2.2116161e-39 264 281
-0.065092497 0.67500001 -0.048523501 2.2116161e-39 265 281
-0.063909002 0.67500001 -0.048523501 2.2116161e-39 266 281
-0.062725499 0.67500001 -0.048523501 2.2116161e-39 267 281
-0.061542001 0.67500001 -0.048523501 2.2116161e-39 268 281
-0.060358498 0.67500001 -0.048523501 2.2116161e-39 269 281
-0.059262663 0.676 -0.048595384 2.3038145e-39 270 281
-0.058077414 0.676 -0.048595384 2.2116189e-39 271 281
