# .PCD v.7 - Point Cloud Data file format
FIELDS x y z rgb imX imY
SIZE 4 4 4 4 4 4
TYPE F F F F F F
COUNT 1 1 1 1 1 1
WIDTH 831
HEIGHT 1
VIEWPOINT 0 0 0 1 0 0 0
POINTS 831
DATA ascii
-0.043931518 0.69599998 -0.047592476 1.3626809e-38 284 279
-0.042772565 0.69700003 -0.047660861 1.3534615e-38 285 279
-0.041550495 0.69700003 -0.047660861 1.3626809e-38 286 279
-0.040386278 0.69800001 -0.047729239 1.3534615e-38 287 279
-0.039274666 0.69999999 -0.047865998 1.3627527e-38 288 279
-0.038101684 0.70099998 -0.047934376 1.3443497e-38 289 279
-0.036977798 0.70300001 -0.048071139 1.3626809e-38 290 279
-0.035796054 0.704 -0.048139516 1.3534256e-38 291 279
-0.034561705 0.704 -0.048139516 1.3533539e-38 292 279
-0.033469379 0.70700002 -0.048344657 1.3626092e-38 293 279
-0.03227536 0.708 -0.048413038 1.3626809e-38 294 279
-0.031121666 0.70999998 -0.048549797 1.3811198e-38 295 279
-0.029876797 0.70999998 -0.048549797 1.3812274e-38 296 279
-0.028672259 0.71100003 -0.048618179 1.3904468e-38 297 279
-0.027425639 0.71100003 -0.048618179 1.3995586e-38 298 279
-0.026179021 0.71100003 -0.048618179 1.3995586e-38 299 279
-0.024932399 0.71100003 -0.048618179 1.3812274e-38 300 279
-0.023852346 0.71600002 -0.048960082 1.372008e-38 301 279
-0.022691639 0.71899998 -0.049165215 1.3444932e-38 302 279
-0.021520413 0.722 -0.04937036 1.3444932e-38 303 279
-0.020254506 0.722 -0.04937036 1.3719721e-38 304 279
-0.0189886 0.722 -0.04937036 1.3627527e-38 305 279
-0.017722692 0.722 -0.04937036 1.3719003e-38 306 279
-0.01647958 0.72299999 -0.049438741 1.3626809e-38 307 279
-0.015211919 0.72299999 -0.049438741 1.3810121e-38 308 279
-0.01394426 0.72299999 -0.049438741 1.3533539e-38 309 279
-0.012676599 0.72299999 -0.049438741 1.3442062e-38 310 279
-0.01140894 0.72299999 -0.049438741 1.3442062e-38 311 279
-0.010169334 0.72500002 -0.0495755 1.3442062e-38 312 279
-0.0089227129 0.727 -0.049712259 1.3349868e-38 313 279
-0.0076480396 0.727 -0.049712259 1.3349868e-38 314 279
-0.0063733663 0.727 -0.049712259 1.3349868e-38 315 279
-0.0051057064 0.72799999 -0.049780637 1.3349868e-38 316 279
-0.0038292799 0.72799999 -0.049780637 1.3165838e-38 317 279
-0.0025528532 0.72799999 -0.049780637 1.3165479e-38 318 279
-0.0012764266 0.72799999 -0.049780637 1.2980732e-38 319 279
0 0.73000002 -0.0499174 1.2153136e-38 320 279
0.0012799334 0.73000002 -0.0499174 1.2153136e-38 321 279
-0.11126127 0.713 -0.050005067 1.3823567e-38 231 280
-0.11001115 0.713 -0.050005067 1.1057342e-38 232 280
-0.10876101 0.713 -0.050005067 3.4973019e-39 233 280
-0.10766167 0.71399999 -0.050075196 1.8410287e-39 234 280
-0.10670786 0.71600002 -0.050215468 2.8548205e-39 235 280
-0.10545248 0.71600002 -0.050215468 2.669723e-39 236 280
-0.10419709 0.71600002 -0.050215468 2.669723e-39 237 280
-0.10294171 0.71600002 -0.050215468 3.7835059e-44 238 280
-0.10168632 0.71600002 -0.050215468 2.213812e-39 239 280
-0.10043094 0.71600002 -0.050215468 1.06018e-38 240 280
-0.099591084 0.71899998 -0.050425861 1.2445353e-38 241 280
-0.098330431 0.71899998 -0.050425861 1.1614479e-38 242 280
-0.097204804 0.72000003 -0.050496001 9.0330011e-39 243 280
-0.089546233 0.67199999 -0.047129598 5.7154074e-39 244 280
-0.088236496 0.671 -0.047059465 2.580756e-39 245 280
-0.087060012 0.671 -0.047059465 2.0286696e-39 246 280
-0.086011514 0.67199999 -0.047129598 1.936474e-39 247 280
-0.084833272 0.67199999 -0.047129598 1.9353922e-39 248 280
-0.083904013 0.67400002 -0.047269866 1.8428378e-39 249 280
-0.082722262 0.67400002 -0.047269866 1.7506408e-39 250 280
-0.081540518 0.67400002 -0.047269866 1.8428378e-39 251 280
-0.080358773 0.67400002 -0.047269866 1.7509967e-39 252 280
-0.079177029 0.67400002 -0.047269866 1.7509967e-39 253 280
-0.077995278 0.67400002 -0.047269866 1.934309e-39 254 280
-0.076927498 0.67500001 -0.047339998 1.934309e-39 255 280
-0.07563179 0.67400002 -0.047269866 1.9335901e-39 256 280
-0.074450038 0.67400002 -0.047269866 1.9335901e-39 257 280
-0.073376998 0.67500001 -0.047339998 1.9335873e-39 258 280
-0.072193496 0.67500001 -0.047339998 1.9335873e-39 259 280
-0.071010001 0.67500001 -0.047339998 1.9335901e-39 260 280
-0.069826499 0.67500001 -0.047339998 1.9335901e-39 261 280
-0.068744689 0.676 -0.047410134 1.9343062e-39 262 280
-0.06775932 0.67799997 -0.047550395 2.0265032e-39 263 280
-0.066570558 0.67799997 -0.047550395 2.3012782e-39 264 280
-0.065478235 0.67900002 -0.047620531 1.5637146e-39 265 280
-0.064287722 0.67900002 -0.047620531 8.4714756e-39 266 280
-0.063190132 0.68000001 -0.047690667 1.1145149e-38 267 280
-0.061997864 0.68000001 -0.047690667 1.316799e-38 268 280
-0.060984433 0.68199998 -0.047830928 1.316799e-38 269 280
-0.059788663 0.68199998 -0.047830928 1.3812274e-38 270 280
-0.05867881 0.68300003 -0.047901068 1.3904468e-38 271 280
-0.057565439 0.68400002 -0.0479712 1.3997021e-38 272 280
-0.056530971 0.68599999 -0.048111461 1.4089215e-38 273 280
-0.055408835 0.68699998 -0.048181597 1.3997739e-38 274 280
-0.054204296 0.68699998 -0.048181597 1.3997739e-38 275 280
-0.053076908 0.68800002 -0.048251733 1.3814426e-38 276 280
-0.051870614 0.68800002 -0.048251733 1.3629679e-38 277 280
-0.050811596 0.69 -0.048391998 1.3904468e-38 278 280
-0.049673684 0.69099998 -0.04846213 1.372008e-38 279 280
-0.04846213 0.69099998 -0.04846213 1.3443497e-38 280 280
-0.047387339 0.69300002 -0.048602402 1.3443497e-38 281 280
-0.046238903 0.69400001 -0.048672531 1.325875e-38 282 280
-0.045022093 0.69400001 -0.048672531 1.325875e-38 283 280
-0.043931518 0.69599998 -0.048812799 1.325875e-38 284 280
-0.042772565 0.69700003 -0.048882935 1.325875e-38 285 280
-0.041610107 0.69800001 -0.048953064 1.3350944e-38 286 280
-0.040386278 0.69800001 -0.048953064 1.3443138e-38 287 280
-0.039330769 0.70099998 -0.049163464 1.3443497e-38 288 280
-0.038210396 0.70300001 -0.049303733 1.3443497e-38 289 280
-0.037030395 0.704 -0.049373865 1.3442062e-38 290 280
-0.035796054 0.704 -0.049373865 1.3442062e-38 291 280
-0.034659892 0.70599997 -0.04951413 1.3442062e-38 292 280
-0.033516716 0.708 -0.049654398 1.3442062e-38 293 280
-0.032366529 0.70999998 -0.049794663 1.3626809e-38 294 280
-0.031165501 0.71100003 -0.049864799 1.3719003e-38 295 280
-0.030003037 0.713 -0.050005067 1.3536409e-38 296 280
-0.028752912 0.713 -0.050005067 1.3536409e-38 297 280
-0.027425639 0.71100003 -0.049864799 1.372008e-38 298 280
-0.026179021 0.71100003 -0.049864799 1.3627527e-38 299 280
-0.024932399 0.71100003 -0.049864799 1.3627527e-38 300 280
-0.023852346 0.71600002 -0.050215468 1.3443497e-38 301 280
-0.022691639 0.71899998 -0.050425861 1.3443497e-38 302 280
-0.021520413 0.722 -0.050636265 1.3351303e-38 303 280
-0.020254506 0.722 -0.050636265 1.3442062e-38 304 280
-0.0189886 0.722 -0.050636265 1.3442062e-38 305 280
-0.017722692 0.722 -0.050636265 1.3349868e-38 306 280
-0.01647958 0.72299999 -0.050706398 1.3349868e-38 307 280
-0.015211919 0.72299999 -0.050706398 1.3166556e-38 308 280
-0.01394426 0.72299999 -0.050706398 1.3074003e-38 309 280
-0.012676599 0.72299999 -0.050706398 1.2798855e-38 310 280
-0.01140894 0.72299999 -0.050706398 1.2798855e-38 311 280
-0.01014128 0.72299999 -0.050706398 1.2523348e-38 312 280
-0.0089227129 0.727 -0.050986931 1.2523348e-38 313 280
-0.0076480396 0.727 -0.050986931 1.2798855e-38 314 280
-0.0063733663 0.727 -0.050986931 1.2614825e-38 315 280
-0.0051057064 0.72799999 -0.051057063 1.2247124e-38 316 280
-0.0038292799 0.72799999 -0.051057063 1.2062377e-38 317 280
-0.0025598668 0.73000002 -0.051197331 1.1785804e-38 318 280
-0.11126127 0.713 -0.051255193 1.456005e-38 231 281
-0.11001115 0.713 -0.051255193 1.2255529e-38 232 281
-0.10876101 0.713 -0.051255193 4.4189008e-39 233 281
-0.10766167 0.71399999 -0.05132708 1.9335901e-39 234 281
-0.10670786 0.71600002 -0.051470853 3.0399377e-39 235 281
-0.10545248 0.71600002 -0.051470853 2.4856919e-39 236 281
-0.10419709 0.71600002 -0.051470853 2.3934962e-39 237 281
-0.10294171 0.71600002 -0.051470853 6.4683377e-40 238 281
-0.10182834 0.71700001 -0.051542737 7.390294e-40 239 281
-0.1005712 0.71700001 -0.051542737 4.8835223e-39 240 281
-0.09917555 0.71600002 -0.051470853 4.0534029e-39 241 281
-0.097920164 0.71600002 -0.051470853 2.7594047e-39 242 281
-0.097204804 0.72000003 -0.051758397 2.1140353e-39 243 281
-0.089546233 0.67199999 -0.04830784 2.2091008e-39 244 281
-0.088367991 0.67199999 -0.04830784 2.6697202e-39 245 281
-0.087189756 0.67199999 -0.04830784 2.3952941e-39 246 281
-0.086011514 0.67199999 -0.04830784 2.2109029e-39 247 281
-0.084833272 0.67199999 -0.04830784 2.0265088e-39 248 281
-0.083904013 0.67400002 -0.048451614 2.0265088e-39 249 281
-0.082722262 0.67400002 -0.048451614 1.751717e-39 250 281
-0.081540518 0.67400002 -0.048451614 1.5673257e-39 251 281
-0.080358773 0.67400002 -0.048451614 1.7509939e-39 252 281
-0.079177029 0.67400002 -0.048451614 1.6587983e-39 253 281
-0.078110993 0.67500001 -0.048523501 1.750275e-39 254 281
-0.076927498 0.67500001 -0.048523501 1.750275e-39 255 281
-0.075743996 0.67500001 -0.048523501 1.9335873e-39 256 281
-0.074560501 0.67500001 -0.048523501 1.9335873e-39 257 281
-0.073376998 0.67500001 -0.048523501 2.1172555e-39 258 281
-0.072193496 0.67500001 -0.048523501 2.2094511e-39 259 281
-0.071115203 0.676 -0.048595384 2.0261389e-39 260 281
-0.069929942 0.676 -0.048595384 2.0261389e-39 261 281
-0.068744689 0.676 -0.048595384 1.9346621e-39 262 281
-0.06775932 0.67799997 -0.048739154 2.0268591e-39 263 281
-0.066570558 0.67799997 -0.048739154 2.1168841e-39 264 281
-0.065381795 0.67799997 -0.048739154 1.6562675e-39 265 281
-0.064287722 0.67900002 -0.048811045 8.6555067e-39 266 281
-0.063190132 0.68000001 -0.048882935 1.132918e-38 267 281
-0.061997864 0.68000001 -0.048882935 1.3353814e-38 268 281
-0.060984433 0.68199998 -0.049026705 1.3353814e-38 269 281
-0.059788663 0.68199998 -0.049026705 1.3904827e-38 270 281
-0.05867881 0.68300003 -0.049098592 1.3904827e-38 271 281
-0.057565439 0.68400002 -0.049170479 1.408778e-38 272 281
-0.056530971 0.68599999 -0.049314249 1.408778e-38 273 281
-0.055408835 0.68699998 -0.049386136 1.3812274e-38 274 281
-0.054204296 0.68699998 -0.049386136 1.372008e-38 275 281
-0.053076908 0.68800002 -0.049458027 1.3719362e-38 276 281
-0.052021399 0.69 -0.049601797 1.3626809e-38 277 281
-0.050885238 0.69099998 -0.049673684 1.3351303e-38 278 281
-0.049673684 0.69099998 -0.049673684 1.3351303e-38 279 281
-0.048602402 0.69300002 -0.049817458 1.3442062e-38 280 281
-0.047455717 0.69400001 -0.049889345 1.3442062e-38 281 281
-0.046238903 0.69400001 -0.049889345 1.325875e-38 282 281
-0.045151837 0.69599998 -0.050033119 1.3350944e-38 283 281
-0.043931518 0.69599998 -0.050033119 1.3259467e-38 284 281
-0.042772565 0.69700003 -0.050105009 1.335202e-38 285 281
-0.041729331 0.69999999 -0.050320663 1.3443497e-38 286 281
-0.040502001 0.69999999 -0.050320663 1.3443497e-38 287 281
-0.039330769 0.70099998 -0.050392549 1.3626809e-38 288 281
-0.038264744 0.704 -0.050608214 1.3534615e-38 289 281
-0.037030395 0.704 -0.050608214 1.325875e-38 290 281
-0.035897743 0.70599997 -0.050751984 1.3166556e-38 291 281
-0.034708988 0.70700002 -0.050823875 1.325875e-38 292 281
-0.033611398 0.70999998 -0.051039528 1.325875e-38 293 281
-0.032412119 0.71100003 -0.051111419 1.3534256e-38 294 281
-0.031253166 0.713 -0.051255193 1.3534256e-38 295 281
-0.030003037 0.713 -0.051255193 1.3534615e-38 296 281
-0.028752912 0.713 -0.051255193 1.3534615e-38 297 281
-0.027425639 0.71100003 -0.051111419 1.3442062e-38 298 281
-0.026179021 0.71100003 -0.051111419 1.3442062e-38 299 281
-0.024932399 0.71100003 -0.051111419 1.3442062e-38 300 281
-0.023852346 0.71600002 -0.051470853 1.3442062e-38 301 281
-0.022691639 0.71899998 -0.05168651 1.3166556e-38 302 281
-0.021520413 0.722 -0.051902171 1.325875e-38 303 281
-0.020282559 0.72299999 -0.051974058 1.3349868e-38 304 281
-0.019014901 0.72299999 -0.051974058 1.3349868e-38 305 281
-0.017747238 0.72299999 -0.051974058 1.3165479e-38 306 281
-0.01647958 0.72299999 -0.051974058 1.3165479e-38 307 281
-0.015211919 0.72299999 -0.051974058 1.2889973e-38 308 281
-0.01394426 0.72299999 -0.051974058 1.2797779e-38 309 281
-0.012676599 0.72299999 -0.051974058 1.2430081e-38 310 281
-0.01140894 0.72299999 -0.051974058 1.2337526e-38 311 281
-0.01014128 0.72299999 -0.051974058 1.1785085e-38 312 281
-0.0089227129 0.727 -0.052261602 1.1600694e-38 313 281
-0.0076480396 0.727 -0.052261602 1.0864942e-38 314 281
-0.0063733663 0.727 -0.052261602 1.0957138e-38 315 281
-0.11016544 0.71399999 -0.052578956 1.317856e-38 232 282
-0.10891356 0.71399999 -0.052578956 5.3419319e-39 233 282
-0.10766167 0.71399999 -0.052578956 2.3016481e-39 234 282
-0.10670786 0.71600002 -0.052726239 2.8548205e-39 235 282
-0.10545248 0.71600002 -0.052726239 2.6700761e-39 236 282
-0.10419709 0.71600002 -0.052726239 2.3938494e-39 237 282
-0.10294171 0.71600002 -0.052726239 1.935039e-39 238 282
-0.10168632 0.71600002 -0.052726239 1.4737008e-39 239 282
-0.1005712 0.71700001 -0.052799881 2.5800525e-39 240 282
-0.09917555 0.71600002 -0.052726239 2.4878569e-39 241 282
-0.097920164 0.71600002 -0.052726239 2.3005804e-39 242 282
-0.096664771 0.71600002 -0.052726239 2.6690041e-39 243 282
-0.089546233 0.67199999 -0.049486078 2.763355e-39 244 282
-0.088367991 0.67199999 -0.049486078 2.763355e-39 245 282
-0.087189756 0.67199999 -0.049486078 2.7622746e-39 246 282
-0.086011514 0.67199999 -0.049486078 2.3934934e-39 247 282
-0.085085757 0.67400002 -0.049633358 1.8431937e-39 248 282
-0.083904013 0.67400002 -0.049633358 1.8431937e-39 249 282
-0.082722262 0.67400002 -0.049633358 1.5676816e-39 250 282
-0.081540518 0.67400002 -0.049633358 1.5676816e-39 251 282
-0.080358773 0.67400002 -0.049633358 1.475486e-39 252 282
-0.079294503 0.67500001 -0.049706999 1.475486e-39 253 282
-0.078110993 0.67500001 -0.049706999 1.5666026e-39 254 282
-0.076927498 0.67500001 -0.049706999 1.6587983e-39 255 282
-0.075743996 0.67500001 -0.049706999 1.750275e-39 256 282
-0.074560501 0.67500001 -0.049706999 1.750275e-39 257 282
-0.073376998 0.67500001 -0.049706999 1.9339432e-39 258 282
-0.072300449 0.676 -0.049780637 2.0261389e-39 259 282
-0.071115203 0.676 -0.049780637 1.9346621e-39 260 282
-0.069929942 0.676 -0.049780637 1.9346621e-39 261 282
-0.068744689 0.676 -0.049780637 1.7509911e-39 262 282
-0.06775932 0.67799997 -0.049927916 1.8435469e-39 263 282
-0.066570558 0.67799997 -0.049927916 2.117603e-39 264 282
-0.065381795 0.67799997 -0.049927916 1.3800436e-39 265 282
-0.064287722 0.67900002 -0.050001562 8.2874473e-39 266 282
-0.063190132 0.68000001 -0.050075196 1.0868925e-38 267 282
-0.061997864 0.68000001 -0.050075196 1.2985037e-38 268 282
-0.060984433 0.68199998 -0.050222475 1.3077231e-38 269 282
-0.059788663 0.68199998 -0.050222475 1.3811915e-38 270 282
-0.05867881 0.68300003 -0.05029612 1.3719721e-38 271 282
-0.057733759 0.68599999 -0.050517038 1.3627527e-38 272 282
-0.056530971 0.68599999 -0.050517038 1.3443497e-38 273 282
-0.055408835 0.68699998 -0.050590675 1.3627527e-38 274 282
-0.054283202 0.68800002 -0.050664321 1.3443497e-38 275 282
-0.053231198 0.69 -0.050811596 1.3259467e-38 276 282
-0.052096792 0.69099998 -0.050885238 1.3167273e-38 277 282
-0.050885238 0.69099998 -0.050885238 1.3167273e-38 278 282
-0.049817458 0.69300002 -0.051032521 1.3167273e-38 279 282
-0.048602402 0.69300002 -0.051032521 1.3167273e-38 280 282
-0.047592476 0.69599998 -0.051253434 1.3167273e-38 281 282
-0.046372157 0.69599998 -0.051253434 1.3259467e-38 282 282
-0.045151837 0.69599998 -0.051253434 1.3351661e-38 283 282
-0.043994639 0.69700003 -0.051327083 1.3168349e-38 284 282
-0.042833932 0.69800001 -0.051400717 1.3260902e-38 285 282
-0.041729331 0.69999999 -0.051547997 1.3444214e-38 286 282
-0.040502001 0.69999999 -0.051547997 1.335202e-38 287 282
-0.039442986 0.70300001 -0.051768921 1.3350944e-38 288 282
-0.038264744 0.704 -0.051842559 1.325875e-38 289 282
-0.037030395 0.704 -0.051842559 1.3074003e-38 290 282
-0.035796054 0.704 -0.051842559 1.3074003e-38 291 282
-0.034708988 0.70700002 -0.05206348 1.3074003e-38 292 282
-0.033611398 0.70999998 -0.052284397 1.3166556e-38 293 282
-0.032503292 0.713 -0.052505318 1.325875e-38 294 282
-0.031253166 0.713 -0.052505318 1.3166556e-38 295 282
-0.030003037 0.713 -0.052505318 1.325875e-38 296 282
-0.028752912 0.713 -0.052505318 1.3166556e-38 297 282
-0.027425639 0.71100003 -0.052358042 1.3166556e-38 298 282
-0.026179021 0.71100003 -0.052358042 1.3074003e-38 299 282
-0.024932399 0.71100003 -0.052358042 1.2890332e-38 300 282
-0.023685781 0.71100003 -0.052358042 1.2798137e-38 301 282
-0.021550218 0.72299999 -0.053241719 1.2614466e-38 303 282
-0.020282559 0.72299999 -0.053241719 1.2430078e-38 304 282
-0.019014901 0.72299999 -0.053241719 1.2522631e-38 305 282
-0.017747238 0.72299999 -0.053241719 1.2153864e-38 306 282
-0.01647958 0.72299999 -0.053241719 1.2338256e-38 307 282
-0.015211919 0.72299999 -0.053241719 1.1969851e-38 308 282
-0.01394426 0.72299999 -0.053241719 1.1785101e-38 309 282
-0.012676599 0.72299999 -0.053241719 1.1142252e-38 310 282
-0.01140894 0.72299999 -0.053241719 1.0589079e-38 311 282
-0.010169334 0.72500002 -0.053388998 9.8533282e-39 312 282
-0.0089349858 0.72799999 -0.053609919 9.8533282e-39 313 282
-0.0076585598 0.72799999 -0.053609919 9.3019705e-39 314 282
-0.11047403 0.71600002 -0.053981625 1.4007962e-38 232 283
-0.10921864 0.71600002 -0.053981625 6.4475606e-39 233 283
-0.10796325 0.71600002 -0.053981625 2.9466476e-39 234 283
-0.10670786 0.71600002 -0.053981625 3.1310389e-39 235 283
-0.10545248 0.71600002 -0.053981625 2.8548205e-39 236 283
-0.10419709 0.71600002 -0.053981625 2.3938438e-39 237 283
-0.10294171 0.71600002 -0.053981625 1.9350362e-39 238 283
-0.10168632 0.71600002 -0.053981625 2.2116217e-39 239 283
-0.10043094 0.71600002 -0.053981625 2.3974619e-39 240 283
-0.09917555 0.71600002 -0.053981625 2.7658857e-39 241 283
-0.097920164 0.71600002 -0.053981625 3.6842351e-39 242 283
-0.096664771 0.71600002 -0.053981625 3.5920394e-39 243 283
-0.089546233 0.67199999 -0.050664317 3.22361e-39 244 283
-0.088367991 0.67199999 -0.050664317 3.0392188e-39 245 283
-0.087189756 0.67199999 -0.050664317 2.7622718e-39 246 283
-0.086011514 0.67199999 -0.050664317 2.3938494e-39 247 283
-0.085085757 0.67400002 -0.050815105 1.7509939e-39 248 283
-0.083904013 0.67400002 -0.050815105 1.8431909e-39 249 283
-0.082722262 0.67400002 -0.050815105 1.7509911e-39 250 283
-0.081540518 0.67400002 -0.050815105 1.7509911e-39 251 283
-0.080358773 0.67400002 -0.050815105 1.5676788e-39 252 283
-0.079294503 0.67500001 -0.050890498 1.4754832e-39 253 283
-0.078110993 0.67500001 -0.050890498 1.6587955e-39 254 283
-0.076927498 0.67500001 -0.050890498 1.6587955e-39 255 283
-0.075743996 0.67500001 -0.050890498 1.7502722e-39 256 283
-0.074560501 0.67500001 -0.050890498 1.7502722e-39 257 283
-0.073485702 0.676 -0.050965894 1.7502722e-39 258 283
-0.072300449 0.676 -0.050965894 1.9346621e-39 259 283
-0.071115203 0.676 -0.050965894 1.9346621e-39 260 283
-0.069929942 0.676 -0.050965894 2.0268591e-39 261 283
-0.068744689 0.676 -0.050965894 1.8435441e-39 262 283
-0.06775932 0.67799997 -0.051116679 1.9357397e-39 263 283
-0.066570558 0.67799997 -0.051116679 2.3016313e-39 264 283
-0.065478235 0.67900002 -0.051192071 1.8402972e-39 265 283
-0.064287722 0.67900002 -0.051192071 8.2878004e-39 266 283
-0.063190132 0.68000001 -0.051267464 1.0685246e-38 267 283
-0.061997864 0.68000001 -0.051267464 1.2432589e-38 268 283
-0.060984433 0.68199998 -0.051418249 1.2525142e-38 269 283
-0.059788663 0.68199998 -0.051418249 1.3259467e-38 270 283
-0.058764715 0.68400002 -0.051569041 1.3259467e-38 271 283
-0.057733759 0.68599999 -0.051719822 1.3351303e-38 272 283
-0.056613375 0.68699998 -0.051795214 1.3351303e-38 273 283
-0.055489492 0.68800002 -0.051870614 1.335202e-38 274 283
-0.054440998 0.69 -0.052021399 1.335202e-38 275 283
-0.053308345 0.69099998 -0.052096792 1.3168349e-38 276 283
-0.05224758 0.69300002 -0.05224758 1.3076155e-38 277 283
-0.051032521 0.69300002 -0.05224758 1.3259467e-38 278 283
-0.049889345 0.69400001 -0.052322973 1.3259467e-38 279 283
-0.048672531 0.69400001 -0.052322973 1.3168349e-38 280 283
-0.047592476 0.69599998 -0.052473757 1.3168349e-38 281 283
-0.046438783 0.69700003 -0.052549154 1.3168349e-38 282 283
-0.045216713 0.69700003 -0.052549154 1.3260902e-38 283 283
-0.043994639 0.69700003 -0.052549154 1.3260902e-38 284 283
-0.042833932 0.69800001 -0.052624546 1.3168349e-38 285 283
-0.041729331 0.69999999 -0.052775331 1.335202e-38 286 283
-0.040559858 0.70099998 -0.052850723 1.3259467e-38 287 283
-0.039442986 0.70300001 -0.053001512 1.3167273e-38 288 283
-0.038264744 0.704 -0.053076904 1.2891049e-38 289 283
-0.037030395 0.704 -0.053076904 1.2705943e-38 290 283
-0.035796054 0.704 -0.053076904 1.2705943e-38 291 283
-0.032548878 0.71399999 -0.053830836 1.3166197e-38 294 283
-0.031296998 0.71399999 -0.053830836 1.3166197e-38 295 283
-0.030045118 0.71399999 -0.053830836 1.3166197e-38 296 283
-0.028793238 0.71399999 -0.053830836 1.3074003e-38 297 283
-0.027502786 0.713 -0.053755447 1.2798137e-38 298 283
-0.026252659 0.713 -0.053755447 1.2614108e-38 299 283
-0.015296079 0.727 -0.054810952 1.1600735e-38 308 283
-0.014021406 0.727 -0.054810952 1.1508539e-38 309 283
-0.012746733 0.727 -0.054810952 1.0773122e-38 310 283
-0.11047403 0.71600002 -0.055237014 1.4377457e-38 232 284
-0.10921864 0.71600002 -0.055237014 7.6475359e-39 233 284
-0.10796325 0.71600002 -0.055237014 3.4083418e-39 234 284
-0.10670786 0.71600002 -0.055237014 2.7629724e-39 235 284
-0.10545248 0.71600002 -0.055237014 2.7626221e-39 236 284
-0.10419709 0.71600002 -0.055237014 2.4863953e-39 237 284
-0.10294171 0.71600002 -0.055237014 1.8439126e-39 238 284
-0.10168632 0.71600002 -0.055237014 2.0283039e-39 239 284
-0.10043094 0.71600002 -0.055237014 2.3967332e-39 240 284
-0.09917555 0.71600002 -0.055237014 2.8580701e-39 241 284
-0.097920164 0.71600002 -0.055237014 3.226847e-39 242 284
-0.096664771 0.71600002 -0.055237014 3.3190427e-39 243 284
-0.089546233 0.67199999 -0.051842555 3.225045e-39 244 284
-0.088367991 0.67199999 -0.051842555 2.764427e-39 245 284
-0.087189756 0.67199999 -0.051842555 2.6700733e-39 246 284
-0.086011514 0.67199999 -0.051842555 2.3016509e-39 247 284
-0.085085757 0.67400002 -0.051996857 1.8435469e-39 248 284
-0.083904013 0.67400002 -0.051996857 1.8435469e-39 249 284
-0.082722262 0.67400002 -0.051996857 1.8435441e-39 250 284
-0.0816615 0.67500001 -0.052074 1.751347e-39 251 284
-0.080477998 0.67500001 -0.052074 1.6587955e-39 252 284
-0.079294503 0.67500001 -0.052074 1.7509911e-39 253 284
-0.078110993 0.67500001 -0.052074 1.7509911e-39 254 284
-0.076927498 0.67500001 -0.052074 1.7509911e-39 255 284
-0.075743996 0.67500001 -0.052074 1.7509911e-39 256 284
-0.074560501 0.67500001 -0.052074 1.7509911e-39 257 284
-0.073485702 0.676 -0.052151144 1.751347e-39 258 284
-0.072300449 0.676 -0.052151144 1.751347e-39 259 284
-0.071115203 0.676 -0.052151144 1.751347e-39 260 284
-0.069929942 0.676 -0.052151144 1.8435441e-39 261 284
-0.068744689 0.676 -0.052151144 1.9360956e-39 262 284
-0.06775932 0.67799997 -0.052305438 2.1201267e-39 263 284
-0.066570558 0.67799997 -0.052305438 2.4860198e-39 264 284
-0.065381795 0.67799997 -0.052305438 2.0250444e-39 265 284
-0.064287722 0.67900002 -0.052382588 8.3799988e-39 266 284
-0.063190132 0.68000001 -0.052459732 1.0868922e-38 267 284
-0.061997864 0.68000001 -0.052459732 1.2247483e-38 268 284
-0.061073858 0.68300003 -0.052691177 1.2615901e-38 269 284
-0.059876334 0.68300003 -0.052691177 1.2983961e-38 270 284
-0.058936544 0.68599999 -0.05292261 1.3076155e-38 271 284
-0.057817914 0.68699998 -0.052999757 1.3167273e-38 272 284
-0.056695789 0.68800002 -0.053076908 1.3259467e-38 273 284
-0.055650797 0.69 -0.053231198 1.3168349e-38 274 284
-0.054519895 0.69099998 -0.053308345 1.3168349e-38 275 284
-0.053462639 0.69300002 -0.053462639 1.3168349e-38 276 284
-0.05224758 0.69300002 -0.053462639 1.3076155e-38 277 284
-0.051106159 0.69400001 -0.053539783 1.3168349e-38 278 284
-0.049889345 0.69400001 -0.053539783 1.3168349e-38 279 284
-0.048812799 0.69599998 -0.053694077 1.3076872e-38 280 284
-0.047660861 0.69700003 -0.053771228 1.3076872e-38 281 284
-0.046438783 0.69700003 -0.053771228 1.3168349e-38 282 284
-0.045281585 0.69800001 -0.053848371 1.3168349e-38 283 284
-0.04405776 0.69800001 -0.053848371 1.3259467e-38 284 284
-0.042956665 0.69999999 -0.054002665 1.3167273e-38 285 284
-0.041729331 0.69999999 -0.054002665 1.3074003e-38 286 284
-0.040559858 0.70099998 -0.054079808 1.2705226e-38 287 284
-0.039442986 0.70300001 -0.054234106 1.215493e-38 288 284
-0.032548878 0.71399999 -0.05508272 1.2062018e-38 294 284
-0.031296998 0.71399999 -0.05508272 1.2154214e-38 295 284
-0.030045118 0.71399999 -0.05508272 1.2061665e-38 296 284
-0.028793238 0.71399999 -0.05508272 1.2061665e-38 297 284
-0.02754136 0.71399999 -0.05508272 1.1970571e-38 298 284
-0.10921864 0.71600002 -0.056492399 9.4921646e-39 233 285
-0.10796325 0.71600002 -0.056492399 4.88203e-39 234 285
-0.10670786 0.71600002 -0.056492399 2.8537261e-39 235 285
-0.10545248 0.71600002 -0.056492399 2.3949158e-39 236 285
-0.10419709 0.71600002 -0.056492399 2.4871114e-39 237 285
-0.10265416 0.71399999 -0.0563346 1.9364614e-39 238 285
-0.10140228 0.71399999 -0.0563346 1.9364614e-39 239 285
-0.10015039 0.71399999 -0.0563346 2.2126979e-39 240 285
-0.098898515 0.71399999 -0.0563346 2.8580673e-39 241 285
-0.097646631 0.71399999 -0.0563346 3.1364465e-39 242 285
-0.096394755 0.71399999 -0.0563346 3.1364465e-39 243 285
-0.089812748 0.67400002 -0.053178601 3.9604464e-39 244 285
-0.088631004 0.67400002 -0.053178601 3.315077e-39 245 285
-0.087189756 0.67199999 -0.053020798 2.9452183e-39 246 285
-0.086011514 0.67199999 -0.053020798 2.4842401e-39 247 285
-0.085085757 0.67400002 -0.053178601 2.1183359e-39 248 285
-0.083904013 0.67400002 -0.053178601 2.1183359e-39 249 285
-0.082722262 0.67400002 -0.053178601 1.9346593e-39 250 285
-0.0816615 0.67500001 -0.053257499 1.9346593e-39 251 285
-0.080477998 0.67500001 -0.053257499 1.751347e-39 252 285
-0.079294503 0.67500001 -0.053257499 1.751347e-39 253 285
-0.078110993 0.67500001 -0.053257499 1.5676788e-39 254 285
-0.077041462 0.676 -0.053336397 1.5676788e-39 255 285
-0.075856209 0.676 -0.053336397 1.5676788e-39 256 285
-0.074670963 0.676 -0.053336397 1.5676788e-39 257 285
-0.073485702 0.676 -0.053336397 1.751347e-39 258 285
-0.072300449 0.676 -0.053336397 1.751347e-39 259 285
-0.071115203 0.676 -0.053336397 1.7520673e-39 260 285
-0.069929942 0.676 -0.053336397 1.8442629e-39 261 285
-0.068948075 0.67799997 -0.053494196 2.3027201e-39 262 285
-0.06775932 0.67799997 -0.053494196 2.3027201e-39 263 285
-0.066570558 0.67799997 -0.053494196 2.5774965e-39 264 285
-0.065381795 0.67799997 -0.053494196 2.3931039e-39 265 285
-0.064287722 0.67900002 -0.053573098 8.6565857e-39 266 285
-0.063190132 0.68000001 -0.053652 1.1145868e-38 267 285
-0.062180214 0.68199998 -0.053809796 1.2247842e-38 268 285
-0.061163284 0.68400002 -0.053967599 1.2432589e-38 269 285
-0.059964001 0.68400002 -0.053967599 1.2983961e-38 270 285
-0.059022456 0.68699998 -0.054204296 1.3076155e-38 271 285
-0.057902083 0.68800002 -0.054283202 1.3259467e-38 272 285
-0.0568606 0.69 -0.054440998 1.3259467e-38 273 285
-0.055731449 0.69099998 -0.054519895 1.3259467e-38 274 285
-0.054677699 0.69300002 -0.054677699 1.3259467e-38 275 285
-0.053462639 0.69300002 -0.054677699 1.3168349e-38 276 285
-0.052322973 0.69400001 -0.054756597 1.3076155e-38 277 285
-0.051106159 0.69400001 -0.054756597 1.3168349e-38 278 285
-0.050033119 0.69599998 -0.054914396 1.3260902e-38 279 285
-0.048882935 0.69700003 -0.054993302 1.3168349e-38 280 285
-0.047729239 0.69800001 -0.0550722 1.3168349e-38 281 285
-0.046505414 0.69800001 -0.0550722 1.3167273e-38 282 285
-0.045281585 0.69800001 -0.0550722 1.3167273e-38 283 285
-0.04405776 0.69800001 -0.0550722 1.289069e-38 284 285
-0.042956665 0.69999999 -0.055229999 1.2798496e-38 285 285
-0.041788943 0.70099998 -0.055308893 1.2430078e-38 286 285
-0.031296998 0.71399999 -0.0563346 1.1602157e-38 295 285
-0.030045118 0.71399999 -0.0563346 1.1509608e-38 296 285
-0.028793238 0.71399999 -0.0563346 1.1601804e-38 297 285
-0.10796325 0.71600002 -0.057747785 7.0922111e-39 234 286
-0.10670786 0.71600002 -0.057747785 3.3121903e-39 235 286
-0.10515791 0.71399999 -0.057586476 2.3041649e-39 236 286
-0.10390604 0.71399999 -0.057586476 2.3041649e-39 237 286
-0.10265416 0.71399999 -0.057586476 1.6606003e-39 238 286
-0.10140228 0.71399999 -0.057586476 1.752796e-39 239 286
-0.10015039 0.71399999 -0.057586476 2.5793224e-39 240 286
-0.098898515 0.71399999 -0.057586476 3.2246918e-39 241 286
-0.097646631 0.71399999 -0.057586476 3.5023549e-39 242 286
-0.090994492 0.67400002 -0.054360349 3.8714976e-39 243 286
-0.089812748 0.67400002 -0.054360349 3.7774971e-39 244 286
-0.088631004 0.67400002 -0.054360349 3.224682e-39 245 286
-0.087449253 0.67400002 -0.054360349 2.6693545e-39 246 286
-0.086267509 0.67400002 -0.054360349 2.5771588e-39 247 286
-0.085085757 0.67400002 -0.054360349 2.0265032e-39 248 286
-0.084028497 0.67500001 -0.054441001 2.0265032e-39 249 286
-0.082844995 0.67500001 -0.054441001 1.8442657e-39 250 286
-0.0816615 0.67500001 -0.054441001 1.7517114e-39 251 286
-0.080477998 0.67500001 -0.054441001 1.7509911e-39 252 286
-0.079411969 0.676 -0.054521654 1.6587955e-39 253 286
-0.078226723 0.676 -0.054521654 1.5665998e-39 254 286
-0.077041462 0.676 -0.054521654 1.7509911e-39 255 286
-0.075856209 0.676 -0.054521654 1.5676788e-39 256 286
-0.074670963 0.676 -0.054521654 1.5676788e-39 257 286
-0.073703118 0.67799997 -0.054682959 1.7509911e-39 258 286
-0.072514355 0.67799997 -0.054682959 1.7509911e-39 259 286
-0.0713256 0.67799997 -0.054682959 2.0268591e-39 260 286
-0.070136838 0.67799997 -0.054682959 2.1190547e-39 261 286
-0.068948075 0.67799997 -0.054682959 2.1194079e-39 262 286
-0.067859262 0.67900002 -0.054763615 2.3037991e-39 263 286
-0.066766933 0.68000001 -0.054844268 2.8540764e-39 264 286
-0.065574668 0.68000001 -0.054844268 2.6700453e-39 265 286
-0.064382397 0.68000001 -0.054844268 9.1168394e-39 266 286
-0.063468911 0.68300003 -0.055086225 1.1421729e-38 267 286
-0.062362559 0.68400002 -0.055166878 1.2522272e-38 268 286
-0.061342116 0.68599999 -0.055328183 1.2891049e-38 269 286
-0.060139328 0.68599999 -0.055328183 1.3167273e-38 270 286
-0.059022456 0.68699998 -0.055408835 1.3167273e-38 271 286
-0.057902083 0.68800002 -0.055489492 1.3259467e-38 272 286
-0.0568606 0.69 -0.055650797 1.3351661e-38 273 286
-0.055731449 0.69099998 -0.055731449 1.3260902e-38 274 286
-0.054677699 0.69300002 -0.055892758 1.3260902e-38 275 286
-0.053539783 0.69400001 -0.055973411 1.335202e-38 276 286
-0.052322973 0.69400001 -0.055973411 1.3444214e-38 277 286
-0.051253434 0.69599998 -0.056134716 1.3169067e-38 278 286
-0.050105009 0.69700003 -0.056215372 1.3076872e-38 279 286
-0.048882935 0.69700003 -0.056215372 1.3168349e-38 280 286
-0.047729239 0.69800001 -0.056296028 1.2891767e-38 281 286
-0.046505414 0.69800001 -0.056296028 1.2982885e-38 282 286
-0.045281585 0.69800001 -0.056296028 1.289069e-38 283 286
-0.04405776 0.69800001 -0.056296028 1.2797061e-38 284 286
-0.1064098 0.71399999 -0.058838356 3.6802498e-39 235 287
-0.10515791 0.71399999 -0.058838356 2.7622592e-39 236 287
-0.10390604 0.71399999 -0.058838356 3.2228786e-39 237 287
-0.10251039 0.713 -0.058755953 2.303446e-39 238 287
-0.10126025 0.713 -0.058755953 2.2112504e-39 239 287
-0.10001013 0.713 -0.058755953 2.0279507e-39 240 287
-0.098760001 0.713 -0.058755953 2.6733201e-39 241 287
-0.097646631 0.71399999 -0.058838356 3.2268498e-39 242 287
-0.090994492 0.67400002 -0.055542093 3.5034367e-39 243 287
-0.089812748 0.67400002 -0.055542093 4.052642e-39 244 287
-0.088631004 0.67400002 -0.055542093 3.315077e-39 245 287
-0.087449253 0.67400002 -0.055542093 3.3132777e-39 246 287
-0.086267509 0.67400002 -0.055542093 2.852301e-39 247 287
-0.085212 0.67500001 -0.0556245 2.1190547e-39 248 287
-0.084028497 0.67500001 -0.0556245 2.1190547e-39 249 287
-0.082844995 0.67500001 -0.0556245 2.0268591e-39 250 287
-0.081782483 0.676 -0.055706903 1.9346621e-39 251 287
-0.080597222 0.676 -0.055706903 1.9346621e-39 252 287
-0.079411969 0.676 -0.055706903 1.9346621e-39 253 287
-0.078458153 0.67799997 -0.055871718 1.9339404e-39 254 287
-0.077269398 0.67799997 -0.055871718 2.026136e-39 255 287
-0.076080635 0.67799997 -0.055871718 1.9346593e-39 256 287
-0.074891873 0.67799997 -0.055871718 1.9346593e-39 257 287
-0.073703118 0.67799997 -0.055871718 2.0268591e-39 258 287
-0.072514355 0.67799997 -0.055871718 1.9346621e-39 259 287
-0.071430802 0.67900002 -0.055954125 1.7509911e-39 260 287
-0.070240289 0.67900002 -0.055954125 1.9357425e-39 261 287
-0.069049768 0.67900002 -0.055954125 2.1190519e-39 262 287
-0.067859262 0.67900002 -0.055954125 2.3038019e-39 263 287
-0.066766933 0.68000001 -0.056036532 3.1303032e-39 264 287
-0.065574668 0.68000001 -0.056036532 3.1303032e-39 265 287
-0.064571753 0.68199998 -0.056201346 9.7604095e-39 266 287
-0.063561834 0.68400002 -0.056366164 1.1881268e-38 267 287
-0.062544905 0.68599999 -0.056530971 1.2431872e-38 268 287
-0.061431535 0.68699998 -0.056613375 1.2431872e-38 269 287
-0.060226995 0.68699998 -0.056613375 1.3259467e-38 270 287
-0.059108373 0.68800002 -0.056695789 1.3351661e-38 271 287
-0.058070395 0.69 -0.0568606 1.335202e-38 272 287
-0.0568606 0.69 -0.0568606 1.335202e-38 273 287
-0.055731449 0.69099998 -0.056942999 1.335202e-38 274 287
-0.054677699 0.69300002 -0.057107817 1.3444214e-38 275 287
-0.053539783 0.69400001 -0.057190225 1.3168349e-38 276 287
-0.052473757 0.69599998 -0.057355035 1.3076155e-38 277 287
-0.051253434 0.69599998 -0.057355035 1.2800648e-38 278 287
-0.050105009 0.69700003 -0.05743745 1.2800648e-38 279 287
-0.048953064 0.69800001 -0.057519849 1.2891408e-38 280 287
-0.047865998 0.69999999 -0.05768466 1.2799214e-38 281 287
-0.046638668 0.69999999 -0.05768466 1.2705943e-38 282 287
-0.04541133 0.69999999 -0.05768466 1.2798137e-38 283 287
-0.10501064 0.713 -0.060006075 2.9480867e-39 236 288
-0.10376051 0.713 -0.060006075 3.1328367e-39 237 288
-0.10251039 0.713 -0.060006075 2.5800315e-39 238 288
-0.10126025 0.713 -0.060006075 2.2112504e-39 239 288
-0.10001013 0.713 -0.060006075 2.2108973e-39 240 288
-0.098760001 0.713 -0.060006075 2.764071e-39 241 288
-0.097509876 0.713 -0.060006075 3.3172476e-39 242 288
-0.09625975 0.713 -0.060006075 3.6860301e-39 243 288
-0.089812748 0.67400002 -0.056723841 3.6845882e-39 244 288
-0.088631004 0.67400002 -0.056723841 3.22361e-39 245 288
-0.087578997 0.67500001 -0.056808002 2.8537485e-39 246 288
-0.086395502 0.67500001 -0.056808002 2.6693573e-39 247 288
-0.085338242 0.676 -0.056892153 2.1190576e-39 248 288
-0.084152982 0.676 -0.056892153 2.1190576e-39 249 288
-0.082967728 0.676 -0.056892153 2.0261389e-39 250 288
-0.081782483 0.676 -0.056892153 2.0261389e-39 251 288
-0.080597222 0.676 -0.056892153 1.9346593e-39 252 288
-0.079646915 0.67799997 -0.057060476 1.9346593e-39 253 288
-0.078458153 0.67799997 -0.057060476 1.9346621e-39 254 288
-0.077269398 0.67799997 -0.057060476 1.9346621e-39 255 288
-0.076080635 0.67799997 -0.057060476 1.9346621e-39 256 288
-0.074891873 0.67799997 -0.057060476 2.0268591e-39 257 288
-0.073811822 0.67900002 -0.057144642 2.0261389e-39 258 288
-0.072621316 0.67900002 -0.057144642 2.0261389e-39 259 288
-0.071535997 0.68000001 -0.057228796 2.1183359e-39 260 288
-0.070343733 0.68000001 -0.057228796 2.302367e-39 261 288
-0.069151461 0.68000001 -0.057228796 2.2116063e-39 262 288
-0.067959204 0.68000001 -0.057228796 2.3959976e-39 263 288
-0.0669633 0.68199998 -0.05739712 3.3128938e-39 264 288
-0.065767527 0.68199998 -0.05739712 3.8660648e-39 265 288
-0.064666435 0.68300003 -0.057481278 1.0036626e-38 266 288
-0.063747689 0.68599999 -0.057733759 1.1880539e-38 267 288
-0.062636077 0.68699998 -0.057817914 1.2615543e-38 268 288
-0.061431535 0.68699998 -0.057817914 1.2892125e-38 269 288
-0.060314666 0.68800002 -0.057902083 1.3168349e-38 270 288
-0.059280202 0.69 -0.058070395 1.3260902e-38 271 288
-0.058070395 0.69 -0.058070395 1.335202e-38 272 288
-0.056942999 0.69099998 -0.058154557 1.335202e-38 273 288
-0.055731449 0.69099998 -0.058154557 1.3076155e-38 274 288
-0.054756597 0.69400001 -0.058407038 1.2983961e-38 275 288
-0.053539783 0.69400001 -0.058407038 1.2982885e-38 276 288
-0.052473757 0.69599998 -0.058575355 1.289069e-38 277 288
-0.051327083 0.69700003 -0.05865952 1.2798496e-38 278 288
-0.050176892 0.69800001 -0.058743682 1.2798496e-38 279 288
-0.049093332 0.69999999 -0.058911994 1.2522631e-38 280 288
-0.047865998 0.69999999 -0.058911994 1.2430437e-38 281 288
-0.046638668 0.69999999 -0.058911994 1.2337526e-38 282 288
-0.10501064 0.713 -0.061256204 3.4990955e-39 236 289
-0.10346945 0.71100003 -0.061084379 3.3150644e-39 237 289
-0.10222284 0.71100003 -0.061084379 2.9473707e-39 238 289
-0.10097622 0.71100003 -0.061084379 2.4863925e-39 239 289
-0.099729598 0.71100003 -0.061084379 2.1197764e-39 240 289
-0.098482981 0.71100003 -0.061084379 2.3963633e-39 241 289
-0.097509876 0.713 -0.061256204 2.8562723e-39 242 289
-0.09625975 0.713 -0.061256204 3.2246947e-39 243 289
-0.089945994 0.67500001 -0.057991501 3.5920366e-39 244 289
-0.088762499 0.67500001 -0.057991501 3.1310585e-39 245 289
-0.087578997 0.67500001 -0.057991501 2.9459442e-39 246 289
-0.086395502 0.67500001 -0.057991501 2.5771616e-39 247 289
-0.085338242 0.676 -0.058077414 2.2108973e-39 248 289
-0.084152982 0.676 -0.058077414 2.1187016e-39 249 289
-0.082967728 0.676 -0.058077414 2.1183359e-39 250 289
-0.081782483 0.676 -0.058077414 2.1183359e-39 251 289
-0.08083567 0.67799997 -0.058249239 1.8435441e-39 252 289
-0.079646915 0.67799997 -0.058249239 1.8435441e-39 253 289
-0.078573883 0.67900002 -0.058335152 1.7509911e-39 254 289
-0.077383369 0.67900002 -0.058335152 1.7509911e-39 255 289
-0.076080635 0.67799997 -0.058249239 1.7509911e-39 256 289
-0.074891873 0.67799997 -0.058249239 1.8435469e-39 257 289
-0.073811822 0.67900002 -0.058335152 2.0268591e-39 258 289
-0.072728261 0.68000001 -0.058421064 1.9346621e-39 259 289
-0.071535997 0.68000001 -0.058421064 2.0268591e-39 260 289
-0.070343733 0.68000001 -0.058421064 2.2112504e-39 261 289
-0.069151461 0.68000001 -0.058421064 2.2116063e-39 262 289
-0.068159081 0.68199998 -0.058592889 2.3038019e-39 263 289
-0.0669633 0.68199998 -0.058592889 3.6816707e-39 264 289
-0.065863967 0.68300003 -0.05867881 4.5117901e-39 265 289
-0.065045156 0.68699998 -0.059022456 1.077347e-38 266 289
-0.063933544 0.68800002 -0.059108373 1.2156763e-38 267 289
-0.06272725 0.68800002 -0.059108373 1.261626e-38 268 289
-0.06152096 0.68800002 -0.059108373 1.2800648e-38 269 289
-0.060489997 0.69 -0.059280202 1.3169067e-38 270 289
-0.059280202 0.69 -0.059280202 1.3169067e-38 271 289
-0.058154557 0.69099998 -0.059366114 1.3076155e-38 272 289
-0.056942999 0.69099998 -0.059366114 1.2983961e-38 273 289
-0.055892758 0.69300002 -0.05953794 1.2982885e-38 274 289
-0.054756597 0.69400001 -0.059623852 1.2798496e-38 275 289
-0.053539783 0.69400001 -0.059623852 1.2798137e-38 276 289
-0.052549154 0.69700003 -0.05988159 1.2798137e-38 277 289
-0.051400717 0.69800001 -0.059967503 1.2247124e-38 278 289
-0.050320663 0.69999999 -0.060139328 1.215493e-38 279 289
-0.049093332 0.69999999 -0.060139328 1.1878353e-38 280 289
-0.10471608 0.71100003 -0.062331002 4.6961968e-39 236 290
-0.10346945 0.71100003 -0.062331002 3.4054579e-39 237 290
-0.10207906 0.70999998 -0.062243331 2.8551708e-39 238 290
-0.10083419 0.70999998 -0.062243331 2.7629752e-39 239 290
-0.099589325 0.70999998 -0.062243331 2.028657e-39 240 290
-0.09834446 0.70999998 -0.062243331 2.1208526e-39 241 290
-0.097099595 0.70999998 -0.062243331 2.5793224e-39 242 290
-0.095854729 0.70999998 -0.062243331 2.9484651e-39 243 290
-0.090079248 0.676 -0.059262663 3.4076412e-39 244 290
-0.088893995 0.676 -0.059262663 3.0392188e-39 245 290
-0.087708741 0.676 -0.059262663 2.9463001e-39 246 290
-0.086523488 0.676 -0.059262663 2.7615501e-39 247 290
-0.085338242 0.676 -0.059262663 2.2112532e-39 248 290
-0.084152982 0.676 -0.059262663 2.2112532e-39 249 290
-0.083213195 0.67799997 -0.059437994 2.1190547e-39 250 290
-0.082024433 0.67799997 -0.059437994 2.0268591e-39 251 290
-0.08083567 0.67799997 -0.059437994 1.9346621e-39 252 290
-0.079764389 0.67900002 -0.059525665 1.9346621e-39 253 290
-0.078573883 0.67900002 -0.059525665 1.9343062e-39 254 290
-0.077383369 0.67900002 -0.059525665 1.9343062e-39 255 290
-0.076192856 0.67900002 -0.059525665 1.8431909e-39 256 290
-0.075002335 0.67900002 -0.059525665 1.7509939e-39 257 290
-0.073920533 0.68000001 -0.059613332 1.9346621e-39 258 290
-0.072942168 0.68199998 -0.059788663 2.0268591e-39 259 290
-0.071746394 0.68199998 -0.059788663 2.1197736e-39 260 290
-0.070550621 0.68199998 -0.059788663 2.2119692e-39 261 290
-0.069354847 0.68199998 -0.059788663 2.3038019e-39 262 290
-0.068558842 0.68599999 -0.060139328 2.3038019e-39 263 290
-0.06735605 0.68599999 -0.060139328 3.9589708e-39 264 290
-0.066153266 0.68599999 -0.060139328 5.4337366e-39 265 290
-0.065139838 0.68800002 -0.060314666 1.1235154e-38 266 290
-0.063933544 0.68800002 -0.060314666 1.2341143e-38 267 290
-0.062909603 0.69 -0.060489997 1.2708454e-38 268 290
-0.061699796 0.69 -0.060489997 1.2800648e-38 269 290
-0.060577665 0.69099998 -0.060577665 1.2892843e-38 270 290
-0.059366114 0.69099998 -0.060577665 1.2800648e-38 271 290
-0.058154557 0.69099998 -0.060577665 1.289069e-38 272 290
-0.056942999 0.69099998 -0.060577665 1.2798496e-38 273 290
-0.055892758 0.69300002 -0.060752999 1.2522631e-38 274 290
-0.054756597 0.69400001 -0.060840666 1.2522631e-38 275 290
-0.053694077 0.69599998 -0.061015997 1.2064171e-38 276 290
-0.052624546 0.69800001 -0.061191335 1.2064171e-38 277 290
-0.051400717 0.69800001 -0.061191335 1.1603577e-38 278 290
-0.050392549 0.70099998 -0.06145433 1.1419546e-38 279 290
-0.1059627 0.71100003 -0.063577622 9.6754838e-39 235 291
-0.10471608 0.71100003 -0.063577622 6.6305071e-39 236 291
-0.10332392 0.70999998 -0.063488193 4.0490295e-39 237 291
-0.10207906 0.70999998 -0.063488193 2.6743739e-39 238 291
-0.10083419 0.70999998 -0.063488193 2.397787e-39 239 291
-0.099308796 0.708 -0.063309364 2.0286542e-39 240 291
-0.098067433 0.708 -0.063309364 1.9364586e-39 241 291
-0.097099595 0.70999998 -0.063488193 2.3956444e-39 242 291
-0.095854729 0.70999998 -0.063488193 2.8566226e-39 243 291
-0.090079248 0.676 -0.06044792 3.1321305e-39 244 291
-0.088893995 0.676 -0.06044792 3.0399348e-39 245 291
-0.087708741 0.676 -0.06044792 2.8548233e-39 246 291
-0.086523488 0.676 -0.06044792 2.762269e-39 247 291
-0.085338242 0.676 -0.06044792 2.211972e-39 248 291
-0.084152982 0.676 -0.06044792 2.1197764e-39 249 291
-0.083213195 0.67799997 -0.060626756 1.9357425e-39 250 291
-0.082145423 0.67900002 -0.060716182 1.8435469e-39 251 291
-0.080954902 0.67900002 -0.060716182 1.9346621e-39 252 291
-0.079881869 0.68000001 -0.0608056 1.9346621e-39 253 291
-0.078689598 0.68000001 -0.0608056 1.7509939e-39 254 291
-0.077497333 0.68000001 -0.0608056 1.8431909e-39 255 291
-0.076305062 0.68000001 -0.0608056 1.7517142e-39 256 291
-0.075112797 0.68000001 -0.0608056 1.5676816e-39 257 291
-0.074137948 0.68199998 -0.060984433 2.0265032e-39 258 291
-0.072942168 0.68199998 -0.060984433 2.0265032e-39 259 291
-0.071851604 0.68300003 -0.061073858 1.9357425e-39 260 291
-0.068658777 0.68699998 -0.061431535 1.9346565e-39 263 291
-0.067454241 0.68699998 -0.061431535 4.6050479e-39 264 291
-0.066346131 0.68800002 -0.06152096 6.4489521e-39 265 291
-0.065139838 0.68800002 -0.06152096 1.1602489e-38 266 291
-0.064119399 0.69 -0.061699796 1.2524444e-38 267 291
-0.063000768 0.69099998 -0.061789215 1.2615543e-38 268 291
-0.061789215 0.69099998 -0.061789215 1.2707737e-38 269 291
-0.060577665 0.69099998 -0.061789215 1.2799214e-38 270 291
-0.059366114 0.69099998 -0.061789215 1.2614825e-38 271 291
-0.058070395 0.69 -0.061699796 1.2705943e-38 272 291
-0.0568606 0.69 -0.061699796 1.2613749e-38 273 291
-0.055892758 0.69300002 -0.061968062 1.1787229e-38 274 291
-0.054677699 0.69300002 -0.061968062 1.1511005e-38 275 291
-0.10626076 0.713 -0.065006584 1.0967297e-38 235 292
-0.10456879 0.70999998 -0.064733058 8.1981888e-39 236 292
-0.10332392 0.70999998 -0.064733058 4.7865917e-39 237 292
-0.10207906 0.70999998 -0.064733058 3.5012437e-39 238 292
-0.10055015 0.708 -0.06455072 3.4090481e-39 239 292
-0.099308796 0.708 -0.06455072 2.3963451e-39 240 292
-0.098067433 0.708 -0.06455072 2.3963451e-39 241 292
-0.096826077 0.708 -0.06455072 2.6725817e-39 242 292
-0.095854729 0.70999998 -0.064733058 2.9491685e-39 243 292
-0.090345755 0.67799997 -0.061815511 3.4079915e-39 244 292
-0.089156993 0.67799997 -0.061815511 3.0395691e-39 245 292
-0.08796823 0.67799997 -0.061815511 2.9470176e-39 246 292
-0.086779475 0.67799997 -0.061815511 2.7626249e-39 247 292
-0.085590713 0.67799997 -0.061815511 2.3041649e-39 248 292
-0.084526442 0.67900002 -0.061906695 2.2119692e-39 249 292
-0.083335936 0.67900002 -0.061906695 2.302367e-39 250 292
-0.082145423 0.67900002 -0.061906695 2.1183359e-39 251 292
-0.080954902 0.67900002 -0.061906695 2.026136e-39 252 292
-0.079881869 0.68000001 -0.061997864 2.1183331e-39 253 292
-0.078689598 0.68000001 -0.061997864 1.7509911e-39 254 292
-0.077497333 0.68000001 -0.061997864 1.7509911e-39 255 292
-0.076305062 0.68000001 -0.061997864 2.0268591e-39 256 292
-0.075333714 0.68199998 -0.062180214 2.0268591e-39 257 292
-0.074137948 0.68199998 -0.062180214 2.1183331e-39 258 292
-0.068658777 0.68699998 -0.062636077 2.4863953e-39 263 292
-0.067454241 0.68699998 -0.062636077 5.43444e-39 264 292
-0.066346131 0.68800002 -0.06272725 7.4627439e-39 265 292
-0.065329194 0.69 -0.062909603 1.1786512e-38 266 292
-0.064119399 0.69 -0.062909603 1.2339684e-38 267 292
-0.063000768 0.69099998 -0.063000768 1.2338601e-38 268 292
-0.061789215 0.69099998 -0.063000768 1.2430795e-38 269 292
-0.060577665 0.69099998 -0.063000768 1.233896e-38 270 292
-0.059366114 0.69099998 -0.063000768 1.2431154e-38 271 292
-0.058070395 0.69 -0.062909603 1.2154571e-38 272 292
-0.0568606 0.69 -0.062909603 1.2154571e-38 273 292
-0.10456879 0.70999998 -0.065977924 9.3981781e-39 236 293
-0.10332392 0.70999998 -0.065977924 5.9869384e-39 237 293
-0.10207906 0.70999998 -0.065977924 4.1455467e-39 238 293
-0.10055015 0.708 -0.065792084 3.5923729e-39 239 293
-0.099308796 0.708 -0.065792084 2.3992346e-39 240 293
-0.098067433 0.708 -0.065792084 2.0304534e-39 241 293
-0.096826077 0.708 -0.065792084 2.7651402e-39 242 293
-0.095989741 0.71100003 -0.066070862 3.1342829e-39 243 293
-0.089288503 0.67900002 -0.063097201 2.856617e-39 245 293
-0.08809799 0.67900002 -0.063097201 2.5789567e-39 246 293
-0.086779475 0.67799997 -0.063004278 2.5789567e-39 247 293
-0.085590713 0.67799997 -0.063004278 2.2116161e-39 248 293
-0.084526442 0.67900002 -0.063097201 2.2116161e-39 249 293
-0.083335936 0.67900002 -0.063097201 2.1190576e-39 250 293
-0.082266398 0.68000001 -0.063190132 2.1190576e-39 251 293
-0.081074134 0.68000001 -0.063190132 1.8435469e-39 252 293
-0.080116808 0.68199998 -0.063375987 1.8435469e-39 253 293
-0.078921035 0.68199998 -0.063375987 1.7509911e-39 254 293
-0.077725261 0.68199998 -0.063375987 1.8435469e-39 255 293
-0.076529488 0.68199998 -0.063375987 2.0268591e-39 256 293
-0.075333714 0.68199998 -0.063375987 2.1190547e-39 257 293
-0.072942168 0.68199998 -0.063375987 2.302367e-39 259 293
-0.069863312 0.68699998 -0.06384062 2.7633255e-39 262 293
-0.068658777 0.68699998 -0.06384062 2.3949032e-39 263 293
-0.067454241 0.68699998 -0.06384062 6.8137647e-39 264 293
-0.066346131 0.68800002 -0.063933544 9.487438e-39 265 293
-0.065329194 0.69 -0.064119399 1.20631e-38 266 293
-0.06421233 0.69099998 -0.06421233 1.20631e-38 267 293
-0.063000768 0.69099998 -0.06421233 1.2521196e-38 268 293
-0.061789215 0.69099998 -0.06421233 1.2521196e-38 269 293
-0.060577665 0.69099998 -0.06421233 1.2152419e-38 270 293
-0.059366114 0.69099998 -0.06421233 1.1691448e-38 271 293
-0.058154557 0.69099998 -0.06421233 1.0313568e-38 272 293
-0.10332392 0.70999998 -0.067222796 7.555706e-39 237 294
-0.10207906 0.70999998 -0.067222796 5.2508167e-39 238 294
-0.10055015 0.708 -0.067033432 4.4210546e-39 239 294
-0.099308796 0.708 -0.067033432 3.7774845e-39 240 294
-0.098067433 0.708 -0.067033432 3.7774845e-39 241 294
-0.096826077 0.708 -0.067033432 3.6860077e-39 242 294
-0.095584713 0.708 -0.067033432 3.5938121e-39 243 294
