# .PCD v.7 - Point Cloud Data file format
FIELDS x y z rgb imX imY
SIZE 4 4 4 4 4 4
TYPE F F F F F F
COUNT 1 1 1 1 1 1
WIDTH 838
HEIGHT 1
VIEWPOINT 0 0 0 1 0 0 0
POINTS 838
DATA ascii
0.051057063 0.72799999 -0.026804959 1.5893304e-38 360 261
0.052333489 0.72799999 -0.026804959 1.59855e-38 361 261
0.053609919 0.72799999 -0.026804959 1.6076617e-38 362 261
0.054886345 0.72799999 -0.026804959 1.6076617e-38 363 261
0.056162767 0.72799999 -0.026804959 1.589367e-38 364 261
0.057439197 0.72799999 -0.026804959 1.5801474e-38 365 261
0.058715623 0.72799999 -0.026804959 1.5801119e-38 366 261
0.059992049 0.72799999 -0.026804959 1.5617086e-38 367 261
0.061436798 0.73000002 -0.026878599 1.5710005e-38 368 261
0.06271673 0.73000002 -0.026878599 1.5710005e-38 369 261
0.063996665 0.73000002 -0.026878599 1.589367e-38 370 261
0.065366022 0.73100001 -0.026915418 1.5801474e-38 371 261
0.066647708 0.73100001 -0.026915418 1.5984066e-38 372 261
0.068115242 0.73299998 -0.026989058 1.5984066e-38 373 261
0.069400437 0.73299998 -0.026989058 1.6076617e-38 374 261
0.070685625 0.73299998 -0.026989058 1.6168812e-38 375 261
0.072069012 0.73400003 -0.02702588 1.6076612e-38 376 261
0.073355958 0.73400003 -0.02702588 1.6076612e-38 377 261
0.074642912 0.73400003 -0.02702588 1.5801472e-38 378 261
0.07592985 0.73400003 -0.02702588 1.5893667e-38 379 261
0.077216797 0.73400003 -0.02702588 1.5710002e-38 380 261
0.078717649 0.736 -0.02709952 1.5617806e-38 381 261
0.080008104 0.736 -0.02709952 1.5984794e-38 382 261
0.08129856 0.736 -0.02709952 1.6261379e-38 383 261
0.082589008 0.736 -0.02709952 1.386716e-38 384 261
0.084107392 0.73799998 -0.027173158 1.4788745e-38 385 261
0.085401356 0.73799998 -0.027173158 1.9069319e-38 386 261
0.086695313 0.73799998 -0.027173158 2.1650797e-38 387 261
-0.090433426 0.69700003 -0.026885614 1.917345e-38 246 262
-0.089211352 0.69700003 -0.026885614 4.8831286e-39 247 262
-0.087989278 0.69700003 -0.026885614 2.7551349e-40 248 262
-0.086767212 0.69700003 -0.026885614 4.4243182e-39 249 262
-0.08554513 0.69700003 -0.026885614 5.1586365e-39 250 262
-0.084444039 0.69800001 -0.026924185 4.7902127e-39 251 262
-0.083220214 0.69800001 -0.026924185 4.9728061e-39 252 262
-0.081996389 0.69800001 -0.026924185 4.8806104e-39 253 262
-0.080772556 0.69800001 -0.026924185 4.6050998e-39 254 262
-0.079548739 0.69800001 -0.026924185 4.6050998e-39 255 262
-0.078324907 0.69800001 -0.026924185 4.4210714e-39 256 262
-0.077101074 0.69800001 -0.026924185 4.4210714e-39 257 262
-0.075877249 0.69800001 -0.026924185 4.4210714e-39 258 262
-0.074653424 0.69800001 -0.026924185 4.5132671e-39 259 262
-0.073429599 0.69800001 -0.026924185 4.2384752e-39 260 262
-0.072205767 0.69800001 -0.026924185 4.2384752e-39 261 262
-0.07098195 0.69800001 -0.026924185 4.6047466e-39 262 262
-0.069758117 0.69800001 -0.026924185 4.420354e-39 263 262
-0.068534292 0.69800001 -0.026924185 8.8270271e-39 264 262
-0.067503333 0.69999999 -0.027001332 1.002557e-38 265 262
-0.066275999 0.69999999 -0.027001332 1.4792387e-38 266 262
-0.065048665 0.69999999 -0.027001332 1.5713983e-38 267 262
-0.063821331 0.69999999 -0.027001332 1.5895483e-38 268 262
-0.062683418 0.70099998 -0.027039904 1.5619257e-38 269 262
-0.06145433 0.70099998 -0.027039904 1.6261379e-38 270 262
-0.060225245 0.70099998 -0.027039904 1.6077348e-38 271 262
-0.058996156 0.70099998 -0.027039904 1.616739e-38 272 262
-0.057767071 0.70099998 -0.027039904 1.6075193e-38 273 262
-0.056537982 0.70099998 -0.027039904 1.607484e-38 274 262
-0.0554667 0.70300001 -0.027117053 1.607484e-38 275 262
-0.054234106 0.70300001 -0.027117053 1.5892248e-38 276 262
-0.053001512 0.70300001 -0.027117053 1.5984443e-38 277 262
-0.051768921 0.70300001 -0.027117053 1.5892601e-38 278 262
-0.050536323 0.70300001 -0.027117053 1.5892601e-38 279 262
-0.049373865 0.704 -0.027155625 1.5434497e-38 280 262
-0.048139516 0.704 -0.027155625 1.5434497e-38 281 262
-0.047038425 0.70599997 -0.027232772 1.5525256e-38 282 262
-0.045865446 0.70700002 -0.027271347 1.5433061e-38 283 262
-0.044625837 0.70700002 -0.027271347 1.5524537e-38 284 262
-0.043386232 0.70700002 -0.027271347 1.5432342e-38 285 262
-0.042206239 0.708 -0.027309919 1.5431626e-38 286 262
-0.040964879 0.708 -0.027309919 1.5615657e-38 287 262
-0.039723519 0.708 -0.027309919 1.5617459e-38 288 262
-0.038590867 0.70999998 -0.027387066 1.5709654e-38 289 262
-0.037345998 0.70999998 -0.027387066 1.5801847e-38 290 262
-0.036101133 0.70999998 -0.027387066 1.5894402e-38 291 262
-0.034905359 0.71100003 -0.027425639 1.5984797e-38 292 262
-0.033658739 0.71100003 -0.027425639 1.5984797e-38 293 262
-0.032412119 0.71100003 -0.027425639 1.6349985e-38 294 262
-0.031165501 0.71100003 -0.027425639 1.6442182e-38 295 262
-0.029918881 0.71100003 -0.027425639 1.6167037e-38 296 262
-0.028672259 0.71100003 -0.027425639 1.6259591e-38 297 262
-0.027425639 0.71100003 -0.027425639 1.626031e-38 298 262
-0.026252659 0.713 -0.027502786 1.6167756e-38 299 262
-0.025002534 0.713 -0.027502786 1.5892245e-38 300 262
-0.023752406 0.713 -0.027502786 1.5892245e-38 301 262
-0.022502279 0.713 -0.027502786 1.5984443e-38 302 262
-0.021252153 0.713 -0.027502786 1.5984443e-38 303 262
-0.020086186 0.71600002 -0.027618507 1.6259235e-38 304 262
-0.0188308 0.71600002 -0.027618507 1.6259235e-38 305 262
-0.017575413 0.71600002 -0.027618507 1.6076642e-38 306 262
-0.016320027 0.71600002 -0.027618507 1.5984446e-38 307 262
-0.01506464 0.71600002 -0.027618507 1.607484e-38 308 262
-0.013809253 0.71600002 -0.027618507 1.6167037e-38 309 262
-0.012553867 0.71600002 -0.027618507 1.607484e-38 310 262
-0.01129848 0.71600002 -0.027618507 1.607484e-38 311 262
-0.01005712 0.71700001 -0.027657079 1.6075916e-38 312 262
-0.0087999795 0.71700001 -0.027657079 1.598336e-38 313 262
-0.0075428397 0.71700001 -0.027657079 1.5983713e-38 314 262
-0.0062857 0.71700001 -0.027657079 1.5799682e-38 315 262
-0.0050285598 0.71700001 -0.027657079 1.5982997e-38 316 262
-0.0037714199 0.71700001 -0.027657079 1.5982997e-38 317 262
-0.0025142799 0.71700001 -0.027657079 1.5892248e-38 318 262
-0.00125714 0.71700001 -0.027657079 1.5892248e-38 319 262
0 0.71700001 -0.027657079 1.5982647e-38 320 262
0.0012606466 0.71899998 -0.027734226 1.6074843e-38 321 262
0.0025212932 0.71899998 -0.027734226 1.5982291e-38 322 262
0.0037872 0.72000003 -0.027772799 1.6167042e-38 323 262
0.0050496003 0.72000003 -0.027772799 1.5892251e-38 324 262
0.0063120001 0.72000003 -0.027772799 1.5799695e-38 325 262
0.0075743999 0.72000003 -0.027772799 1.5892245e-38 326 262
0.0088613462 0.722 -0.027849946 1.5707852e-38 327 262
0.010127253 0.722 -0.027849946 1.6075193e-38 328 262
0.01139316 0.722 -0.027849946 1.5982997e-38 329 262
0.012659066 0.722 -0.027849946 1.5982997e-38 330 262
0.0138864 0.72000003 -0.027772799 1.5982997e-38 331 262
0.0151488 0.72000003 -0.027772799 1.6165591e-38 332 262
0.016456785 0.722 -0.027849946 1.6257786e-38 333 262
0.017722692 0.722 -0.027849946 1.6165588e-38 334 262
0.0189886 0.722 -0.027849946 1.6165588e-38 335 262
0.020254506 0.722 -0.027849946 1.5982276e-38 336 262
0.021520413 0.722 -0.027849946 1.5982276e-38 337 262
0.022786319 0.722 -0.027849946 1.5799332e-38 338 262
0.024052227 0.722 -0.027849946 1.5707136e-38 339 262
0.025318133 0.722 -0.027849946 1.5707136e-38 340 262
0.026584039 0.722 -0.027849946 1.5614941e-38 341 262
0.02788852 0.72299999 -0.02788852 1.5707133e-38 342 262
0.029156178 0.72299999 -0.02788852 1.5707133e-38 343 262
0.030423839 0.72299999 -0.02788852 1.5799682e-38 344 262
0.031779166 0.72500002 -0.027965667 1.5799682e-38 345 262
0.033050332 0.72500002 -0.027965667 1.5614572e-38 346 262
0.03441618 0.727 -0.028042812 1.5614572e-38 347 262
0.035690852 0.727 -0.028042812 1.5614572e-38 348 262
0.036965527 0.727 -0.028042812 1.5890799e-38 349 262
0.038240198 0.727 -0.028042812 1.5708205e-38 350 262
0.039514873 0.727 -0.028042812 1.5708205e-38 351 262
0.040789545 0.727 -0.028042812 1.5614935e-38 352 262
0.042064216 0.727 -0.028042812 1.5338347e-38 353 262
0.043398503 0.72799999 -0.028081384 1.5614938e-38 354 262
0.044674929 0.72799999 -0.028081384 1.5614938e-38 355 262
0.045951359 0.72799999 -0.028081384 1.5614222e-38 356 262
0.047227785 0.72799999 -0.028081384 1.5614222e-38 357 262
0.048504211 0.72799999 -0.028081384 1.5614938e-38 358 262
0.049712259 0.727 -0.028042812 1.5707133e-38 359 262
0.050986931 0.727 -0.028042812 1.5247948e-38 360 262
0.052333489 0.72799999 -0.028081384 1.5340143e-38 361 262
0.053609919 0.72799999 -0.028081384 1.5431979e-38 362 262
0.054886345 0.72799999 -0.028081384 1.5431979e-38 363 262
0.056162767 0.72799999 -0.028081384 1.5614935e-38 364 262
0.057439197 0.72799999 -0.028081384 1.5522739e-38 365 262
0.058715623 0.72799999 -0.028081384 1.5431626e-38 366 262
0.059992049 0.72799999 -0.028081384 1.533943e-38 367 262
0.061436798 0.73000002 -0.028158534 1.5614585e-38 368 262
0.06271673 0.73000002 -0.028158534 1.5614585e-38 369 262
0.063996665 0.73000002 -0.028158534 1.5614222e-38 370 262
0.0652766 0.73000002 -0.028158534 1.5614222e-38 371 262
0.066556528 0.73000002 -0.028158534 1.5614572e-38 372 262
0.068115242 0.73299998 -0.028274251 1.5890799e-38 373 262
0.069400437 0.73299998 -0.028274251 1.5431976e-38 374 262
0.070685625 0.73299998 -0.028274251 1.5616007e-38 375 262
0.071970828 0.73299998 -0.028274251 1.5431979e-38 376 262
0.073256016 0.73299998 -0.028274251 1.5431979e-38 377 262
0.074642912 0.73400003 -0.028312827 1.5431626e-38 378 262
0.07592985 0.73400003 -0.028312827 1.533943e-38 379 262
0.077216797 0.73400003 -0.028312827 1.5064285e-38 380 262
0.07850375 0.73400003 -0.028312827 1.5156481e-38 381 262
0.079790697 0.73400003 -0.028312827 1.5524187e-38 382 262
0.081077635 0.73400003 -0.028312827 1.5892969e-38 383 262
0.082589008 0.736 -0.028389972 1.4142668e-38 384 262
0.083879463 0.736 -0.028389972 1.4234505e-38 385 262
0.085401356 0.73799998 -0.028467119 1.8699463e-38 386 262
0.086695313 0.73799998 -0.028467119 2.1649725e-38 387 262
-0.090433426 0.69700003 -0.028107686 1.8896511e-38 246 263
-0.089211352 0.69700003 -0.028107686 4.9749711e-39 247 263
-0.087989278 0.69700003 -0.028107686 1.1938797e-39 248 263
-0.086767212 0.69700003 -0.028107686 4.7895092e-39 249 263
-0.08554513 0.69700003 -0.028107686 4.8820524e-39 250 263
-0.084323063 0.69700003 -0.028107686 4.6054655e-39 251 263
-0.083100989 0.69700003 -0.028107686 4.5121951e-39 252 263
-0.081878915 0.69700003 -0.028107686 4.3278024e-39 253 263
-0.080656841 0.69700003 -0.028107686 4.4192792e-39 254 263
-0.079434767 0.69700003 -0.028107686 4.4192792e-39 255 263
-0.078212693 0.69700003 -0.028107686 3.8686235e-39 256 263
-0.076990619 0.69700003 -0.028107686 3.8686235e-39 257 263
-0.075877249 0.69800001 -0.028148014 3.7771468e-39 258 263
-0.074653424 0.69800001 -0.028148014 3.8693424e-39 259 263
-0.073429599 0.69800001 -0.028148014 3.6863861e-39 260 263
-0.072205767 0.69800001 -0.028148014 3.6863861e-39 261 263
-0.07098195 0.69800001 -0.028148014 4.6036662e-39 262 263
-0.069758117 0.69800001 -0.028148014 4.6036662e-39 263 263
-0.068534292 0.69800001 -0.028148014 8.6419169e-39 264 263
-0.06731046 0.69800001 -0.028148014 1.0024851e-38 265 263
-0.066275999 0.69999999 -0.028228667 1.4057336e-38 266 263
-0.065048665 0.69999999 -0.028228667 1.396514e-38 267 263
-0.063821331 0.69999999 -0.028228667 1.4697298e-38 268 263
-0.062593997 0.69999999 -0.028228667 1.4605101e-38 269 263
-0.061366666 0.69999999 -0.028228667 1.469693e-38 270 263
-0.060225245 0.70099998 -0.028268991 1.469693e-38 271 263
-0.058996156 0.70099998 -0.028268991 1.5154681e-38 272 263
-0.057767071 0.70099998 -0.028268991 1.5246878e-38 273 263
-0.056537982 0.70099998 -0.028268991 1.5337645e-38 274 263
-0.0554667 0.70300001 -0.028349647 1.5522036e-38 275 263
-0.054234106 0.70300001 -0.028349647 1.5248326e-38 276 263
-0.053001512 0.70300001 -0.028349647 1.515613e-38 277 263
-0.051768921 0.70300001 -0.028349647 1.5431275e-38 278 263
-0.050536323 0.70300001 -0.028349647 1.5615306e-38 279 263
-0.049303733 0.70300001 -0.028349647 1.5249398e-38 280 263
-0.048139516 0.704 -0.028389972 1.5249398e-38 281 263
-0.046905171 0.704 -0.028389972 1.5248676e-38 282 263
-0.04580057 0.70599997 -0.028470624 1.5156481e-38 283 263
-0.044562716 0.70599997 -0.028470624 1.5156478e-38 284 263
-0.043386232 0.70700002 -0.028510952 1.5156478e-38 285 263
-0.042146627 0.70700002 -0.028510952 1.5065004e-38 286 263
-0.040964879 0.708 -0.02855128 1.5065004e-38 287 263
-0.039723519 0.708 -0.02855128 1.5249398e-38 288 263
-0.038482159 0.708 -0.02855128 1.5341594e-38 289 263
-0.037345998 0.70999998 -0.028631933 1.5433788e-38 290 263
-0.036101133 0.70999998 -0.028631933 1.5526342e-38 291 263
-0.034856264 0.70999998 -0.028631933 1.5800768e-38 292 263
-0.033658739 0.71100003 -0.028672259 1.5616736e-38 293 263
-0.032412119 0.71100003 -0.028672259 1.5799332e-38 294 263
-0.031165501 0.71100003 -0.028672259 1.5799332e-38 295 263
-0.029918881 0.71100003 -0.028672259 1.5616383e-38 296 263
-0.028672259 0.71100003 -0.028672259 1.5616383e-38 297 263
-0.027425639 0.71100003 -0.028672259 1.5800771e-38 298 263
-0.026179021 0.71100003 -0.028672259 1.5800771e-38 299 263
-0.024932399 0.71100003 -0.028672259 1.5525262e-38 300 263
-0.023685781 0.71100003 -0.028672259 1.5248676e-38 301 263
-0.022502279 0.713 -0.028752912 1.5707505e-38 302 263
-0.021252153 0.713 -0.028752912 1.57997e-38 303 263
-0.020030079 0.71399999 -0.028793238 1.5707505e-38 304 263
-0.0188308 0.71600002 -0.028873893 1.57997e-38 305 263
-0.017575413 0.71600002 -0.028873893 1.5616383e-38 306 263
-0.016320027 0.71600002 -0.028873893 1.5616383e-38 307 263
-0.01506464 0.71600002 -0.028873893 1.570678e-38 308 263
-0.013809253 0.71600002 -0.028873893 1.570678e-38 309 263
-0.012553867 0.71600002 -0.028873893 1.570678e-38 310 263
-0.01129848 0.71600002 -0.028873893 1.5799335e-38 311 263
-0.010043093 0.71600002 -0.028873893 1.5616736e-38 312 263
-0.0087999795 0.71700001 -0.028914221 1.552454e-38 313 263
-0.0075428397 0.71700001 -0.028914221 1.5615657e-38 314 263
-0.0062857 0.71700001 -0.028914221 1.5431626e-38 315 263
-0.0050285598 0.71700001 -0.028914221 1.561566e-38 316 263
-0.0037714199 0.71700001 -0.028914221 1.5707855e-38 317 263
-0.0025142799 0.71700001 -0.028914221 1.5431991e-38 318 263
-0.00125714 0.71700001 -0.028914221 1.5524187e-38 319 263
0 0.71700001 -0.028914221 1.5431994e-38 320 263
0.00125714 0.71700001 -0.028914221 1.5431994e-38 321 263
0.0025142799 0.71700001 -0.028914221 1.5430919e-38 322 263
0.0037819401 0.71899998 -0.028994869 1.561495e-38 323 263
0.0050496003 0.72000003 -0.029035201 1.5431638e-38 324 263
0.0063120001 0.72000003 -0.029035201 1.5339443e-38 325 263
0.0075743999 0.72000003 -0.029035201 1.5431991e-38 326 263
0.0088367993 0.72000003 -0.029035201 1.52476e-38 327 263
0.010099201 0.72000003 -0.029035201 1.5431272e-38 328 263
0.011361601 0.72000003 -0.029035201 1.5431272e-38 329 263
0.012624 0.72000003 -0.029035201 1.543127e-38 330 263
0.0138864 0.72000003 -0.029035201 1.543127e-38 331 263
0.0151488 0.72000003 -0.029035201 1.5522386e-38 332 263
0.016456785 0.722 -0.029115854 1.5522386e-38 333 263
0.017722692 0.722 -0.029115854 1.5521667e-38 334 263
0.0189886 0.722 -0.029115854 1.5521667e-38 335 263
0.020254506 0.722 -0.029115854 1.5431626e-38 336 263
0.021520413 0.722 -0.029115854 1.5431626e-38 337 263
0.022786319 0.722 -0.029115854 1.5157197e-38 338 263
0.024052227 0.722 -0.029115854 1.5065001e-38 339 263
0.025318133 0.722 -0.029115854 1.5156481e-38 340 263
0.026584039 0.722 -0.029115854 1.4972089e-38 341 263
0.02788852 0.72299999 -0.029156178 1.5339074e-38 342 263
0.029156178 0.72299999 -0.029156178 1.5339074e-38 343 263
0.030423839 0.72299999 -0.029156178 1.524795e-38 344 263
0.031779166 0.72500002 -0.029236834 1.5340146e-38 345 263
0.033050332 0.72500002 -0.029236834 1.5247229e-38 346 263
0.034321502 0.72500002 -0.029236834 1.5247229e-38 347 263
0.035592668 0.72500002 -0.029236834 1.5156831e-38 348 263
0.036965527 0.727 -0.029317487 1.5249027e-38 349 263
0.038240198 0.727 -0.029317487 1.5157553e-38 350 263
0.039514873 0.727 -0.029317487 1.5065357e-38 351 263
0.040789545 0.727 -0.029317487 1.5247597e-38 352 263
0.042064216 0.727 -0.029317487 1.4879173e-38 353 263
0.043398503 0.72799999 -0.029357811 1.5246878e-38 354 263
0.044674929 0.72799999 -0.029357811 1.5246878e-38 355 263
0.045888241 0.727 -0.029317487 1.5246878e-38 356 263
0.047162913 0.727 -0.029317487 1.5246878e-38 357 263
0.048504211 0.72799999 -0.029357811 1.5064282e-38 358 263
0.049712259 0.727 -0.029317487 1.5064282e-38 359 263
0.050986931 0.727 -0.029317487 1.5064635e-38 360 263
0.052261602 0.727 -0.029317487 1.5156831e-38 361 263
0.053536277 0.727 -0.029317487 1.5247232e-38 362 263
0.054810952 0.727 -0.029317487 1.5339427e-38 363 263
0.056162767 0.72799999 -0.029357811 1.5339427e-38 364 263
0.057439197 0.72799999 -0.029357811 1.5339427e-38 365 263
0.058715623 0.72799999 -0.029357811 1.524795e-38 366 263
0.059992049 0.72799999 -0.029357811 1.5340146e-38 367 263
0.061436798 0.73000002 -0.029438468 1.5156478e-38 368 263
0.06271673 0.73000002 -0.029438468 1.5156478e-38 369 263
0.063996665 0.73000002 -0.029438468 1.5247594e-38 370 263
0.0652766 0.73000002 -0.029438468 1.5247594e-38 371 263
0.066556528 0.73000002 -0.029438468 1.5339424e-38 372 263
0.068115242 0.73299998 -0.029559445 1.5431979e-38 373 263
0.069400437 0.73299998 -0.029559445 1.5431979e-38 374 263
0.070685625 0.73299998 -0.029559445 1.5431979e-38 375 263
0.071970828 0.73299998 -0.029559445 1.5340146e-38 376 263
0.073256016 0.73299998 -0.029559445 1.5432342e-38 377 263
0.074541211 0.73299998 -0.029559445 1.5248676e-38 378 263
0.075826399 0.73299998 -0.029559445 1.5156481e-38 379 263
0.077216797 0.73400003 -0.029599773 1.5156481e-38 380 263
0.07850375 0.73400003 -0.029599773 1.5064285e-38 381 263
0.079790697 0.73400003 -0.029599773 1.5156481e-38 382 263
0.081077635 0.73400003 -0.029599773 1.5248676e-38 383 263
0.082589008 0.736 -0.029680425 1.4326343e-38 384 263
0.083879463 0.736 -0.029680425 1.3591653e-38 385 263
0.085401356 0.73799998 -0.029761078 1.8328167e-38 386 263
0.086695313 0.73799998 -0.029761078 2.2107829e-38 387 263
-0.090433426 0.69700003 -0.02932976 1.8896867e-38 246 264
-0.089211352 0.69700003 -0.02932976 5.0675226e-39 247 264
-0.087989278 0.69700003 -0.02932976 1.5615832e-39 248 264
-0.086767212 0.69700003 -0.02932976 4.9728215e-39 249 264
-0.08554513 0.69700003 -0.02932976 4.7898596e-39 250 264
-0.084323063 0.69700003 -0.02932976 4.2366858e-39 251 264
-0.083100989 0.69700003 -0.02932976 4.0530134e-39 252 264
-0.081878915 0.69700003 -0.02932976 3.6842323e-39 253 264
-0.080656841 0.69700003 -0.02932976 3.8675445e-39 254 264
-0.079434767 0.69700003 -0.02932976 3.8675445e-39 255 264
-0.078212693 0.69700003 -0.02932976 3.5927555e-39 256 264
-0.076990619 0.69700003 -0.02932976 3.5927555e-39 257 264
-0.075768545 0.69700003 -0.02932976 3.4094404e-39 258 264
-0.074546471 0.69700003 -0.02932976 3.4094404e-39 259 264
-0.073429599 0.69800001 -0.029371841 3.501992e-39 260 264
-0.072205767 0.69800001 -0.029371841 3.501992e-39 261 264
-0.07098195 0.69800001 -0.029371841 4.235604e-39 262 264
-0.069758117 0.69800001 -0.029371841 4.3277996e-39 263 264
-0.068534292 0.69800001 -0.029371841 8.3674754e-39 264 264
-0.06731046 0.69800001 -0.029371841 9.5660172e-39 265 264
-0.066275999 0.69999999 -0.029455997 1.3412322e-38 266 264
-0.065048665 0.69999999 -0.029455997 1.3043181e-38 267 264
-0.063821331 0.69999999 -0.029455997 1.3591688e-38 268 264
-0.062593997 0.69999999 -0.029455997 1.3683525e-38 269 264
-0.061366666 0.69999999 -0.029455997 1.3867189e-38 270 264
-0.060139328 0.69999999 -0.029455997 1.3867189e-38 271 264
-0.058911994 0.69999999 -0.029455997 1.4510043e-38 272 264
-0.057767071 0.70099998 -0.029498078 1.4694076e-38 273 264
-0.056537982 0.70099998 -0.029498078 1.4969581e-38 274 264
-0.055308893 0.70099998 -0.029498078 1.5246528e-38 275 264
-0.054234106 0.70300001 -0.029582238 1.5246525e-38 276 264
-0.053001512 0.70300001 -0.029582238 1.5246525e-38 277 264
-0.051768921 0.70300001 -0.029582238 1.542984e-38 278 264
-0.050536323 0.70300001 -0.029582238 1.5522036e-38 279 264
-0.049303733 0.70300001 -0.029582238 1.5063935e-38 280 264
-0.048071139 0.70300001 -0.029582238 1.515613e-38 281 264
-0.046905171 0.704 -0.029624319 1.5064651e-38 282 264
-0.04580057 0.70599997 -0.029708479 1.5064651e-38 283 264
-0.044562716 0.70599997 -0.029708479 1.5065004e-38 284 264
-0.043324865 0.70599997 -0.029708479 1.5065004e-38 285 264
-0.042146627 0.70700002 -0.029750559 1.488241e-38 286 264
-0.040907022 0.70700002 -0.029750559 1.488241e-38 287 264
-0.039723519 0.708 -0.02979264 1.4974253e-38 288 264
-0.038482159 0.708 -0.02979264 1.5066449e-38 289 264
-0.0372408 0.708 -0.02979264 1.5341596e-38 290 264
-0.036101133 0.70999998 -0.029876797 1.5249042e-38 291 264
-0.034856264 0.70999998 -0.029876797 1.552419e-38 292 264
-0.033658739 0.71100003 -0.029918881 1.5431994e-38 293 264
-0.032412119 0.71100003 -0.029918881 1.5431994e-38 294 264
-0.031165501 0.71100003 -0.029918881 1.552419e-38 295 264
-0.029918881 0.71100003 -0.029918881 1.5431991e-38 296 264
-0.028672259 0.71100003 -0.029918881 1.5524187e-38 297 264
-0.027425639 0.71100003 -0.029918881 1.5433788e-38 298 264
-0.026179021 0.71100003 -0.029918881 1.5249395e-38 299 264
-0.024932399 0.71100003 -0.029918881 1.5431638e-38 300 264
-0.023685781 0.71100003 -0.029918881 1.5247247e-38 301 264
-0.022502279 0.713 -0.030003037 1.5430566e-38 302 264
-0.021252153 0.713 -0.030003037 1.5614956e-38 303 264
-0.020030079 0.71399999 -0.030045118 1.5430566e-38 304 264
-0.0188308 0.71600002 -0.03012928 1.5614956e-38 305 264
-0.017575413 0.71600002 -0.03012928 1.5431641e-38 306 264
-0.016320027 0.71600002 -0.03012928 1.5431641e-38 307 264
-0.01506464 0.71600002 -0.03012928 1.5431994e-38 308 264
-0.013809253 0.71600002 -0.03012928 1.5431994e-38 309 264
-0.012553867 0.71600002 -0.03012928 1.5431991e-38 310 264
-0.01129848 0.71600002 -0.03012928 1.5524187e-38 311 264
-0.010043093 0.71600002 -0.03012928 1.5249395e-38 312 264
-0.0087999795 0.71700001 -0.030171359 1.5249395e-38 313 264
-0.0075428397 0.71700001 -0.030171359 1.5248676e-38 314 264
-0.0062857 0.71700001 -0.030171359 1.5156481e-38 315 264
-0.0050285598 0.71700001 -0.030171359 1.5248679e-38 316 264
-0.0037714199 0.71700001 -0.030171359 1.5248679e-38 317 264
-0.0025142799 0.71700001 -0.030171359 1.5431991e-38 318 264
-0.00125714 0.71700001 -0.030171359 1.5431991e-38 319 264
0 0.71700001 -0.030171359 1.5431991e-38 320 264
0.00125714 0.71700001 -0.030171359 1.5431991e-38 321 264
0.0025142799 0.71700001 -0.030171359 1.533944e-38 322 264
0.0037819401 0.71899998 -0.030255521 1.533944e-38 323 264
0.0050496003 0.72000003 -0.0302976 1.5339443e-38 324 264
0.0063120001 0.72000003 -0.0302976 1.5339443e-38 325 264
0.0075743999 0.72000003 -0.0302976 1.5339796e-38 326 264
0.0088367993 0.72000003 -0.0302976 1.52476e-38 327 264
0.010099201 0.72000003 -0.0302976 1.5247594e-38 328 264
0.011361601 0.72000003 -0.0302976 1.5340149e-38 329 264
0.012624 0.72000003 -0.0302976 1.5340146e-38 330 264
0.0138864 0.72000003 -0.0302976 1.5340146e-38 331 264
0.0151488 0.72000003 -0.0302976 1.5339427e-38 332 264
0.016456785 0.722 -0.030381758 1.5339427e-38 333 264
0.017722692 0.722 -0.030381758 1.5430544e-38 334 264
0.0189886 0.722 -0.030381758 1.5522739e-38 335 264
0.020254506 0.722 -0.030381758 1.5340146e-38 336 264
0.021520413 0.722 -0.030381758 1.5340146e-38 337 264
0.022786319 0.722 -0.030381758 1.4974238e-38 338 264
0.024085538 0.72299999 -0.030423839 1.4882042e-38 339 264
0.025318133 0.722 -0.030381758 1.5064635e-38 340 264
0.026584039 0.722 -0.030381758 1.497244e-38 341 264
0.02788852 0.72299999 -0.030423839 1.524795e-38 342 264
0.029156178 0.72299999 -0.030423839 1.524795e-38 343 264
0.030423839 0.72299999 -0.030423839 1.5247948e-38 344 264
0.031779166 0.72500002 -0.030508002 1.5247948e-38 345 264
0.033050332 0.72500002 -0.030508002 1.5248301e-38 346 264
0.034321502 0.72500002 -0.030508002 1.5340496e-38 347 264
0.035592668 0.72500002 -0.030508002 1.5157187e-38 348 264
0.036863834 0.72500002 -0.030508002 1.5157187e-38 349 264
0.038135 0.72500002 -0.030508002 1.5339793e-38 350 264
0.039514873 0.727 -0.030592158 1.5247597e-38 351 264
0.040789545 0.727 -0.030592158 1.5064285e-38 352 264
0.042064216 0.727 -0.030592158 1.4972089e-38 353 264
0.043338891 0.727 -0.030592158 1.5247594e-38 354 264
0.044613566 0.727 -0.030592158 1.5247594e-38 355 264
0.045888241 0.727 -0.030592158 1.5064635e-38 356 264
0.047162913 0.727 -0.030592158 1.5156831e-38 357 264
0.048437584 0.727 -0.030592158 1.5157184e-38 358 264
0.049712259 0.727 -0.030592158 1.5157184e-38 359 264
0.050986931 0.727 -0.030592158 1.5065705e-38 360 264
0.052261602 0.727 -0.030592158 1.5065705e-38 361 264
0.053536277 0.727 -0.030592158 1.5248298e-38 362 264
0.054810952 0.727 -0.030592158 1.5340852e-38 363 264
0.056162767 0.72799999 -0.030634239 1.524938e-38 364 264
0.057439197 0.72799999 -0.030634239 1.524938e-38 365 264
0.058715623 0.72799999 -0.030634239 1.5157187e-38 366 264
0.059992049 0.72799999 -0.030634239 1.5157187e-38 367 264
0.061436798 0.73000002 -0.030718399 1.5157197e-38 368 264
0.062544905 0.72799999 -0.030634239 1.5065001e-38 369 264
0.063821331 0.72799999 -0.030634239 1.5065357e-38 370 264
0.0652766 0.73000002 -0.030718399 1.5157553e-38 371 264
0.066556528 0.73000002 -0.030718399 1.524938e-38 372 264
0.067929395 0.73100001 -0.03076048 1.524938e-38 373 264
0.069400437 0.73299998 -0.030844638 1.5157187e-38 374 264
0.070685625 0.73299998 -0.030844638 1.5157187e-38 375 264
0.071970828 0.73299998 -0.030844638 1.5157197e-38 376 264
0.073256016 0.73299998 -0.030844638 1.5249751e-38 377 264
0.074541211 0.73299998 -0.030844638 1.4973884e-38 378 264
0.075826399 0.73299998 -0.030844638 1.4973884e-38 379 264
0.077216797 0.73400003 -0.030886721 1.5157553e-38 380 264
0.07850375 0.73400003 -0.030886721 1.5157553e-38 381 264
0.079790697 0.73400003 -0.030886721 1.5157553e-38 382 264
0.081077635 0.73400003 -0.030886721 1.5249748e-38 383 264
0.082364589 0.73400003 -0.030886721 1.4234506e-38 384 264
0.083879463 0.736 -0.030970879 1.3132476e-38 385 264
0.085169919 0.736 -0.030970879 1.8233094e-38 386 264
-0.090433426 0.69700003 -0.030551834 1.9080177e-38 246 265
-0.089211352 0.69700003 -0.030551834 5.5277777e-39 247 265
-0.087989278 0.69700003 -0.030551834 9.2161298e-40 248 265
-0.086767212 0.69700003 -0.030551834 3.871513e-39 249 265
-0.08554513 0.69700003 -0.030551834 4.422163e-39 250 265
-0.084323063 0.69700003 -0.030551834 3.869348e-39 251 265
-0.083100989 0.69700003 -0.030551834 3.5016389e-39 252 265
-0.081878915 0.69700003 -0.030551834 3.3172476e-39 253 265
-0.080656841 0.69700003 -0.030551834 3.4087244e-39 254 265
-0.079434767 0.69700003 -0.030551834 3.4087244e-39 255 265
-0.078212693 0.69700003 -0.030551834 3.4083684e-39 256 265
-0.076990619 0.69700003 -0.030551834 3.3161714e-39 257 265
-0.075768545 0.69700003 -0.030551834 3.3165245e-39 258 265
-0.074546471 0.69700003 -0.030551834 3.3165245e-39 259 265
-0.073324397 0.69700003 -0.030551834 3.4090775e-39 260 265
-0.072102323 0.69700003 -0.030551834 3.4090775e-39 261 265
-0.07098195 0.69800001 -0.030595668 4.1437615e-39 262 265
-0.069758117 0.69800001 -0.030595668 3.9597303e-39 263 265
-0.068534292 0.69800001 -0.030595668 8.1834359e-39 264 265
-0.06731046 0.69800001 -0.030595668 9.2901436e-39 265 265
-0.066086642 0.69800001 -0.030595668 1.3226126e-38 266 265
-0.06486281 0.69800001 -0.030595668 1.2765508e-38 267 265
-0.063638985 0.69800001 -0.030595668 1.3408008e-38 268 265
-0.062593997 0.69999999 -0.030683333 1.3960105e-38 269 265
-0.061366666 0.69999999 -0.030683333 1.3870414e-38 270 265
-0.060139328 0.69999999 -0.030683333 1.4054445e-38 271 265
-0.058911994 0.69999999 -0.030683333 1.4605095e-38 272 265
-0.05768466 0.69999999 -0.030683333 1.4697292e-38 273 265
-0.056537982 0.70099998 -0.030727165 1.488097e-38 274 265
-0.055308893 0.70099998 -0.030727165 1.5157197e-38 275 265
-0.054079808 0.70099998 -0.030727165 1.5248676e-38 276 265
-0.053001512 0.70300001 -0.030814834 1.5156481e-38 277 265
-0.051768921 0.70300001 -0.030814834 1.5248676e-38 278 265
-0.050536323 0.70300001 -0.030814834 1.5156481e-38 279 265
-0.049303733 0.70300001 -0.030814834 1.4973887e-38 280 265
-0.048071139 0.70300001 -0.030814834 1.4881692e-38 281 265
-0.046905171 0.704 -0.030858666 1.4880973e-38 282 265
-0.04580057 0.70599997 -0.030946331 1.4880973e-38 283 265
-0.044562716 0.70599997 -0.030946331 1.4789137e-38 284 265
-0.043324865 0.70599997 -0.030946331 1.4789137e-38 285 265
-0.042146627 0.70700002 -0.030990168 1.46069e-38 286 265
-0.040907022 0.70700002 -0.030990168 1.46069e-38 287 265
-0.039723519 0.708 -0.031034 1.4698021e-38 288 265
-0.038482159 0.708 -0.031034 1.4698021e-38 289 265
-0.0372408 0.708 -0.031034 1.5156483e-38 290 265
-0.036101133 0.70999998 -0.031121666 1.5156483e-38 291 265
-0.034856264 0.70999998 -0.031121666 1.5339793e-38 292 265
-0.033611398 0.70999998 -0.031121666 1.5339793e-38 293 265
-0.032366529 0.70999998 -0.031121666 1.5247597e-38 294 265
-0.031121666 0.70999998 -0.031121666 1.5247597e-38 295 265
-0.029876797 0.70999998 -0.031121666 1.52476e-38 296 265
-0.028672259 0.71100003 -0.031165501 1.5339796e-38 297 265
-0.027425639 0.71100003 -0.031165501 1.5157199e-38 298 265
-0.026179021 0.71100003 -0.031165501 1.5065004e-38 299 265
-0.024932399 0.71100003 -0.031165501 1.5339077e-38 300 265
-0.023685781 0.71100003 -0.031165501 1.5246881e-38 301 265
-0.022502279 0.713 -0.031253166 1.5246528e-38 302 265
-0.021252153 0.713 -0.031253166 1.5338724e-38 303 265
-0.020030079 0.71399999 -0.031296998 1.5246528e-38 304 265
-0.0188308 0.71600002 -0.031384666 1.5154332e-38 305 265
-0.017575413 0.71600002 -0.031384666 1.5246528e-38 306 265
-0.016320027 0.71600002 -0.031384666 1.5338724e-38 307 265
-0.01506464 0.71600002 -0.031384666 1.5247244e-38 308 265
-0.013809253 0.71600002 -0.031384666 1.533944e-38 309 265
-0.012553867 0.71600002 -0.031384666 1.5339796e-38 310 265
-0.01129848 0.71600002 -0.031384666 1.5431991e-38 311 265
-0.010043093 0.71600002 -0.031384666 1.5064648e-38 312 265
-0.0087877065 0.71600002 -0.031384666 1.5064648e-38 313 265
-0.0075428397 0.71700001 -0.031428497 1.5156127e-38 314 265
-0.0062857 0.71700001 -0.031428497 1.5063932e-38 315 265
-0.0050285598 0.71700001 -0.031428497 1.5063929e-38 316 265
-0.0037714199 0.71700001 -0.031428497 1.5063929e-38 317 265
-0.0025142799 0.71700001 -0.031428497 1.52476e-38 318 265
-0.00125714 0.71700001 -0.031428497 1.52476e-38 319 265
0 0.71700001 -0.031428497 1.5247597e-38 320 265
0.00125714 0.71700001 -0.031428497 1.5247597e-38 321 265
0.0025142799 0.71700001 -0.031428497 1.5064282e-38 322 265
0.0037819401 0.71899998 -0.031516165 1.5064282e-38 323 265
0.0050425865 0.71899998 -0.031516165 1.5247597e-38 324 265
0.0063120001 0.72000003 -0.03156 1.5247597e-38 325 265
0.0075743999 0.72000003 -0.03156 1.5339074e-38 326 265
0.0088367993 0.72000003 -0.03156 1.5339074e-38 327 265
0.010099201 0.72000003 -0.03156 1.5339424e-38 328 265
0.011361601 0.72000003 -0.03156 1.5339424e-38 329 265
0.012624 0.72000003 -0.03156 1.5157184e-38 330 265
0.0138864 0.72000003 -0.03156 1.5064988e-38 331 265
0.0151488 0.72000003 -0.03156 1.5247229e-38 332 265
0.0164112 0.72000003 -0.03156 1.5339424e-38 333 265
0.017722692 0.722 -0.031647664 1.5155752e-38 334 265
0.0189886 0.722 -0.031647664 1.5247948e-38 335 265
0.020254506 0.722 -0.031647664 1.5064988e-38 336 265
0.021520413 0.722 -0.031647664 1.5157184e-38 337 265
0.022786319 0.722 -0.031647664 1.5064986e-38 338 265
0.024085538 0.72299999 -0.031691495 1.5064986e-38 339 265
0.025353199 0.72299999 -0.031691495 1.5156105e-38 340 265
0.026620859 0.72299999 -0.031691495 1.5156105e-38 341 265
0.02788852 0.72299999 -0.031691495 1.5247229e-38 342 265
0.029156178 0.72299999 -0.031691495 1.5155032e-38 343 265
0.030423839 0.72299999 -0.031691495 1.5247585e-38 344 265
0.031691495 0.72299999 -0.031691495 1.5247585e-38 345 265
0.032959159 0.72299999 -0.031691495 1.5248301e-38 346 265
0.03422682 0.72299999 -0.031691495 1.5248301e-38 347 265
0.035592668 0.72500002 -0.031779166 1.5155752e-38 348 265
0.036863834 0.72500002 -0.031779166 1.4879524e-38 349 265
0.038135 0.72500002 -0.031779166 1.5246881e-38 350 265
0.039514873 0.727 -0.03186683 1.5154684e-38 351 265
0.040789545 0.727 -0.03186683 1.5154684e-38 352 265
0.042064216 0.727 -0.03186683 1.5246881e-38 353 265
0.043338891 0.727 -0.03186683 1.5155399e-38 354 265
0.044613566 0.727 -0.03186683 1.5155399e-38 355 265
0.045888241 0.727 -0.03186683 1.5155749e-38 356 265
0.047162913 0.727 -0.03186683 1.5155749e-38 357 265
0.048437584 0.727 -0.03186683 1.5248301e-38 358 265
0.049712259 0.727 -0.03186683 1.5156105e-38 359 265
0.050986931 0.727 -0.03186683 1.5065342e-38 360 265
0.052261602 0.727 -0.03186683 1.5065342e-38 361 265
0.053536277 0.727 -0.03186683 1.5248654e-38 362 265
0.054810952 0.727 -0.03186683 1.5248654e-38 363 265
0.056162767 0.72799999 -0.031910665 1.5248301e-38 364 265
0.057439197 0.72799999 -0.031910665 1.5156105e-38 365 265
0.058715623 0.72799999 -0.031910665 1.4880967e-38 366 265
0.059992049 0.72799999 -0.031910665 1.4880967e-38 367 265
0.061436798 0.73000002 -0.031998333 1.4972087e-38 368 265
0.062544905 0.72799999 -0.031910665 1.4972087e-38 369 265
0.063821331 0.72799999 -0.031910665 1.5064282e-38 370 265
0.0652766 0.73000002 -0.031998333 1.5064282e-38 371 265
0.066556528 0.73000002 -0.031998333 1.5248304e-38 372 265
0.067929395 0.73100001 -0.032042164 1.5340499e-38 373 265
0.069400437 0.73299998 -0.032129832 1.5247232e-38 374 265
0.070685625 0.73299998 -0.032129832 1.5155034e-38 375 265
0.071970828 0.73299998 -0.032129832 1.4971733e-38 376 265
0.073355958 0.73400003 -0.032173667 1.5063929e-38 377 265
0.074642912 0.73400003 -0.032173667 1.5064285e-38 378 265
0.07592985 0.73400003 -0.032173667 1.4972089e-38 379 265
0.077216797 0.73400003 -0.032173667 1.4880973e-38 380 265
0.07850375 0.73400003 -0.032173667 1.4788777e-38 381 265
0.079790697 0.73400003 -0.032173667 1.488097e-38 382 265
0.081077635 0.73400003 -0.032173667 1.488097e-38 383 265
0.082364589 0.73400003 -0.032173667 1.4142669e-38 384 265
0.083879463 0.736 -0.032261331 1.3132476e-38 385 265
0.085169919 0.736 -0.032261331 1.8048703e-38 386 265
0.086460374 0.736 -0.032261331 2.2197507e-38 387 265
-0.090563171 0.69800001 -0.031819493 1.9263842e-38 246 266
-0.089339346 0.69800001 -0.031819493 6.2646169e-39 247 266
-0.087989278 0.69700003 -0.03177391 1.2929094e-39 248 266
-0.086767212 0.69700003 -0.03177391 3.4134089e-39 249 266
-0.08554513 0.69700003 -0.03177391 3.5045227e-39 250 266
-0.084444039 0.69800001 -0.031819493 3.136099e-39 251 266
-0.083100989 0.69700003 -0.03177391 3.1335766e-39 252 266
-0.081878915 0.69700003 -0.03177391 3.1335766e-39 253 266
-0.080656841 0.69700003 -0.03177391 2.8580701e-39 254 266
-0.079434767 0.69700003 -0.03177391 2.8580701e-39 255 266
-0.078212693 0.69700003 -0.03177391 3.0403076e-39 256 266
-0.076990619 0.69700003 -0.03177391 3.0403076e-39 257 266
-0.075768545 0.69700003 -0.03177391 3.0406635e-39 258 266
-0.074546471 0.69700003 -0.03177391 3.0406635e-39 259 266
-0.073324397 0.69700003 -0.03177391 2.949184e-39 260 266
-0.072102323 0.69700003 -0.03177391 3.0413796e-39 261 266
-0.070880257 0.69700003 -0.03177391 3.4083684e-39 262 266
-0.069758117 0.69800001 -0.031819493 3.4083684e-39 263 266
-0.068534292 0.69800001 -0.031819493 7.4480457e-39 264 266
-0.06731046 0.69800001 -0.031819493 8.3696418e-39 265 266
-0.066086642 0.69800001 -0.031819493 1.350272e-38 266 266
-0.06486281 0.69800001 -0.031819493 1.3318329e-38 267 266
-0.063638985 0.69800001 -0.031819493 1.4143052e-38 268 266
-0.062415157 0.69800001 -0.031819493 1.4511833e-38 269 266
-0.061366666 0.69999999 -0.031910665 1.5064638e-38 270 266
-0.060139328 0.69999999 -0.031910665 1.5156834e-38 271 266
-0.058911994 0.69999999 -0.031910665 1.5249032e-38 272 266
-0.05768466 0.69999999 -0.031910665 1.5156478e-38 273 266
-0.056537982 0.70099998 -0.031956252 1.5157197e-38 274 266
-0.055308893 0.70099998 -0.031956252 1.5157197e-38 275 266
-0.054079808 0.70099998 -0.031956252 1.5157197e-38 276 266
-0.053001512 0.70300001 -0.032047424 1.5157197e-38 277 266
-0.051768921 0.70300001 -0.032047424 1.5249395e-38 278 266
-0.050536323 0.70300001 -0.032047424 1.5065004e-38 279 266
-0.049303733 0.70300001 -0.032047424 1.4791294e-38 280 266
-0.048139516 0.704 -0.032093015 1.4698739e-38 281 266
-0.046905171 0.704 -0.032093015 1.4606544e-38 282 266
-0.04580057 0.70599997 -0.032184184 1.4606544e-38 283 266
-0.044562716 0.70599997 -0.032184184 1.4513629e-38 284 266
-0.043324865 0.70599997 -0.032184184 1.4605825e-38 285 266
-0.042146627 0.70700002 -0.032229774 1.4331039e-38 286 266
-0.040907022 0.70700002 -0.032229774 1.4423234e-38 287 266
-0.039723519 0.708 -0.03227536 1.4332481e-38 288 266
-0.038482159 0.708 -0.03227536 1.4240285e-38 289 266
-0.0372408 0.708 -0.03227536 1.469767e-38 290 266
-0.036101133 0.70999998 -0.032366529 1.469767e-38 291 266
-0.034856264 0.70999998 -0.032366529 1.5064651e-38 292 266
-0.033611398 0.70999998 -0.032366529 1.5064651e-38 293 266
-0.032366529 0.70999998 -0.032366529 1.4881336e-38 294 266
-0.031121666 0.70999998 -0.032366529 1.478914e-38 295 266
-0.029876797 0.70999998 -0.032366529 1.4971733e-38 296 266
-0.028631933 0.70999998 -0.032366529 1.5156483e-38 297 266
-0.027425639 0.71100003 -0.032412119 1.4881689e-38 298 266
-0.026179021 0.71100003 -0.032412119 1.4881689e-38 299 266
-0.024932399 0.71100003 -0.032412119 1.488097e-38 300 266
-0.023685781 0.71100003 -0.032412119 1.488097e-38 301 266
-0.022502279 0.713 -0.032503292 1.5064648e-38 302 266
-0.021252153 0.713 -0.032503292 1.5064648e-38 303 266
-0.020030079 0.71399999 -0.032548878 1.4971739e-38 304 266
-0.018778199 0.71399999 -0.032548878 1.4971739e-38 305 266
-0.017575413 0.71600002 -0.032640055 1.4971386e-38 306 266
-0.016274439 0.71399999 -0.032548878 1.4971386e-38 307 266
-0.015022559 0.71399999 -0.032548878 1.4880266e-38 308 266
-0.013809253 0.71600002 -0.032640055 1.4880266e-38 309 266
-0.012553867 0.71600002 -0.032640055 1.4788787e-38 310 266
-0.01129848 0.71600002 -0.032640055 1.4880983e-38 311 266
-0.010043093 0.71600002 -0.032640055 1.4514001e-38 312 266
-0.0087877065 0.71600002 -0.032640055 1.4514001e-38 313 266
-0.0075428397 0.71700001 -0.032685637 1.4605475e-38 314 266
-0.0062857 0.71700001 -0.032685637 1.4605475e-38 315 266
-0.0050285598 0.71700001 -0.032685637 1.4881338e-38 316 266
-0.0037714199 0.71700001 -0.032685637 1.4696947e-38 317 266
-0.0025142799 0.71700001 -0.032685637 1.4788787e-38 318 266
-0.00125714 0.71700001 -0.032685637 1.4788787e-38 319 266
0 0.71700001 -0.032685637 1.4789143e-38 320 266
0.00125714 0.71700001 -0.032685637 1.4789143e-38 321 266
0.0025142799 0.71700001 -0.032685637 1.4881336e-38 322 266
0.0037819401 0.71899998 -0.032776814 1.478914e-38 323 266
0.0050425865 0.71899998 -0.032776814 1.4789143e-38 324 266
0.0063120001 0.72000003 -0.0328224 1.4789143e-38 325 266
0.0075743999 0.72000003 -0.0328224 1.488062e-38 326 266
0.0088367993 0.72000003 -0.0328224 1.4696227e-38 327 266
0.010099201 0.72000003 -0.0328224 1.5155402e-38 328 266
0.011361601 0.72000003 -0.0328224 1.4971369e-38 329 266
0.012624 0.72000003 -0.0328224 1.4971363e-38 330 266
0.0138864 0.72000003 -0.0328224 1.4971363e-38 331 266
0.0151488 0.72000003 -0.0328224 1.4971369e-38 332 266
0.0164112 0.72000003 -0.0328224 1.4879173e-38 333 266
0.017722692 0.722 -0.032913569 1.4971366e-38 334 266
0.0189886 0.722 -0.032913569 1.5155399e-38 335 266
0.020254506 0.722 -0.032913569 1.4789127e-38 336 266
0.021520413 0.722 -0.032913569 1.4789127e-38 337 266
0.022786319 0.722 -0.032913569 1.4880243e-38 338 266
0.024085538 0.72299999 -0.032959159 1.4880243e-38 339 266
0.025353199 0.72299999 -0.032959159 1.4788771e-38 340 266
0.026620859 0.72299999 -0.032959159 1.4788771e-38 341 266
0.02788852 0.72299999 -0.032959159 1.487989e-38 342 266
0.029156178 0.72299999 -0.032959159 1.4972087e-38 343 266
0.030423839 0.72299999 -0.032959159 1.487989e-38 344 266
0.031691495 0.72299999 -0.032959159 1.487989e-38 345 266
0.032959159 0.72299999 -0.032959159 1.478949e-38 346 266
0.03422682 0.72299999 -0.032959159 1.4697295e-38 347 266
0.035592668 0.72500002 -0.033050332 1.4879892e-38 348 266
0.036863834 0.72500002 -0.033050332 1.4787338e-38 349 266
0.038135 0.72500002 -0.033050332 1.4786988e-38 350 266
0.039514873 0.727 -0.033141505 1.4879185e-38 351 266
0.040789545 0.727 -0.033141505 1.4879539e-38 352 266
0.042064216 0.727 -0.033141505 1.4879539e-38 353 266
0.043338891 0.727 -0.033141505 1.4604747e-38 354 266
0.044613566 0.727 -0.033141505 1.4604747e-38 355 266
0.045888241 0.727 -0.033141505 1.4879892e-38 356 266
0.047162913 0.727 -0.033141505 1.4603307e-38 357 266
0.048437584 0.727 -0.033141505 1.4786975e-38 358 266
0.049712259 0.727 -0.033141505 1.4879171e-38 359 266
0.050986931 0.727 -0.033141505 1.4697295e-38 360 266
0.052261602 0.727 -0.033141505 1.4697295e-38 361 266
0.053536277 0.727 -0.033141505 1.4605098e-38 362 266
0.054810952 0.727 -0.033141505 1.4605098e-38 363 266
0.056162767 0.72799999 -0.033187091 1.4605101e-38 364 266
0.057439197 0.72799999 -0.033187091 1.4789493e-38 365 266
0.058715623 0.72799999 -0.033187091 1.4696942e-38 366 266
0.059992049 0.72799999 -0.033187091 1.4696942e-38 367 266
0.061436798 0.73000002 -0.033278264 1.4696944e-38 368 266
0.06271673 0.73000002 -0.033278264 1.4604747e-38 369 266
0.063996665 0.73000002 -0.033278264 1.4696944e-38 370 266
0.0652766 0.73000002 -0.033278264 1.4696944e-38 371 266
0.066556528 0.73000002 -0.033278264 1.4696942e-38 372 266
0.068115242 0.73299998 -0.033415023 1.4604745e-38 373 266
0.069400437 0.73299998 -0.033415023 1.4879536e-38 374 266
0.070685625 0.73299998 -0.033415023 1.4971733e-38 375 266
0.071970828 0.73299998 -0.033415023 1.4696591e-38 376 266
0.073256016 0.73299998 -0.033415023 1.4696591e-38 377 266
0.074642912 0.73400003 -0.033460613 1.4604396e-38 378 266
0.07592985 0.73400003 -0.033460613 1.4604396e-38 379 266
0.077216797 0.73400003 -0.033460613 1.4513276e-38 380 266
0.07850375 0.73400003 -0.033460613 1.4513276e-38 381 266
0.079790697 0.73400003 -0.033460613 1.4604391e-38 382 266
0.081077635 0.73400003 -0.033460613 1.4789143e-38 383 266
0.082364589 0.73400003 -0.033460613 1.36835e-38 384 266
0.083651535 0.73400003 -0.033460613 1.2673298e-38 385 266
0.084938474 0.73400003 -0.033460613 1.8508607e-38 386 266
0.086225428 0.73400003 -0.033460613 2.2749604e-38 387 266
-0.090563171 0.69800001 -0.033043321 1.944752e-38 246 267
-0.089339346 0.69800001 -0.033043321 6.9089143e-39 247 267
-0.087989278 0.69700003 -0.03299598 1.662415e-39 248 267
-0.086767212 0.69700003 -0.03299598 3.5063262e-39 249 267
-0.08554513 0.69700003 -0.03299598 3.414125e-39 250 267
-0.084444039 0.69800001 -0.033043321 2.6765599e-39 251 267
-0.083100989 0.69700003 -0.03299598 3.2250478e-39 252 267
-0.081878915 0.69700003 -0.03299598 3.0410167e-39 253 267
-0.080656841 0.69700003 -0.03299598 3.1321305e-39 254 267
-0.079434767 0.69700003 -0.03299598 3.1321305e-39 255 267
-0.078212693 0.69700003 -0.03299598 3.0406607e-39 256 267
-0.076990619 0.69700003 -0.03299598 3.0406607e-39 257 267
-0.075768545 0.69700003 -0.03299598 2.9484623e-39 258 267
-0.074546471 0.69700003 -0.03299598 2.8562667e-39 259 267
-0.073324397 0.69700003 -0.03299598 3.1321333e-39 260 267
-0.072102323 0.69700003 -0.03299598 3.1321333e-39 261 267
-0.070880257 0.69700003 -0.03299598 3.4991179e-39 262 267
-0.069658175 0.69700003 -0.03299598 3.3147267e-39 263 267
-0.068436109 0.69700003 -0.03299598 7.537363e-39 264 267
-0.06731046 0.69800001 -0.033043321 8.3671251e-39 265 267
-0.066086642 0.69800001 -0.033043321 1.4147017e-38 266 267
-0.06486281 0.69800001 -0.033043321 1.4976418e-38 267 267
-0.063638985 0.69800001 -0.033043321 1.543271e-38 268 267
-0.062415157 0.69800001 -0.033043321 1.5156483e-38 269 267
-0.061366666 0.69999999 -0.033137999 1.5797531e-38 270 267
-0.060139328 0.69999999 -0.033137999 1.5797531e-38 271 267
-0.058911994 0.69999999 -0.033137999 1.5522386e-38 272 267
-0.05768466 0.69999999 -0.033137999 1.5522386e-38 273 267
-0.056537982 0.70099998 -0.03318534 1.5430193e-38 274 267
-0.055308893 0.70099998 -0.03318534 1.5430193e-38 275 267
-0.054079808 0.70099998 -0.03318534 1.5430193e-38 276 267
-0.053001512 0.70300001 -0.033280019 1.5430193e-38 277 267
-0.051768921 0.70300001 -0.033280019 1.4971016e-38 278 267
-0.050536323 0.70300001 -0.033280019 1.5155048e-38 279 267
-0.049303733 0.70300001 -0.033280019 1.4788068e-38 280 267
-0.048139516 0.704 -0.03332736 1.4788068e-38 281 267
-0.046905171 0.704 -0.03332736 1.4513632e-38 282 267
-0.045670826 0.704 -0.03332736 1.4421435e-38 283 267
-0.044562716 0.70599997 -0.033422034 1.4421435e-38 284 267
-0.043324865 0.70599997 -0.033422034 1.4513632e-38 285 267
-0.042087011 0.70599997 -0.033422034 1.4147368e-38 286 267
-0.040907022 0.70700002 -0.033469379 1.4147368e-38 287 267
-0.039723519 0.708 -0.033516716 1.4147721e-38 288 267
-0.038482159 0.708 -0.033516716 1.4055525e-38 289 267
-0.037345998 0.70999998 -0.033611398 1.4605098e-38 290 267
-0.036101133 0.70999998 -0.033611398 1.4697295e-38 291 267
-0.034856264 0.70999998 -0.033611398 1.4971366e-38 292 267
-0.033611398 0.70999998 -0.033611398 1.5155399e-38 293 267
-0.032366529 0.70999998 -0.033611398 1.4879892e-38 294 267
-0.031121666 0.70999998 -0.033611398 1.4972089e-38 295 267
-0.029876797 0.70999998 -0.033611398 1.4971013e-38 296 267
-0.028631933 0.70999998 -0.033611398 1.4878818e-38 297 267
-0.027425639 0.71100003 -0.033658739 1.4972087e-38 298 267
-0.026179021 0.71100003 -0.033658739 1.487989e-38 299 267
-0.024932399 0.71100003 -0.033658739 1.4789127e-38 300 267
-0.023685781 0.71100003 -0.033658739 1.469693e-38 301 267
-0.022502279 0.713 -0.033753417 1.4881323e-38 302 267
-0.021252153 0.713 -0.033753417 1.4789127e-38 303 267
-0.020030079 0.71399999 -0.033800758 1.4879887e-38 304 267
-0.018778199 0.71399999 -0.033800758 1.4879887e-38 305 267
-0.017575413 0.71600002 -0.03389544 1.4879536e-38 306 267
-0.016274439 0.71399999 -0.033800758 1.4971733e-38 307 267
-0.015022559 0.71399999 -0.033800758 1.4879539e-38 308 267
-0.013809253 0.71600002 -0.03389544 1.4787344e-38 309 267
-0.012553867 0.71600002 -0.03389544 1.4788421e-38 310 267
-0.01129848 0.71600002 -0.03389544 1.4696224e-38 311 267
-0.010043093 0.71600002 -0.03389544 1.4513629e-38 312 267
-0.0087877065 0.71600002 -0.03389544 1.4329237e-38 313 267
-0.0075428397 0.71700001 -0.033942781 1.4696944e-38 314 267
-0.0062857 0.71700001 -0.033942781 1.4604747e-38 315 267
-0.0050285598 0.71700001 -0.033942781 1.4788777e-38 316 267
-0.0037714199 0.71700001 -0.033942781 1.4696221e-38 317 267
-0.0025142799 0.71700001 -0.033942781 1.4879539e-38 318 267
-0.00125714 0.71700001 -0.033942781 1.4971736e-38 319 267
0 0.71700001 -0.033942781 1.4879185e-38 320 267
0.00125714 0.71700001 -0.033942781 1.4786988e-38 321 267
0.0025142799 0.71700001 -0.033942781 1.4604382e-38 322 267
0.0037819401 0.71899998 -0.03403746 1.4696577e-38 323 267
0.0050425865 0.71899998 -0.03403746 1.4788047e-38 324 267
0.0063120001 0.72000003 -0.034084801 1.4603657e-38 325 267
0.0075743999 0.72000003 -0.034084801 1.4879173e-38 326 267
0.0088367993 0.72000003 -0.034084801 1.4694423e-38 327 267
0.010099201 0.72000003 -0.034084801 1.4969571e-38 328 267
0.011361601 0.72000003 -0.034084801 1.4969571e-38 329 267
0.012624 0.72000003 -0.034084801 1.4969208e-38 330 267
0.0138864 0.72000003 -0.034084801 1.5152881e-38 331 267
0.0151488 0.72000003 -0.034084801 1.4969568e-38 332 267
0.016456785 0.722 -0.034179479 1.5337991e-38 333 267
0.017722692 0.722 -0.034179479 1.5062836e-38 334 267
0.0189886 0.722 -0.034179479 1.497064e-38 335 267
0.020254506 0.722 -0.034179479 1.5062114e-38 336 267
0.021550218 0.72299999 -0.03422682 1.4877723e-38 337 267
0.02281788 0.72299999 -0.03422682 1.4787328e-38 338 267
0.024085538 0.72299999 -0.03422682 1.4694774e-38 339 267
0.025353199 0.72299999 -0.03422682 1.4604376e-38 340 267
0.026620859 0.72299999 -0.03422682 1.451218e-38 341 267
0.02788852 0.72299999 -0.03422682 1.460366e-38 342 267
0.029156178 0.72299999 -0.03422682 1.460366e-38 343 267
0.030423839 0.72299999 -0.03422682 1.4786972e-38 344 267
0.031691495 0.72299999 -0.03422682 1.4879168e-38 345 267
0.032959159 0.72299999 -0.03422682 1.4696928e-38 346 267
