# .PCD v.7 - Point Cloud Data file format
FIELDS x y z rgb imX imY
SIZE 4 4 4 4 4 4
TYPE F F F F F F
COUNT 1 1 1 1 1 1
WIDTH 848
HEIGHT 1
VIEWPOINT 0 0 0 1 0 0 0
POINTS 848
DATA ascii
-0.085729234 0.63499999 0.075708933 1.2358923e-38 243 172
-0.084615864 0.63499999 0.075708933 1.180827e-38 244 172
-0.083108 0.63200003 0.075351253 1.180827e-38 245 172
-0.081870146 0.63099998 0.075232022 1.1991582e-38 246 172
-0.080763787 0.63099998 0.075232022 1.2084137e-38 247 172
-0.079404958 0.62900001 0.074993573 1.199229e-38 248 172
-0.078177623 0.62800002 0.074874349 1.2084487e-38 249 172
-0.076953799 0.62699997 0.074755117 1.1897219e-38 250 172
-0.0756125 0.625 0.074516661 9.7767179e-39 251 172
-0.074278213 0.62300003 0.074278213 8.4877811e-39 252 172
-0.07306841 0.62199998 0.074158981 1.0884509e-38 253 172
-0.071862116 0.62099999 0.074039757 1.1528063e-38 254 172
-0.070659332 0.62 0.073920533 9.0387815e-39 255 172
-0.069572262 0.62 0.073920533 9.6801852e-39 256 172
-0.0684852 0.62 0.073920533 9.5879896e-39 257 172
-0.067506835 0.62099999 0.074039757 8.5781621e-39 258 172
-0.066418022 0.62099999 0.074039757 1.0790498e-38 259 172
-0.061626155 0.60600001 0.072251357 7.7523825e-39 262 172
-0.060563639 0.60600001 0.072251357 8.3051975e-39 263 172
-0.059501119 0.60600001 0.072251357 9.0398801e-39 264 172
-0.058535028 0.60699999 0.072370589 1.0054031e-38 265 172
-0.057470758 0.60699999 0.072370589 1.015053e-38 266 172
-0.056406487 0.60699999 0.072370589 1.0334561e-38 267 172
-0.055342209 0.60699999 0.072370589 1.0882341e-38 268 172
-0.054277938 0.60699999 0.072370589 1.0974895e-38 269 172
-0.053126 0.60600001 0.072251357 9.8707156e-39 270 172
-0.051891651 0.60399997 0.072012901 9.5937699e-39 271 172
-0.050748479 0.60299999 0.071893677 8.8586936e-39 272 172
-0.049444001 0.60000002 0.071536005 7.3835621e-39 273 172
-0.048311342 0.59899998 0.071416765 8.671794e-39 274 172
-0.047103297 0.597 0.071178317 8.7639896e-39 275 172
-0.046056557 0.597 0.071178317 8.4035112e-39 276 172
-0.045009818 0.597 0.071178317 1.0432174e-38 277 172
-0.043889441 0.59600002 0.071059093 1.1991582e-38 278 172
-0.042772565 0.59500003 0.070939869 1.1991582e-38 279 172
-0.041729335 0.59500003 0.070939869 1.1992304e-38 280 172
-0.040686101 0.59500003 0.070939869 1.1808273e-38 281 172
-0.039642867 0.59500003 0.070939869 1.171644e-38 282 172
-0.038599633 0.59500003 0.070939869 1.171644e-38 283 172
-0.037556402 0.59500003 0.070939869 1.1348013e-38 284 172
-0.036513168 0.59500003 0.070939869 1.0978871e-38 285 172
-0.035469934 0.59500003 0.070939869 1.1253297e-38 286 172
-0.0344267 0.59500003 0.070939869 1.1161101e-38 287 172
-0.033439573 0.59600002 0.071059093 1.1161098e-38 288 172
-0.03244894 0.597 0.071178317 1.1161098e-38 289 172
-0.0314022 0.597 0.071178317 1.0885946e-38 290 172
-0.030406304 0.59799999 0.071297541 1.0885946e-38 291 172
-0.029406905 0.59899998 0.071416765 1.0885944e-38 292 172
-0.028404001 0.60000002 0.071536005 1.0885944e-38 293 172
-0.027443172 0.602 0.071774453 1.097706e-38 294 172
-0.026475331 0.60399997 0.072012901 1.097706e-38 295 172
-0.025542559 0.60699999 0.072370589 1.106889e-38 296 172
-0.024518611 0.60799998 0.072489806 1.0423521e-38 297 172
-0.023452586 0.60799998 0.072489806 1.1520113e-38 298 172
-0.022423381 0.60900003 0.072609045 9.8609513e-39 299 172
-0.021355599 0.60900003 0.072609045 1.1693666e-38 300 172
-0.020287819 0.60900003 0.072609045 1.1417438e-38 301 172
-0.0192516 0.61000001 0.072728261 1.1415637e-38 302 172
-0.018331099 0.61500001 0.073324397 1.1323442e-38 303 172
-0.017280852 0.616 0.073443621 9.939431e-39 304 172
-0.016200799 0.616 0.073443621 8.741248e-39 305 172
-0.015169838 0.61799997 0.073682077 8.7391054e-39 306 172
-0.014086278 0.61799997 0.073682077 8.7391054e-39 307 172
-0.01302376 0.61900002 0.073801309 8.3703481e-39 308 172
-0.011957733 0.62 0.073920533 8.3703481e-39 309 172
-0.010888199 0.62099999 0.074039757 8.3692733e-39 310 172
-0.0098309405 0.62300003 0.074278213 7.447317e-39 311 172
-0.0087526403 0.62400001 0.074397437 6.9885067e-39 312 172
-0.0076708333 0.625 0.074516661 1.1690484e-38 313 172
-0.006575 0.625 0.074516661 1.1520864e-38 314 172
-0.0054966994 0.62699997 0.074755117 1.327222e-38 315 172
-0.0044043735 0.62800002 0.074874349 1.1344748e-38 316 172
-0.00330854 0.62900001 0.074993573 1.106816e-38 317 172
-0.0022127065 0.63099998 0.075232022 1.1613763e-38 318 172
-0.0011116134 0.634 0.075589702 1.0968393e-38 319 172
0 0.63599998 0.07582815 1.123667e-38 320 172
0.0011168733 0.63700002 0.075947389 1.1513616e-38 321 172
0.0022372534 0.63800001 0.076066613 1.1424272e-38 322 172
0.0033663998 0.63999999 0.076305062 1.0594511e-38 323 172
0.0044955462 0.64099997 0.076424286 1.0404375e-38 324 172
0.0056369668 0.64300001 0.076662742 1.0219984e-38 325 172
0.0067643598 0.64300001 0.076662742 9.9437666e-39 326 172
0.0079040267 0.64399999 0.076781973 9.2983972e-39 327 172
0.0090612266 0.64600003 0.077020429 9.019665e-39 328 172
0.01020966 0.64700001 0.077139653 8.7430781e-39 329 172
0.011379133 0.64899999 0.077378102 8.4650591e-39 330 172
0.012536332 0.64999998 0.077497326 8.3728634e-39 331 172
0.01371808 0.65200001 0.077735789 8.1888323e-39 332 172
0.014884046 0.653 0.077855013 8.4650591e-39 333 172
0.01605352 0.65399998 0.077974238 8.8363401e-39 334 172
0.017226499 0.65499997 0.078093462 9.2976784e-39 335 172
0.018374931 0.65499997 0.078093462 9.75899e-39 336 172
0.019582979 0.65700001 0.078331918 1.0035217e-38 337 172
0.02086116 0.66100001 0.078808829 1.0219968e-38 338 172
0.022053426 0.662 0.078928046 1.0312164e-38 339 172
0.0232492 0.66299999 0.079047278 1.0404372e-38 340 172
0.02452212 0.66600001 0.079404958 1.0681319e-38 341 172
0.025728412 0.667 0.079524182 1.0864634e-38 342 172
0.027018867 0.67000002 0.079881869 1.0864634e-38 343 172
0.02827776 0.67199999 0.080120318 9.7579363e-39 344 172
0.029455997 0.67199999 0.080120318 9.7579363e-39 345 172
0.030771 0.67500001 0.080477998 1.0872247e-38 346 172
0.032001842 0.676 0.080597222 1.124103e-38 347 172
0.033334374 0.67900002 0.080954902 1.0876586e-38 348 172
0.034575731 0.68000001 0.081074134 7.5575431e-39 349 172
0.035873197 0.68199998 0.081312582 4.0522917e-39 350 172
0.037068974 0.68199998 0.081312582 4.4210742e-39 351 172
0.03848917 0.68599999 0.081789486 5.8011346e-39 352 172
0.039691959 0.68599999 0.081789486 8.6595593e-39 353 172
0.041013971 0.68800002 0.082027942 7.4653475e-39 354 172
0.042404365 0.69099998 0.082385622 4.9760655e-39 355 172
0.043742158 0.69300002 0.082624078 5.8929799e-39 356 172
0.045022093 0.69400001 0.082743309 6.3539581e-39 357 172
0.046238903 0.69400001 0.082743309 6.6283786e-39 358 172
0.047660861 0.69700003 0.083100989 6.7209329e-39 359 172
0.048882935 0.69700003 0.083100989 6.7263153e-39 360 172
0.050105009 0.69700003 0.083100989 7.0029008e-39 361 172
0.051768921 0.70300001 0.083816342 7.6478989e-39 362 172
-0.089349866 0.63700002 0.07483051 9.3139292e-39 240 173
-0.088094473 0.63599998 0.074713036 1.1342233e-38 241 173
-0.086979352 0.63599998 0.074713036 1.1992654e-38 242 173
-0.085729234 0.63499999 0.074595563 1.1808622e-38 243 173
-0.08448261 0.634 0.07447809 1.1991938e-38 244 173
-0.083108 0.63200003 0.074243151 1.1991938e-38 245 173
-0.081870146 0.63099998 0.07412567 1.2359998e-38 246 173
-0.080763787 0.63099998 0.07412567 1.2544389e-38 247 173
-0.079404958 0.62900001 0.073890723 1.2544389e-38 248 173
-0.078177623 0.62800002 0.07377325 1.2544389e-38 249 173
-0.076953799 0.62699997 0.073655777 1.134692e-38 250 173
-0.0756125 0.625 0.07342083 8.9498355e-39 251 173
-0.074278213 0.62300003 0.073185883 7.6590938e-39 252 173
-0.07306841 0.62199998 0.07306841 1.005618e-38 253 173
-0.071977831 0.62199998 0.07306841 1.0792299e-38 254 173
-0.070773296 0.62099999 0.072950937 8.3952141e-39 255 173
-0.069684476 0.62099999 0.072950937 1.096769e-38 256 173
-0.068595663 0.62099999 0.072950937 1.1613059e-38 257 173
-0.067506835 0.62099999 0.072950937 7.387539e-39 258 173
-0.066418022 0.62099999 0.072950937 8.9552234e-39 259 173
-0.065434396 0.62199998 0.07306841 1.1251133e-38 260 173
-0.061626155 0.60600001 0.071188837 9.8663996e-39 262 173
-0.060563639 0.60600001 0.071188837 1.069616e-38 263 173
-0.059501119 0.60600001 0.071188837 8.0235561e-39 264 173
-0.058438603 0.60600001 0.071188837 8.5767299e-39 265 173
-0.057376076 0.60600001 0.071188837 1.0885216e-38 266 173
-0.056313559 0.60600001 0.071188837 1.042424e-38 267 173
-0.055342209 0.60699999 0.071306311 9.9585924e-39 268 173
-0.054277938 0.60699999 0.071306311 9.9585924e-39 269 173
-0.053126 0.60600001 0.071188837 1.0234456e-38 270 173
-0.051891651 0.60399997 0.070953891 1.0326652e-38 271 173
-0.050748479 0.60299999 0.07083641 1.0697229e-38 272 173
-0.049526405 0.60100001 0.070601478 1.1895773e-38 273 173
-0.048311342 0.59899998 0.070366524 1.1524479e-38 274 173
-0.047182199 0.59799999 0.070249051 1.0325936e-38 275 173
-0.046056557 0.597 0.070131578 9.8753973e-39 276 173
-0.045009818 0.597 0.070131578 1.1166136e-38 277 173
-0.043963078 0.597 0.070131578 1.1716796e-38 278 173
-0.042844452 0.59600002 0.070014104 1.1716796e-38 279 173
-0.041729335 0.59500003 0.069896631 1.1716796e-38 280 173
-0.040686101 0.59500003 0.069896631 1.1808992e-38 281 173
-0.039642867 0.59500003 0.069896631 1.171644e-38 282 173
-0.038599633 0.59500003 0.069896631 1.171644e-38 283 173
-0.037556402 0.59500003 0.069896631 1.1348013e-38 284 173
-0.036513168 0.59500003 0.069896631 1.0978871e-38 285 173
-0.035469934 0.59500003 0.069896631 1.1344414e-38 286 173
-0.0344267 0.59500003 0.069896631 1.1344414e-38 287 173
-0.033439573 0.59600002 0.070014104 1.1161101e-38 288 173
-0.03244894 0.597 0.070131578 1.1161101e-38 289 173
-0.0314022 0.597 0.070131578 1.0885591e-38 290 173
-0.030406304 0.59799999 0.070249051 1.0885591e-38 291 173
-0.029406905 0.59899998 0.070366524 1.0885591e-38 292 173
-0.028404001 0.60000002 0.070483997 1.0885591e-38 293 173
-0.027534345 0.60399997 0.070953891 1.1068903e-38 294 173
-0.026563 0.60600001 0.071188837 1.1068903e-38 295 173
-0.025584638 0.60799998 0.071423784 1.0977413e-38 296 173
-0.024518611 0.60799998 0.071423784 1.0332044e-38 297 173
-0.023452586 0.60799998 0.071423784 1.1427904e-38 298 173
-0.022423381 0.60900003 0.071541257 9.491796e-39 299 173
-0.021355599 0.60900003 0.071541257 1.1784047e-38 300 173
-0.020287819 0.60900003 0.071541257 1.1691851e-38 301 173
-0.019314719 0.61199999 0.071893677 1.1231594e-38 302 173
-0.018331099 0.61500001 0.072246104 1.086317e-38 303 173
-0.017280852 0.616 0.07236357 9.5720806e-39 304 173
-0.016253399 0.61799997 0.072598517 8.7419612e-39 305 173
-0.015169838 0.61799997 0.072598517 8.5568637e-39 306 173
-0.014109073 0.61900002 0.07271599 8.2806356e-39 307 173
-0.01302376 0.61900002 0.07271599 8.1884525e-39 308 173
-0.01197702 0.62099999 0.072950937 8.0962569e-39 309 173
-0.010888199 0.62099999 0.072950937 8.0944661e-39 310 173
-0.0098309405 0.62300003 0.073185883 7.4490966e-39 311 173
-0.0087526403 0.62400001 0.073303364 6.9885067e-39 312 173
-0.0076708333 0.625 0.07342083 1.1598288e-38 313 173
-0.006575 0.625 0.07342083 1.1335762e-38 314 173
-0.0055054668 0.62800002 0.07377325 1.3179674e-38 315 173
-0.0044183997 0.63 0.074008197 1.106889e-38 316 173
-0.0033137999 0.63 0.074008197 1.106889e-38 317 173
-0.0022162134 0.63200003 0.074243151 1.115639e-38 318 173
-0.0011133666 0.63499999 0.074595563 9.8656513e-39 319 173
0 0.63700002 0.07483051 1.096296e-38 320 173
0.0011186267 0.63800001 0.07494799 1.0870765e-38 321 173
0.0022442664 0.63999999 0.07518293 1.0684542e-38 322 173
0.0033716597 0.64099997 0.075300403 9.2090532e-39 323 173
0.00450256 0.64200002 0.075417876 9.8479543e-39 324 173
0.0056369668 0.64300001 0.07553535 1.0124901e-38 325 173
0.00679592 0.64600003 0.075887777 9.4806249e-39 326 173
0.0079285735 0.64600003 0.075887777 8.8352555e-39 327 173
0.0090612266 0.64600003 0.075887777 9.016421e-39 328 173
0.010225439 0.648 0.076122716 8.6476398e-39 329 173
0.011379133 0.64899999 0.076240189 8.3706984e-39 330 173
0.012536332 0.64999998 0.076357663 8.3706984e-39 331 173
0.01371808 0.65200001 0.076592617 8.1873834e-39 332 173
0.014884046 0.653 0.076710083 8.3717746e-39 333 173
0.01605352 0.65399998 0.076827556 9.1118382e-39 334 173
0.017226499 0.65499997 0.076945029 1.0310381e-38 335 173
0.01843104 0.65700001 0.077179976 1.0127049e-38 336 173
0.019642593 0.65899998 0.077414922 1.0127049e-38 337 173
0.020892721 0.662 0.077767342 1.0493677e-38 338 173
0.02208674 0.66299999 0.077884816 1.0493677e-38 339 173
0.023284266 0.66399997 0.078002289 1.0861387e-38 340 173
0.02452212 0.66600001 0.078237243 1.1045779e-38 341 173
0.025728412 0.667 0.078354709 1.0865347e-38 342 173
0.027018867 0.67000002 0.078707129 1.0865347e-38 343 173
0.028235679 0.671 0.078824602 1.0220356e-38 344 173
0.029543666 0.67400002 0.079177029 9.9437694e-39 345 173
0.030771 0.67500001 0.079294503 1.0503821e-38 346 173
0.032001842 0.676 0.079411969 1.114919e-38 347 173
0.033334374 0.67900002 0.079764389 1.0600352e-38 348 173
0.034575731 0.68000001 0.079881869 7.7419274e-39 349 173
0.035873197 0.68199998 0.080116808 4.0522945e-39 350 173
0.037123326 0.68300003 0.080234289 4.4207183e-39 351 173
0.03848917 0.68599999 0.080586702 5.3419585e-39 352 173
0.039749816 0.68699998 0.080704175 8.1074673e-39 353 173
0.041013971 0.68800002 0.080821648 7.3727833e-39 354 173
0.042404365 0.69099998 0.081174068 5.1600868e-39 355 173
0.043805279 0.69400001 0.081526496 6.3517903e-39 356 173
0.045022093 0.69400001 0.081526496 6.5361829e-39 357 173
0.046372157 0.69599998 0.081761435 6.7202042e-39 358 173
0.047729239 0.69800001 0.081996389 6.8123999e-39 359 173
0.048882935 0.69700003 0.081878915 6.8167033e-39 360 173
0.050105009 0.69700003 0.081878915 7.7382994e-39 361 173
0.051621638 0.70099998 0.082348801 7.6478862e-39 362 173
-0.089349866 0.63700002 0.073713638 9.2210119e-39 240 174
-0.088094473 0.63599998 0.073597915 1.1525901e-38 241 174
-0.086842597 0.63499999 0.073482201 1.2635503e-38 242 174
-0.085729234 0.63499999 0.073482201 1.2359276e-38 243 174
-0.08448261 0.634 0.073366478 1.1808622e-38 244 174
-0.083108 0.63200003 0.073135041 1.162423e-38 245 174
-0.081870146 0.63099998 0.073019318 1.2081969e-38 246 174
-0.080635794 0.63 0.072903596 1.1805022e-38 247 174
-0.079404958 0.62900001 0.072787881 1.1440559e-38 248 174
-0.078177623 0.62800002 0.072672158 1.2085929e-38 249 174
-0.076953799 0.62699997 0.072556436 1.2082685e-38 250 174
-0.0756125 0.625 0.072324999 1.0238772e-38 251 174
-0.074397437 0.62400001 0.072209284 9.5919581e-39 252 174
-0.073185883 0.62300003 0.072093561 1.0790501e-38 253 174
-0.071977831 0.62199998 0.071977831 1.0607552e-38 254 174
-0.070887268 0.62199998 0.071977831 9.3168131e-39 255 174
-0.069684476 0.62099999 0.071862116 1.115677e-38 256 174
-0.068595663 0.62099999 0.071862116 1.115677e-38 257 174
-0.067615546 0.62199998 0.071977831 6.5592259e-39 258 174
-0.066524968 0.62199998 0.071977831 8.2191073e-39 259 174
-0.065434396 0.62199998 0.071977831 1.1434446e-38 260 174
-0.064033486 0.61900002 0.071630679 8.0232058e-39 261 174
-0.061422769 0.60399997 0.069894873 9.8667499e-39 262 174
-0.060363755 0.60399997 0.069894873 1.1065293e-38 263 174
-0.05930474 0.60399997 0.069894873 8.7614771e-39 264 174
-0.058245726 0.60399997 0.069894873 7.655131e-39 265 174
-0.057186712 0.60399997 0.069894873 9.2253461e-39 266 174
-0.056127701 0.60399997 0.069894873 9.9629112e-39 267 174
-0.055342209 0.60699999 0.07024204 9.6838034e-39 268 174
-0.05418852 0.60600001 0.070126325 9.1306296e-39 269 174
-0.053126 0.60600001 0.070126325 9.2210147e-39 270 174
-0.051891651 0.60399997 0.069894873 1.078798e-38 271 174
-0.050580159 0.60100001 0.06954772 1.1158933e-38 272 174
-0.049526405 0.60100001 0.06954772 1.2818455e-38 273 174
-0.048391998 0.60000002 0.069432005 1.2357845e-38 274 174
-0.047261097 0.59899998 0.069316275 1.1896868e-38 275 174
-0.046133704 0.59799999 0.069200553 1.1073222e-38 276 174
-0.04508521 0.59799999 0.069200553 1.1165417e-38 277 174
-0.043963078 0.597 0.069084838 1.1716796e-38 278 174
-0.042844452 0.59600002 0.068969123 1.1716796e-38 279 174
-0.041799467 0.59600002 0.068969123 1.1716796e-38 280 174
-0.040754482 0.59600002 0.068969123 1.1716796e-38 281 174
-0.039709494 0.59600002 0.068969123 1.1716796e-38 282 174
-0.038599633 0.59500003 0.068853401 1.162424e-38 283 174
-0.037556402 0.59500003 0.068853401 1.1348013e-38 284 174
-0.036574531 0.59600002 0.068969123 1.1071427e-38 285 174
-0.035529546 0.59600002 0.068969123 1.1345493e-38 286 174
-0.034484562 0.59600002 0.068969123 1.1161101e-38 287 174
-0.033439573 0.59600002 0.068969123 1.1161098e-38 288 174
-0.03244894 0.597 0.069084838 1.1161098e-38 289 174
-0.0314022 0.597 0.069084838 1.1069259e-38 290 174
-0.030355459 0.597 0.069084838 1.1069259e-38 291 174
-0.029456001 0.60000002 0.069432005 1.0885591e-38 292 174
-0.028498679 0.602 0.069663435 1.0885591e-38 293 174
-0.02762552 0.60600001 0.070126325 1.1068903e-38 294 174
-0.026606834 0.60699999 0.07024204 1.1068903e-38 295 174
-0.025584638 0.60799998 0.070357755 1.1252919e-38 296 174
-0.024518611 0.60799998 0.070357755 1.0423518e-38 297 174
-0.023491161 0.60900003 0.070473477 1.1610848e-38 298 174
-0.022423381 0.60900003 0.070473477 9.6747398e-39 299 174
-0.021390667 0.61000001 0.0705892 1.1785469e-38 300 174
-0.020321133 0.61000001 0.0705892 1.1324493e-38 301 174
-0.019314719 0.61199999 0.070820637 1.132234e-38 302 174
-0.018331099 0.61500001 0.071167797 1.0769525e-38 303 174
-0.017280852 0.616 0.071283512 9.7557404e-39 304 174
-0.016253399 0.61799997 0.071514957 9.2029254e-39 305 174
-0.015169838 0.61799997 0.071514957 8.7415983e-39 306 174
-0.014109073 0.61900002 0.071630679 8.6494013e-39 307 174
-0.01302376 0.61900002 0.071630679 8.5561435e-39 308 174
-0.01197702 0.62099999 0.071862116 8.4639478e-39 309 174
-0.010905732 0.62199998 0.071977831 8.3706802e-39 310 174
-0.0098467199 0.62400001 0.072209284 8.0018963e-39 311 174
-0.0087666661 0.625 0.072324999 7.6324299e-39 312 174
-0.0076953797 0.62699997 0.072556436 1.0490496e-38 313 174
-0.0065960395 0.62699997 0.072556436 1.0415249e-38 314 174
-0.0055054668 0.62800002 0.072672158 1.2628303e-38 315 174
-0.0044183997 0.63 0.072903596 1.2078366e-38 316 174
-0.0033190597 0.63099998 0.073019318 1.1525192e-38 317 174
-0.0022162134 0.63200003 0.073135041 9.5876196e-39 318 174
-0.0011151199 0.63599998 0.073597915 8.2968808e-39 319 174
0 0.63800001 0.07382936 9.9502533e-39 320 174
0.0011186267 0.63800001 0.07382936 9.5814707e-39 321 174
0.0022442664 0.63999999 0.07406079 9.8486843e-39 322 174
0.00337692 0.64200002 0.074292243 9.1111193e-39 323 174
0.0045095733 0.64300001 0.074407957 9.6639259e-39 324 174
0.0056457333 0.64399999 0.074523672 9.5713716e-39 325 174
0.00679592 0.64600003 0.074755117 9.6632197e-39 326 174
0.0079408465 0.64700001 0.07487084 9.2018828e-39 327 174
0.0090752533 0.64700001 0.07487084 8.8309549e-39 328 174
0.01024122 0.64899999 0.075102277 8.4625311e-39 329 174
0.011379133 0.64899999 0.075102277 7.7292821e-39 330 174
0.012574906 0.65200001 0.075449437 7.7292821e-39 331 174
0.013739119 0.653 0.075565159 7.6367277e-39 332 174
0.014906839 0.65399998 0.075680874 8.1899015e-39 333 174
0.016078066 0.65499997 0.075796597 9.11365e-39 334 174
0.017226499 0.65499997 0.075796597 9.7590195e-39 335 174
0.01843104 0.65700001 0.076028034 9.4820626e-39 336 174
0.019702207 0.66100001 0.076490916 9.5742583e-39 337 174
0.020924279 0.66299999 0.076722354 9.9405268e-39 338 174
0.02208674 0.66299999 0.076722354 1.0124917e-38 339 174
0.023284266 0.66399997 0.076838076 1.0127788e-38 340 174
0.024558939 0.667 0.077185236 1.0404375e-38 341 174
0.025766984 0.66799998 0.077300951 1.0682023e-38 342 174
0.027059194 0.671 0.077648118 1.0866054e-38 343 174
0.028235679 0.671 0.077648118 1.0678814e-38 344 174
0.029543666 0.67400002 0.077995278 1.0402227e-38 345 174
0.030771 0.67500001 0.078110993 9.4918395e-39 346 174
0.032001842 0.676 0.078226723 1.0321241e-38 347 174
0.033334374 0.67900002 0.078573883 1.0692197e-38 348 174
0.034575731 0.68000001 0.078689598 7.5575459e-39 349 174
0.035873197 0.68199998 0.078921035 4.1441398e-39 350 174
0.037177678 0.68400002 0.07915248 4.5125636e-39 351 174
0.038545277 0.68699998 0.079499632 5.0653702e-39 352 174
0.039749816 0.68699998 0.079499632 6.2639134e-39 353 174
0.041133199 0.69 0.079846799 6.9085612e-39 354 174
0.042404365 0.69099998 0.079962514 5.6178224e-39 355 174
0.043805279 0.69400001 0.080309682 5.5263456e-39 356 174
0.045151837 0.69599998 0.080541112 5.3423145e-39 357 174
0.046372157 0.69599998 0.080541112 6.1659613e-39 358 174
0.047660861 0.69700003 0.080656841 6.6265793e-39 359 174
0.048882935 0.69700003 0.080656841 6.4508102e-39 360 174
0.050105009 0.69700003 0.080656841 7.0036253e-39 361 174
0.051621638 0.70099998 0.081119716 7.6482548e-39 362 174
-0.089349866 0.63700002 0.072596766 9.0366193e-39 240 175
-0.088094473 0.63599998 0.072482795 1.1525901e-38 241 175
-0.086842597 0.63499999 0.07236883 1.2452193e-38 242 175
-0.085729234 0.63499999 0.07236883 1.2267443e-38 243 175
-0.08448261 0.634 0.072254866 1.2084487e-38 244 175
-0.083108 0.63200003 0.072026931 1.0701552e-38 245 175
-0.081870146 0.63099998 0.071912967 8.8547433e-39 246 175
-0.080635794 0.63 0.071799003 6.457657e-39 247 175
-0.079404958 0.62900001 0.071685031 6.9287189e-39 248 175
-0.078177623 0.62800002 0.071571067 9.1410538e-39 249 175
-0.076953799 0.62699997 0.071457095 1.1990139e-38 250 175
-0.0756125 0.625 0.071229167 1.2451118e-38 251 175
-0.074397437 0.62400001 0.071115203 1.3000325e-38 252 175
-0.073185883 0.62300003 0.071001239 1.3000325e-38 253 175
-0.071977831 0.62199998 0.070887268 1.1991568e-38 254 175
-0.070887268 0.62199998 0.070887268 1.1346199e-38 255 175
-0.069796689 0.62199998 0.070887268 1.1252921e-38 256 175
-0.06870611 0.62199998 0.070887268 1.0423521e-38 257 175
-0.067615546 0.62199998 0.070887268 8.5806928e-39 258 175
-0.066524968 0.62199998 0.070887268 9.4108136e-39 259 175
-0.065434396 0.62199998 0.070887268 1.1157123e-38 260 175
-0.064033486 0.61900002 0.070545368 7.9302759e-39 261 175
-0.062948175 0.61900002 0.070545368 9.6816355e-39 262 175
-0.060363755 0.60399997 0.068835862 1.1156767e-38 263 175
-0.05930474 0.60399997 0.068835862 1.0053306e-38 264 175
-0.058245726 0.60399997 0.068835862 9.7767179e-39 265 175
-0.057186712 0.60399997 0.068835862 8.670006e-39 266 175
-0.056127701 0.60399997 0.068835862 8.4856133e-39 267 175
-0.05506869 0.60399997 0.068835862 9.5919553e-39 268 175
-0.05418852 0.60600001 0.069063798 9.0387815e-39 269 175
-0.053126 0.60600001 0.069063798 8.9433516e-39 270 175
-0.051805738 0.60299999 0.068721898 1.087946e-38 271 175
-0.050580159 0.60100001 0.06849397 1.1529163e-38 272 175
-0.049526405 0.60100001 0.06849397 1.2451121e-38 273 175
-0.04847265 0.60100001 0.06849397 1.1623521e-38 274 175
-0.047340002 0.60000002 0.068379998 1.1808273e-38 275 175
-0.046210852 0.59899998 0.068266027 1.1533844e-38 276 175
-0.04508521 0.59799999 0.068152063 1.1441648e-38 277 175
-0.043963078 0.597 0.068038099 1.171644e-38 278 175
-0.042916339 0.597 0.068038099 1.1808636e-38 279 175
-0.041869599 0.597 0.068038099 1.1808636e-38 280 175
-0.040754482 0.59600002 0.067924134 1.171644e-38 281 175
-0.039709494 0.59600002 0.067924134 1.171644e-38 282 175
-0.038664505 0.59600002 0.067924134 1.1624243e-38 283 175
-0.03761952 0.59600002 0.067924134 1.1439133e-38 284 175
-0.036574531 0.59600002 0.067924134 1.1346937e-38 285 175
-0.035529546 0.59600002 0.067924134 1.1436609e-38 286 175
-0.034484562 0.59600002 0.067924134 1.1344414e-38 287 175
-0.033495679 0.597 0.068038099 1.1161098e-38 288 175
-0.03244894 0.597 0.068038099 1.1161098e-38 289 175
-0.0314022 0.597 0.068038099 1.0885946e-38 290 175
-0.030355459 0.597 0.068038099 1.0885946e-38 291 175
-0.029456001 0.60000002 0.068379998 1.1068903e-38 292 175
-0.028688038 0.60600001 0.069063798 1.1068903e-38 293 175
-0.02762552 0.60600001 0.069063798 1.1068903e-38 294 175
-0.026606834 0.60699999 0.069177762 1.1068903e-38 295 175
-0.025584638 0.60799998 0.069291733 1.1252921e-38 296 175
-0.024558941 0.60900003 0.069405705 1.0699748e-38 297 175
-0.023491161 0.60900003 0.069405705 1.1612296e-38 298 175
-0.022423381 0.60900003 0.069405705 9.6761873e-39 299 175
-0.021390667 0.61000001 0.069519669 1.1784044e-38 300 175
-0.020354446 0.611 0.069633633 1.1415622e-38 301 175
-0.019377839 0.61400002 0.069975533 1.1046469e-38 302 175
-0.018360905 0.616 0.070203468 1.04011e-38 303 175
-0.017280852 0.616 0.070203468 9.8475759e-39 304 175
-0.016253399 0.61799997 0.070431396 9.2022065e-39 305 175
-0.015169838 0.61799997 0.070431396 8.7419612e-39 306 175
-0.014109073 0.61900002 0.070545368 8.6497656e-39 307 175
-0.0130448 0.62 0.070659332 8.5572168e-39 308 175
-0.01197702 0.62099999 0.070773296 8.3731843e-39 309 175
-0.010905732 0.62199998 0.070887268 8.1888029e-39 310 175
-0.0098467199 0.62400001 0.071115203 8.0966072e-39 311 175
-0.0087666661 0.625 0.071229167 7.7267611e-39 312 175
-0.0076953797 0.62699997 0.071457095 8.5561631e-39 313 175
-0.0065960395 0.62699997 0.071457095 8.5705936e-39 314 175
-0.0055054668 0.62800002 0.071571067 1.1429018e-38 315 175
-0.0044183997 0.63 0.071799003 1.1153523e-38 316 175
-0.0033190597 0.63099998 0.071912967 9.8627842e-39 317 175
-0.0022232267 0.634 0.072254866 7.366626e-39 318 175
-0.0011151199 0.63599998 0.072482795 7.366626e-39 319 175
0 0.63800001 0.07271073 9.6686217e-39 320 175
0.0011221332 0.63999999 0.072938658 9.2080023e-39 321 175
0.0022477731 0.64099997 0.073052622 9.7536203e-39 322 175
0.0033821799 0.64300001 0.073280565 9.3844776e-39 323 175
0.0045095733 0.64300001 0.073280565 9.2965798e-39 324 175
0.0056457333 0.64399999 0.07339453 9.4813297e-39 325 175
0.00679592 0.64600003 0.073622465 9.5724464e-39 326 175
0.0079408465 0.64700001 0.073736429 8.8348813e-39 327 175
0.0090892799 0.648 0.073850393 8.0033452e-39 328 175
0.01024122 0.64899999 0.073964357 8.1877365e-39 329 175
0.011396666 0.64999998 0.074078329 7.6374522e-39 330 175
0.012574906 0.65200001 0.074306265 7.6374522e-39 331 175
0.013739119 0.653 0.074420229 7.8221966e-39 332 175
0.014906839 0.65399998 0.074534193 8.3753703e-39 333 175
0.016078066 0.65499997 0.074648157 8.6530278e-39 334 175
0.017226499 0.65499997 0.074648157 8.7452235e-39 335 175
0.01843104 0.65700001 0.0748761 9.4784753e-39 336 175
0.019702207 0.66100001 0.075331964 9.6628666e-39 337 175
0.020924279 0.66299999 0.075559892 9.7564915e-39 338 175
0.022120051 0.66399997 0.075673863 9.9408828e-39 339 175
0.023284266 0.66399997 0.075673863 1.0219968e-38 340 175
0.024558939 0.667 0.076015763 1.0404359e-38 341 175
0.025766984 0.66799998 0.076129727 1.0956454e-38 342 175
0.027059194 0.671 0.076471634 1.104865e-38 343 175
0.028235679 0.671 0.076471634 1.0587337e-38 344 175
0.029543666 0.67400002 0.076813534 1.012636e-38 345 175
0.030771 0.67500001 0.076927498 1.0226156e-38 346 175
0.032001842 0.676 0.077041462 1.0963721e-38 347 175
0.033383466 0.68000001 0.077497333 1.0416681e-38 348 175
0.034677424 0.68199998 0.077725261 7.3742239e-39 349 175
0.035873197 0.68199998 0.077725261 3.9600961e-39 350 175
0.037286382 0.68599999 0.078181133 4.4210742e-39 351 175
0.038545277 0.68699998 0.078295097 4.8806104e-39 352 175
0.039807681 0.68800002 0.078409068 5.2490328e-39 353 175
0.041192811 0.69099998 0.078750968 5.2483168e-39 354 175
0.042527102 0.69300002 0.078978904 5.0635668e-39 355 175
0.043805279 0.69400001 0.079092868 5.3387117e-39 356 175
0.045151837 0.69599998 0.079320796 5.5234617e-39 357 175
0.046372157 0.69599998 0.079320796 5.9808413e-39 358 175
0.047660861 0.69700003 0.079434767 6.9949933e-39 359 175
0.048882935 0.69700003 0.079434767 6.8170662e-39 360 175
0.050105009 0.69700003 0.079434767 7.6468269e-39 361 175
-0.089349866 0.63700002 0.071479894 9.3114111e-39 240 176
-0.088094473 0.63599998 0.071367674 1.1800334e-38 241 176
-0.086979352 0.63599998 0.071367674 1.2635503e-38 242 176
-0.085729234 0.63499999 0.07125546 1.2451472e-38 243 176
-0.08448261 0.634 0.071143255 1.2544742e-38 244 176
-0.083108 0.63200003 0.070918828 1.0700829e-38 245 176
-0.081870146 0.63099998 0.070806608 8.1164398e-39 246 176
-0.080635794 0.63 0.070694394 2.0315282e-39 247 176
-0.079404958 0.62900001 0.070582189 2.9527839e-39 248 176
-0.078177623 0.62800002 0.070469975 5.0729232e-39 249 176
-0.076953799 0.62699997 0.070357755 6.3655034e-39 250 176
-0.0756125 0.625 0.070133328 8.4860029e-39 251 176
-0.074397437 0.62400001 0.070021123 9.5048197e-39 252 176
-0.073185883 0.62300003 0.069908909 1.0334941e-38 253 176
-0.072093561 0.62300003 0.069908909 1.1623156e-38 254 176
-0.070887268 0.62199998 0.069796689 1.2084134e-38 255 176
-0.069796689 0.62199998 0.069796689 1.2635137e-38 256 176
-0.06870611 0.62199998 0.069796689 1.2081963e-38 257 176
-0.067615546 0.62199998 0.069796689 1.0517151e-38 258 176
-0.066524968 0.62199998 0.069796689 1.0609706e-38 259 176
-0.065329194 0.62099999 0.069684476 1.14337e-38 260 176
-0.064033486 0.61900002 0.069460057 9.0369724e-39 261 176
-0.062948175 0.61900002 0.069460057 1.0051497e-38 262 176
-0.06186286 0.61900002 0.069460057 1.0696866e-38 263 176
-0.05930474 0.60399997 0.067776851 1.005546e-38 264 176
-0.058245726 0.60399997 0.067776851 1.0423884e-38 265 176
-0.057186712 0.60399997 0.067776851 9.2156099e-39 266 176
-0.056313559 0.60600001 0.068001278 8.2940138e-39 267 176
-0.05418852 0.60600001 0.068001278 1.0051119e-38 269 176
-0.052862998 0.60299999 0.067664638 9.1291848e-39 270 176
-0.051805738 0.60299999 0.067664638 8.852598e-39 271 176
-0.050748479 0.60299999 0.067664638 9.3218746e-39 272 176
-0.049608812 0.602 0.067552425 1.1350178e-38 273 176
-0.04847265 0.60100001 0.067440212 1.2450045e-38 274 176
-0.047340002 0.60000002 0.067327999 1.2542241e-38 275 176
-0.046210852 0.59899998 0.067215785 1.1533125e-38 276 176
-0.04508521 0.59799999 0.067103572 1.1533125e-38 277 176
-0.044036716 0.59799999 0.067103572 1.171644e-38 278 176
-0.042916339 0.597 0.066991359 1.171644e-38 279 176
-0.041869599 0.597 0.066991359 1.1808992e-38 280 176
-0.040754482 0.59600002 0.066879146 1.1716796e-38 281 176
-0.039709494 0.59600002 0.066879146 1.171644e-38 282 176
-0.038664505 0.59600002 0.066879146 1.1624243e-38 283 176
-0.03761952 0.59600002 0.066879146 1.1348013e-38 284 176
-0.036574531 0.59600002 0.066879146 1.1071427e-38 285 176
-0.035529546 0.59600002 0.066879146 1.1344414e-38 286 176
-0.034484562 0.59600002 0.066879146 1.1344414e-38 287 176
-0.033495679 0.597 0.066991359 1.0978142e-38 288 176
-0.03244894 0.597 0.066991359 1.0978142e-38 289 176
-0.0314022 0.597 0.066991359 1.0885944e-38 290 176
-0.030406304 0.59799999 0.067103572 1.0978139e-38 291 176
-0.029554185 0.602 0.067552425 1.1069259e-38 292 176
-0.028688038 0.60600001 0.068001278 1.1069259e-38 293 176
-0.02762552 0.60600001 0.068001278 1.0885946e-38 294 176
-0.026606834 0.60699999 0.068113491 1.0885946e-38 295 176
-0.025584638 0.60799998 0.068225704 1.1252202e-38 296 176
-0.024558941 0.60900003 0.068337917 1.0883779e-38 297 176
-0.023491161 0.60900003 0.068337917 1.1797057e-38 298 176
-0.0224602 0.61000001 0.068450131 9.8609485e-39 299 176
-0.021425733 0.611 0.068562344 1.1784769e-38 300 176
-0.020421071 0.61299998 0.06878677 1.1323792e-38 301 176
-0.019409399 0.61500001 0.069011196 1.122871e-38 302 176
-0.018360905 0.616 0.06912341 1.0675536e-38 303 176
-0.017280852 0.616 0.06912341 9.9386925e-39 304 176
-0.016253399 0.61799997 0.069347836 9.56991e-39 305 176
-0.015194387 0.61900002 0.069460057 8.9267084e-39 306 176
-0.014131867 0.62 0.069572262 8.7423172e-39 307 176
-0.0130448 0.62 0.069572262 8.5572168e-39 308 176
-0.011996306 0.62199998 0.069796689 8.6494125e-39 309 176
-0.010923267 0.62300003 0.069908909 8.190242e-39 310 176
-0.0098624993 0.625 0.070133328 8.0976862e-39 311 176
-0.0087947194 0.62699997 0.070357755 8.0958884e-39 312 176
-0.0076953797 0.62699997 0.070357755 8.5568665e-39 313 176
-0.0066065602 0.62800002 0.070469975 9.0218328e-39 314 176
-0.0055142329 0.62900001 0.070582189 1.0681353e-38 315 176
-0.0044183997 0.63 0.070694394 1.0682095e-38 316 176
-0.0033243201 0.63200003 0.070918828 9.9445304e-39 317 176
-0.0022232267 0.634 0.071143255 9.2062044e-39 318 176
-0.0011151199 0.63599998 0.071367674 8.9296175e-39 319 176
0 0.63800001 0.071592107 9.3905929e-39 320 176
0.0011221332 0.63999999 0.071816526 8.6530278e-39 321 176
0.0022477731 0.64099997 0.07192874 8.6505097e-39 322 176
0.0033821799 0.64300001 0.072153173 9.1114878e-39 323 176
0.0045095733 0.64300001 0.072153173 9.75899e-39 324 176
0.0056632664 0.64600003 0.072489813 1.0219968e-38 325 176
0.00679592 0.64600003 0.072489813 1.1135811e-38 326 176
0.0079408465 0.64700001 0.072602026 8.554333e-39 327 176
0.0090892799 0.648 0.072714239 7.3601366e-39 328 176
0.010256999 0.64999998 0.072938658 9.1122137e-39 329 176
0.011396666 0.64999998 0.072938658 9.2998644e-39 330 176
0.012594193 0.653 0.073275305 8.654495e-39 331 176
0.013781199 0.65499997 0.073499724 9.1111347e-39 332 176
0.014929632 0.65499997 0.073499724 9.1111347e-39 333 176
0.016078066 0.65499997 0.073499724 8.653381e-39 334 176
0.0172791 0.65700001 0.073724158 8.653381e-39 335 176
0.018487146 0.65899998 0.073948584 9.1111319e-39 336 176
0.019761819 0.66299999 0.074397437 9.2958819e-39 337 176
0.020924279 0.66299999 0.074397437 9.4816969e-39 338 176
0.022120051 0.66399997 0.07450965 9.7582838e-39 339 176
0.023284266 0.66399997 0.07450965 1.0219968e-38 340 176
0.024558939 0.667 0.07484629 1.0312164e-38 341 176
0.025766984 0.66799998 0.074958503 1.077099e-38 342 176
0.027059194 0.671 0.075295143 1.077099e-38 343 176
0.028235679 0.671 0.075295143 1.0493703e-38 344 176
0.029543666 0.67400002 0.07563179 1.0401508e-38 345 176
0.030816587 0.676 0.075856209 1.0225792e-38 346 176
0.03209652 0.67799997 0.076080635 1.114739e-38 347 176
0.033383466 0.68000001 0.076305062 1.0601071e-38 348 176
0.034677424 0.68199998 0.076529488 7.189834e-39 349 176
0.035873197 0.68199998 0.076529488 4.1426867e-39 350 176
0.037286382 0.68599999 0.076978341 4.4196323e-39 351 176
0.038545277 0.68699998 0.077090554 4.7880561e-39 352 176
0.039807681 0.68800002 0.077202775 4.6958605e-39 353 176
0.041192811 0.69099998 0.077539407 4.6958605e-39 354 176
0.042527102 0.69300002 0.077763841 4.6958605e-39 355 176
0.043805279 0.69400001 0.077876054 4.9717215e-39 356 176
0.045151837 0.69599998 0.078100473 5.0642758e-39 357 176
0.046372157 0.69599998 0.078100473 5.6145756e-39 358 176
0.047660861 0.69700003 0.078212693 6.4443362e-39 359 176
0.048882935 0.69700003 0.078212693 6.9099835e-39 360 176
0.050105009 0.69700003 0.078212693 7.4631573e-39 361 176
-0.089490131 0.63800001 0.070473477 9.2192127e-39 240 177
-0.088094473 0.63599998 0.070252553 1.1616299e-38 241 177
-0.086979352 0.63599998 0.070252553 1.263514e-38 242 177
-0.085864238 0.63599998 0.070252553 1.263514e-38 243 177
-0.084615864 0.63499999 0.070142098 1.245219e-38 244 177
-0.083108 0.63200003 0.069810718 1.097706e-38 245 177
-0.081999891 0.63200003 0.069810718 9.3124803e-39 246 177
-0.080635794 0.63 0.069589794 9.2917299e-41 247 177
-0.079404958 0.62900001 0.069479339 1.2856969e-39 248 177
-0.078177623 0.62800002 0.069368884 1.9285524e-39 249 177
-0.077076539 0.62800002 0.069368884 8.2978029e-40 250 177
-0.0756125 0.625 0.069037497 1.659541e-39 251 177
-0.074397437 0.62400001 0.068927035 3.1451191e-39 252 177
-0.073303364 0.62400001 0.068927035 6.0031836e-39 253 177
-0.072093561 0.62300003 0.06881658 9.409034e-39 254 177
-0.070887268 0.62199998 0.06870611 1.1160751e-38 255 177
-0.069796689 0.62199998 0.06870611 1.2726985e-38 256 177
-0.06870611 0.62199998 0.06870611 1.3187604e-38 257 177
-0.067615546 0.62199998 0.06870611 1.3095042e-38 258 177
-0.066524968 0.62199998 0.06870611 1.291065e-38 259 177
-0.065329194 0.62099999 0.068595663 1.2174517e-38 260 177
-0.064033486 0.61900002 0.068374738 1.0883779e-38 261 177
-0.062948175 0.61900002 0.068374738 1.1068163e-38 262 177
-0.06186286 0.61900002 0.068374738 1.0514989e-38 263 177
-0.05930474 0.60399997 0.066717833 1.097489e-38 264 177
-0.058245726 0.60399997 0.066717833 1.1805009e-38 265 177
-0.057186712 0.60399997 0.066717833 1.0600334e-38 266 177
-0.056313559 0.60600001 0.066938758 7.9266592e-39 267 177
-0.053126 0.60600001 0.066938758 1.0787627e-38 270 177
-0.051719822 0.602 0.066496916 7.8377272e-39 271 177
-0.049608812 0.602 0.066496916 1.2173808e-38 273 177
-0.04847265 0.60100001 0.066386454 1.2175976e-38 274 177
-0.0474189 0.60100001 0.066386454 1.1991585e-38 275 177
-0.046288002 0.60000002 0.066276006 1.1533125e-38 276 177
-0.045160607 0.59899998 0.066165537 1.1625679e-38 277 177
-0.044036716 0.59799999 0.066055074 1.1625679e-38 278 177
-0.042916339 0.597 0.065944619 1.1625679e-38 279 177
-0.041869599 0.597 0.065944619 1.1625679e-38 280 177
-0.04082286 0.597 0.065944619 1.1625679e-38 281 177
-0.039709494 0.59600002 0.065834157 1.171644e-38 282 177
-0.038664505 0.59600002 0.065834157 1.171644e-38 283 177
-0.03761952 0.59600002 0.065834157 1.1440212e-38 284 177
-0.036574531 0.59600002 0.065834157 1.0978874e-38 285 177
-0.035529546 0.59600002 0.065834157 1.1253297e-38 286 177
-0.034484562 0.59600002 0.065834157 1.1161101e-38 287 177
-0.033495679 0.597 0.065944619 1.0977789e-38 288 177
-0.03244894 0.597 0.065944619 1.0977789e-38 289 177
-0.0314022 0.597 0.065944619 1.0977786e-38 290 177
-0.030558847 0.60100001 0.066386454 1.0885591e-38 291 177
-0.02965237 0.60399997 0.066717833 1.0978142e-38 292 177
-0.028688038 0.60600001 0.066938758 1.0978142e-38 293 177
-0.02762552 0.60600001 0.066938758 1.0978139e-38 294 177
-0.026606834 0.60699999 0.06704922 1.0885944e-38 295 177
-0.025626721 0.60900003 0.067270137 1.1068887e-38 296 177
-0.024558941 0.60900003 0.067270137 1.0884495e-38 297 177
-0.023529733 0.61000001 0.0673806 1.189069e-38 298 177
-0.022497021 0.611 0.067491055 9.8623862e-39 299 177
-0.021495864 0.61299998 0.067711979 1.2060641e-38 300 177
-0.020421071 0.61299998 0.067711979 1.1415272e-38 301 177
-0.019409399 0.61500001 0.067932896 1.1136514e-38 302 177
-0.018420519 0.61799997 0.068264276 1.058334e-38 303 177
-0.017336959 0.61799997 0.068264276 1.0030532e-38 304 177
-0.016279699 0.61900002 0.068374738 9.7539454e-39 305 177
-0.015218933 0.62 0.0684852 9.2032883e-39 306 177
-0.01415466 0.62099999 0.068595663 8.9270616e-39 307 177
-0.013065839 0.62099999 0.068595663 8.8348631e-39 308 177
-0.011996306 0.62199998 0.06870611 8.8348631e-39 309 177
-0.010923267 0.62300003 0.06881658 8.7426829e-39 310 177
-0.0098624993 0.625 0.069037497 8.4664561e-39 311 177
-0.0087947194 0.62699997 0.069258414 8.6490622e-39 312 177
-0.0077076531 0.62800002 0.069368884 9.2022359e-39 313 177
-0.0066065602 0.62800002 0.069368884 1.0031646e-38 314 177
-0.0055229999 0.63 0.069589794 9.9394506e-39 315 177
-0.004425413 0.63099998 0.069700256 1.0121694e-38 316 177
-0.0033348398 0.634 0.070031643 1.0306085e-38 317 177
-0.0022267331 0.63499999 0.070142098 1.0309309e-38 318 177
-0.0011168733 0.63700002 0.070363015 1.0309309e-38 319 177
0 0.63800001 0.070473477 9.2058331e-39 320 177
0.0011221332 0.63999999 0.070694394 8.4682666e-39 321 177
0.0022477731 0.64099997 0.070804857 8.6515789e-39 322 177
0.0033821799 0.64300001 0.071025774 9.2969483e-39 323 177
0.0045095733 0.64300001 0.071025774 1.0127788e-38 324 177
0.0056632664 0.64600003 0.071357161 1.0496572e-38 325 177
0.00679592 0.64600003 0.071357161 1.0769918e-38 326 177
0.0079408465 0.64700001 0.071467623 7.3586793e-39 327 177
0.0091033066 0.64899999 0.07168854 7.5466859e-39 328 177
0.010256999 0.64999998 0.071798995 1.1879522e-38 329 177
0.011396666 0.64999998 0.071798995 1.1607998e-38 330 177
0.012613479 0.65399998 0.072240837 9.9484778e-39 331 177
0.013781199 0.65499997 0.072351299 9.5746114e-39 332 177
0.014929632 0.65499997 0.072351299 9.206189e-39 333 177
0.01612716 0.65700001 0.072572216 9.022497e-39 334 177
0.017305398 0.65799999 0.072682679 8.837747e-39 335 177
0.018487146 0.65899998 0.072793134 9.1118354e-39 336 177
0.019761819 0.66299999 0.073234983 9.388781e-39 337 177
0.020955838 0.66399997 0.07334543 9.5749617e-39 338 177
0.022120051 0.66399997 0.07334543 9.8519073e-39 339 177
0.023354398 0.66600001 0.073566355 1.0402559e-38 340 177
0.024558939 0.667 0.073676817 1.0494754e-38 341 177
0.025766984 0.66799998 0.073787279 1.0861387e-38 342 177
0.027018867 0.67000002 0.074008204 1.0861387e-38 343 177
0.028235679 0.671 0.074118659 1.0585902e-38 344 177
0.029631332 0.676 0.074670963 1.0769933e-38 345 177
0.030907756 0.67799997 0.074891873 1.0592416e-38 346 177
0.03209652 0.67799997 0.074891873 1.1422179e-38 347 177
0.033383466 0.68000001 0.075112797 1.0692545e-38 348 177
0.034677424 0.68199998 0.075333714 7.3735022e-39 349 177
0.035978399 0.68400002 0.075554639 3.9593744e-39 350 177
0.037286382 0.68599999 0.075775556 4.3281555e-39 351 177
0.038601387 0.68800002 0.075996481 4.6040166e-39 352 177
0.0399234 0.69 0.076217398 4.6040166e-39 353 177
0.041312039 0.69300002 0.076548778 4.8791587e-39 354 177
0.042527102 0.69300002 0.076548778 4.9713557e-39 355 177
0.043805279 0.69400001 0.07665924 5.0639073e-39 356 177
0.045151837 0.69599998 0.076880157 5.1561029e-39 357 177
0.046372157 0.69599998 0.076880157 5.7993227e-39 358 177
0.047660861 0.69700003 0.076990619 6.4446921e-39 359 177
0.048953064 0.69800001 0.077101074 7.0021819e-39 360 177
-0.088094473 0.63599998 0.069137439 1.1615577e-38 241 178
-0.086979352 0.63599998 0.069137439 1.2910648e-38 242 178
-0.08599925 0.63700002 0.069246151 1.2910648e-38 243 178
-0.084749117 0.63599998 0.069137439 1.245219e-38 244 178
-0.083108 0.63200003 0.068702616 1.1161452e-38 245 178
-0.081999891 0.63200003 0.068702616 9.4975918e-39 246 178
-0.080763787 0.63099998 0.068593897 1.7531589e-39 247 178
-0.0795312 0.63 0.0684852 3.4951523e-39 248 178
-0.0784266 0.63 0.0684852 4.048326e-39 249 178
-0.077199265 0.62900001 0.068376496 4.3234864e-39 250 178
-0.07585445 0.62699997 0.068159074 4.6922703e-39 251 178
-0.074516661 0.625 0.067941666 4.2370683e-39 252 178
-0.073303364 0.62400001 0.067832954 4.514014e-39 253 178
-0.072093561 0.62300003 0.067724258 4.9714118e-39 254 178
-0.070887268 0.62199998 0.067615546 5.8015326e-39 255 178
-0.069796689 0.62199998 0.067615546 6.1767891e-39 256 178
-0.06870611 0.62199998 0.067615546 8.48204e-39 257 178
-0.067615546 0.62199998 0.067615546 8.6768611e-39 258 178
-0.066524968 0.62199998 0.067615546 1.0059796e-38 259 178
-0.065434396 0.62199998 0.067615546 1.1899741e-38 260 178
-0.064033486 0.61900002 0.067289427 1.2268525e-38 261 178
-0.062948175 0.61900002 0.067289427 1.2635137e-38 262 178
-0.06186286 0.61900002 0.067289427 1.2542941e-38 263 178
-0.060482983 0.616 0.066963308 1.2725889e-38 264 178
-0.059402931 0.616 0.066963308 1.2910282e-38 265 178
-0.056345113 0.61799997 0.067180716 8.4866853e-39 268 178
-0.049608812 0.602 0.065441415 1.3088555e-38 273 178
-0.048553303 0.602 0.065441415 1.1992301e-38 274 178
-0.047497798 0.602 0.065441415 1.180827e-38 275 178
-0.046365146 0.60100001 0.065332703 1.1533844e-38 276 178
-0.045235999 0.60000002 0.065223999 1.1533844e-38 277 178
-0.044110358 0.59899998 0.065115295 1.1625323e-38 278 178
-0.042988226 0.59799999 0.065006584 1.1625323e-38 279 178
-0.041869599 0.597 0.06489788 1.1808636e-38 280 178
-0.04082286 0.597 0.06489788 1.171644e-38 281 178
-0.03977612 0.597 0.06489788 1.171644e-38 282 178
-0.038664505 0.59600002 0.064789169 1.171644e-38 283 178
-0.03761952 0.59600002 0.064789169 1.1623521e-38 284 178
-0.036574531 0.59600002 0.064789169 1.1162903e-38 285 178
-0.035529546 0.59600002 0.064789169 1.1436609e-38 286 178
-0.034484562 0.59600002 0.064789169 1.1344414e-38 287 178
-0.033495679 0.597 0.06489788 1.1161101e-38 288 178
-0.03244894 0.597 0.06489788 1.1161101e-38 289 178
-0.031507399 0.59899998 0.065115295 1.1161101e-38 290 178
-0.030609693 0.602 0.065441415 1.1161101e-38 291 178
-0.02965237 0.60399997 0.065658823 1.0885946e-38 292 178
-0.028688038 0.60600001 0.065876238 1.0885946e-38 293 178
-0.027671104 0.60699999 0.065984942 1.0885944e-38 294 178
-0.026650665 0.60799998 0.066093646 1.0885944e-38 295 178
-0.025626721 0.60900003 0.066202365 1.1069253e-38 296 178
-0.024599267 0.61000001 0.066311061 1.0977058e-38 297 178
-0.023568306 0.611 0.066419773 1.1616627e-38 298 178
-0.022570658 0.61299998 0.066637181 9.4039318e-39 299 178
-0.021495864 0.61299998 0.066637181 1.1877339e-38 300 178
-0.020421071 0.61299998 0.066637181 1.1416359e-38 301 178
-0.019409399 0.61500001 0.066854596 1.1136527e-38 302 178
-0.018450327 0.61900002 0.067289427 1.0675907e-38 303 178
-0.017365014 0.61900002 0.067289427 9.939787e-39 304 178
-0.016306 0.62 0.067398131 9.8475913e-39 305 178
-0.01524348 0.62099999 0.067506835 9.113636e-39 306 178
-0.01415466 0.62099999 0.067506835 9.7590054e-39 307 178
-0.013065839 0.62099999 0.067506835 9.6689622e-39 308 178
-0.011996306 0.62199998 0.067615546 9.2079841e-39 309 178
-0.010923267 0.62300003 0.067724258 8.9295923e-39 310 178
-0.009894059 0.62699997 0.068159074 8.5611685e-39 311 178
-0.0088087469 0.62800002 0.068267785 9.1096704e-39 312 178
-0.0077199261 0.62900001 0.068376496 9.294063e-39 313 178
-0.00661708 0.62900001 0.068376496 9.939787e-39 314 178
-0.0055229999 0.63 0.0684852 1.0031984e-38 315 178
-0.004425413 0.63099998 0.068593897 1.0400409e-38 316 178
-0.0033348398 0.634 0.068920024 1.0308214e-38 317 178
-0.0022302398 0.63599998 0.069137439 1.0217813e-38 318 178
-0.0011168733 0.63700002 0.069246151 9.8493906e-39 319 178
0 0.63999999 0.069572262 9.1121913e-39 320 178
0.0011221332 0.63999999 0.069572262 8.6512131e-39 321 178
0.0022477731 0.64099997 0.069680966 8.7459325e-39 322 178
0.0033821799 0.64300001 0.069898389 9.7597257e-39 323 178
0.0045165867 0.64399999 0.070007093 9.9441226e-39 324 178
0.0056632664 0.64600003 0.070224509 8.9299706e-39 325 178
0.00679592 0.64600003 0.070224509 8.1924252e-39 326 178
0.0079408465 0.64700001 0.070333213 6.8091306e-39 327 178
0.0091033066 0.64899999 0.070550621 9.1158431e-39 328 178
0.010256999 0.64999998 0.070659332 1.2711471e-38 329 178
0.011431733 0.65200001 0.070876747 1.1700558e-38 330 178
0.012613479 0.65399998 0.071094155 9.8570038e-39 331 178
0.013781199 0.65499997 0.071202859 9.9423205e-39 332 178
0.01497522 0.65700001 0.071420282 9.4813438e-39 333 178
0.016151706 0.65799999 0.071528979 9.2976545e-39 334 178
0.017331699 0.65899998 0.07163769 8.8366778e-39 335 178
0.018543253 0.66100001 0.071855105 9.2036681e-39 336 178
0.019732011 0.662 0.071963809 9.5720904e-39 337 178
0.020955838 0.66399997 0.072181225 9.9433771e-39 338 178
0.022120051 0.66399997 0.072181225 1.0035573e-38 339 178
0.023354398 0.66600001 0.07239864 1.049403e-38 340 178
0.024558939 0.667 0.072507344 1.049403e-38 341 178
0.025766984 0.66799998 0.072616048 1.0585156e-38 342 178
0.027018867 0.67000002 0.072833464 1.0677353e-38 343 178
0.028235679 0.671 0.072942175 1.0586252e-38 344 178
0.029718997 0.67799997 0.073703118 1.1231622e-38 345 178
0.030953348 0.67900002 0.073811822 1.0409455e-38 346 178
0.032143861 0.67900002 0.073811822 1.1147021e-38 347 178
0.033383466 0.68000001 0.073920533 1.0415588e-38 348 178
0.034677424 0.68199998 0.074137948 7.280938e-39 349 178
0.035978399 0.68400002 0.074355356 3.5916667e-39 350 178
0.037340738 0.68699998 0.074681476 4.0526448e-39 351 178
0.038713597 0.69 0.075007595 4.6032949e-39 352 178
0.039981257 0.69099998 0.075116299 4.6032949e-39 353 178
0.041312039 0.69300002 0.075333714 4.878437e-39 354 178
0.042527102 0.69300002 0.075333714 4.9709914e-39 355 178
0.043805279 0.69400001 0.075442426 5.1550197e-39 356 178
0.045151837 0.69599998 0.075659841 5.2472168e-39 357 178
0.046372157 0.69599998 0.075659841 5.7989514e-39 358 178
0.047660861 0.69700003 0.075768545 6.4443208e-39 359 178
-0.088232994 0.63700002 0.068129279 1.1706695e-38 241 179
-0.087116122 0.63700002 0.068129279 1.3186158e-38 242 179
-0.08599925 0.63700002 0.068129279 1.2909932e-38 243 179
-0.084749117 0.63599998 0.068022311 1.2544386e-38 244 179
-0.083370999 0.634 0.067808412 1.1161452e-38 245 179
-0.082259387 0.634 0.067808412 9.9578497e-39 246 179
-0.080763787 0.63099998 0.067487545 2.3056138e-39 247 179
-0.079657435 0.63099998 0.067487545 3.7724622e-39 248 179
-0.078551084 0.63099998 0.067487545 4.5100273e-39 249 179
-0.077076539 0.62800002 0.067166694 5.0650143e-39 250 179
-0.07597544 0.62800002 0.067166694 5.7103837e-39 251 179
