# .PCD v.7 - Point Cloud Data file format
FIELDS x y z rgb imX imY
SIZE 4 4 4 4 4 4
TYPE F F F F F F
COUNT 1 1 1 1 1 1
WIDTH 857
HEIGHT 1
VIEWPOINT 0 0 0 1 0 0 0
POINTS 857
DATA ascii
0.064706765 0.671 0.10941326 9.8663575e-39 375 147
-0.10243323 0.64200002 0.10355888 1.1437271e-38 229 148
-0.1011498 0.64099997 0.10339756 1.0981319e-38 230 148
-0.099557772 0.63800001 0.10291365 1.1073514e-38 231 148
-0.098284855 0.63700002 0.10275235 1.1166066e-38 232 148
-0.097167984 0.63700002 0.10275235 1.1166066e-38 233 148
-0.096051104 0.63700002 0.10275235 1.1350097e-38 234 148
-0.094934233 0.63700002 0.10275235 1.1350097e-38 235 148
-0.091166317 0.61900002 0.099848829 1.1166429e-38 236 148
-0.090081006 0.61900002 0.099848829 1.1166429e-38 237 148
-0.088995695 0.61900002 0.099848829 1.1166432e-38 238 148
-0.087910376 0.61900002 0.099848829 1.1166432e-38 239 148
-0.086684793 0.61799997 0.099687517 1.1166435e-38 240 148
-0.085324213 0.616 0.099364907 1.1258632e-38 241 148
-0.083697118 0.61199999 0.098719679 1.1167152e-38 242 148
-0.081814036 0.60600001 0.097751833 1.1259348e-38 243 148
-0.080751516 0.60600001 0.097751833 1.1167152e-38 244 148
-0.079425998 0.60399997 0.097429216 1.1259348e-38 245 148
-0.077977739 0.60100001 0.096945301 1.089237e-38 246 148
-0.076796003 0.60000002 0.096783996 1.1168597e-38 247 148
-0.075617753 0.59899998 0.096622683 1.0802338e-38 248 148
-0.074567512 0.59899998 0.096622683 1.0802338e-38 249 148
-0.07339453 0.59799999 0.096461378 1.0159852e-38 250 148
-0.072346039 0.59799999 0.096461378 9.9758213e-39 251 148
-0.071297541 0.59799999 0.096461378 9.7921518e-39 252 148
-0.070366524 0.59899998 0.096622683 9.7921518e-39 253 148
-0.069432005 0.60000002 0.096783996 9.6996002e-39 254 148
-0.068379998 0.60000002 0.096783996 9.7917958e-39 255 148
-0.067440212 0.60100001 0.096945301 9.5159348e-39 256 148
-0.066386454 0.60100001 0.096945301 9.5159348e-39 257 148
-0.065550111 0.60299999 0.097267911 9.699603e-39 258 148
-0.064492859 0.60299999 0.097267911 9.7917986e-39 259 148
-0.063435599 0.60299999 0.097267911 9.8832726e-39 260 148
-0.06248178 0.60399997 0.097429216 9.8832726e-39 261 148
-0.061422769 0.60399997 0.097429216 9.8832754e-39 262 148
-0.060563639 0.60600001 0.097751833 9.8832754e-39 263 148
-0.059501119 0.60600001 0.097751833 9.9743892e-39 264 148
-0.058438603 0.60600001 0.097751833 9.9743892e-39 265 148
-0.057470758 0.60699999 0.097913139 9.7914301e-39 266 148
-0.05649941 0.60799998 0.098074444 9.7914301e-39 267 148
-0.055433385 0.60799998 0.098074444 9.5162851e-39 268 148
-0.054456782 0.60900003 0.098235764 9.5162851e-39 269 148
-0.053388998 0.60900003 0.098235764 9.791077e-39 270 148
-0.052407134 0.61000001 0.098397069 9.791077e-39 271 148
-0.0513376 0.61000001 0.098397069 9.9743892e-39 272 148
-0.050350472 0.611 0.098558374 9.9743892e-39 273 148
-0.049279187 0.611 0.098558374 9.9743892e-39 274 148
-0.048286796 0.61199999 0.098719679 9.9743892e-39 275 148
-0.047213759 0.61199999 0.098719679 9.6988771e-39 276 148
-0.046140719 0.61199999 0.098719679 9.6988771e-39 277 148
-0.045141317 0.61299998 0.098880976 9.6992331e-39 278 148
-0.044138417 0.61400002 0.099042296 9.6992331e-39 279 148
-0.043061867 0.61400002 0.099042296 9.8825453e-39 280 148
-0.042053699 0.61500001 0.099203601 9.8825453e-39 281 148
-0.040975399 0.61500001 0.099203601 9.7914329e-39 282 148
-0.039961971 0.616 0.099364907 9.7914329e-39 283 148
-0.039008155 0.61799997 0.099687517 9.9747423e-39 284 148
-0.037924599 0.61799997 0.099687517 9.9747423e-39 285 148
-0.036900654 0.61900002 0.099848829 1.0066575e-38 286 148
-0.03581534 0.61900002 0.099848829 1.0066575e-38 287 148
-0.034786131 0.62 0.10001013 1.0066219e-38 288 148
-0.033753417 0.62099999 0.10017144 1.0066219e-38 289 148
-0.032664597 0.62099999 0.10017144 9.9747451e-39 290 148
-0.031626627 0.62199998 0.10033274 1.0066941e-38 291 148
-0.030536054 0.62199998 0.10033274 9.7914329e-39 292 148
-0.029445477 0.62199998 0.10033274 9.6066815e-39 293 148
-0.028400492 0.62300003 0.10049406 1.0064788e-38 294 148
-0.027308168 0.62300003 0.10049406 8.3130728e-39 295 148
-0.026257919 0.62400001 0.10065536 3.6222472e-39 296 148
-0.025204165 0.625 0.10081666 3.5300516e-39 297 148
-0.024185479 0.62699997 0.10113927 3.5340341e-39 298 148
-0.023086138 0.62699997 0.10113927 4.7329374e-39 299 148
-0.022021867 0.62800002 0.10130058 6.0092597e-39 300 148
-0.020920772 0.62800002 0.10130058 3.0586408e-39 301 148
-0.019851239 0.62900001 0.10146189 5.175162e-39 302 148
-0.018808005 0.63099998 0.1017845 5.2673576e-39 303 148
-0.017729707 0.63200003 0.10194581 6.1972425e-39 304 148
-0.0166742 0.634 0.10226842 7.1195575e-39 305 148
-0.015513494 0.63200003 0.10194581 3.4328029e-39 306 148
-0.014405387 0.63200003 0.10194581 5.2767141e-39 307 148
-0.013339359 0.634 0.10226842 7.3925613e-39 308 148
-0.012247032 0.63499999 0.10242973 8.2226807e-39 309 148
-0.011133666 0.63499999 0.10242973 7.5791259e-39 310 148
-0.0100203 0.63499999 0.10242973 7.7635172e-39 311 148
-0.0089069325 0.63499999 0.10242973 9.9704516e-39 312 148
-0.0078058392 0.63599998 0.10259103 9.8782559e-39 313 148
-0.0066907196 0.63599998 0.10259103 8.6850979e-39 314 148
-0.0055843666 0.63700002 0.10275235 9.5152187e-39 315 148
-0.0044674934 0.63700002 0.10275235 1.0342101e-38 316 148
-0.0033506199 0.63700002 0.10275235 1.0526492e-38 317 148
-0.0022372534 0.63800001 0.10291365 1.0341382e-38 318 148
-0.0011186267 0.63800001 0.10291365 9.7882085e-39 319 148
0 0.63800001 0.10291365 1.0616887e-38 320 148
0.0011221332 0.63999999 0.10323626 1.0524692e-38 321 148
0.0022477731 0.64099997 0.10339756 1.0341377e-38 322 148
0.00337692 0.64200002 0.10355888 1.0802355e-38 323 148
0.0045095733 0.64300001 0.10372019 1.135301e-38 324 148
0.0056369668 0.64300001 0.10372019 1.0984228e-38 325 148
0.0067748795 0.64399999 0.10388149 1.1074629e-38 326 148
0.0079040267 0.64399999 0.10388149 1.079804e-38 327 148
0.0090612266 0.64600003 0.10420411 9.9711676e-39 328 148
0.01020966 0.64700001 0.10436542 9.878972e-39 329 148
0.011344067 0.64700001 0.10436542 9.2361235e-39 330 148
0.01249776 0.648 0.10452672 8.9598954e-39 331 148
0.01363392 0.648 0.10452672 9.1406713e-39 332 148
0.014770079 0.648 0.10452672 9.6938451e-39 333 148
0.015930785 0.64899999 0.10468803 8.5889366e-39 334 148
0.017068699 0.64899999 0.10468803 7.2981978e-39 335 148
0.018206613 0.64899999 0.10468803 8.5853465e-39 336 148
0.019374331 0.64999998 0.10484933 8.4009553e-39 337 148
0.020513998 0.64999998 0.10484933 8.3058884e-39 338 148
0.021653665 0.64999998 0.10484933 7.8449102e-39 339 148
0.022863466 0.65200001 0.10517195 6.652125e-39 340 148
0.024043459 0.653 0.10533325 8.7726244e-39 341 148
0.025226958 0.65399998 0.10549456 9.2317907e-39 342 148
0.026413966 0.65499997 0.10565586 8.8630096e-39 343 148
0.027562398 0.65499997 0.10565586 1.0063719e-38 344 148
0.028710833 0.65499997 0.10565586 1.0893481e-38 345 148
0.029859263 0.65499997 0.10565586 1.1259755e-38 346 148
0.031007698 0.65499997 0.10565586 1.1259755e-38 347 148
0.032156132 0.65499997 0.10565586 1.1720001e-38 348 148
0.033406258 0.65700001 0.10597847 1.0797684e-38 349 148
0.034663398 0.65899998 0.10630108 6.8365218e-39 350 148
0.035818845 0.65899998 0.10630108 6.0989568e-39 351 148
0.037086505 0.66100001 0.1066237 7.579884e-39 352 148
0.038245458 0.66100001 0.1066237 1.0530503e-38 353 148
0.039583251 0.66399997 0.10710762 1.2270358e-38 354 148
0.040747464 0.66399997 0.10710762 1.2270358e-38 355 148
0.042037919 0.66600001 0.10743023 1.1720053e-38 356 148
0.043205637 0.66600001 0.10743023 1.153566e-38 357 148
0.04437336 0.66600001 0.10743023 1.2088118e-38 358 148
0.045541082 0.66600001 0.10743023 1.2548737e-38 359 148
0.046778932 0.667 0.10759154 1.2642368e-38 360 148
0.047948405 0.667 0.10759154 1.3010791e-38 361 148
0.049117878 0.667 0.10759154 1.3653999e-38 362 148
0.050362743 0.66799998 0.10775284 1.3561803e-38 363 148
0.051688269 0.67000002 0.10807547 1.3649677e-38 364 148
0.052863002 0.67000002 0.10807547 1.0054406e-38 365 148
0.054118387 0.671 0.10823677 2.7078565e-39 366 148
0.055294871 0.671 0.10823677 3.2606716e-39 367 148
0.056471359 0.671 0.10823677 1.0244515e-38 368 148
0.057647847 0.671 0.10823677 1.2733795e-38 369 148
0.058824331 0.671 0.10823677 1.190513e-38 370 148
0.060000818 0.671 0.10823677 1.190513e-38 371 148
0.061268479 0.67199999 0.10839807 1.2916392e-38 372 148
0.06235379 0.671 0.10823677 1.1164676e-38 373 148
0.063530281 0.671 0.10823677 8.9447585e-39 374 148
0.064706765 0.671 0.10823677 9.590128e-39 375 148
0.066275999 0.67500001 0.108882 1.0968367e-38 376 148
-0.10243323 0.64200002 0.10243323 1.1713499e-38 229 149
-0.1011498 0.64099997 0.10227368 1.0981672e-38 230 149
-0.099557772 0.63800001 0.10179503 1.1166063e-38 231 149
-0.098284855 0.63700002 0.10163548 1.135045e-38 232 149
-0.097167984 0.63700002 0.10163548 1.1166419e-38 233 149
-0.096051104 0.63700002 0.10163548 1.1166419e-38 234 149
-0.094934233 0.63700002 0.10163548 1.135045e-38 235 149
-0.093817361 0.63700002 0.10163548 1.1166785e-38 236 149
-0.090226531 0.62 0.098923065 1.1074589e-38 237 149
-0.088995695 0.61900002 0.098763511 1.0890924e-38 238 149
-0.087910376 0.61900002 0.098763511 1.098312e-38 239 149
-0.086684793 0.61799997 0.098603956 1.1166432e-38 240 149
-0.085324213 0.616 0.098284848 1.1166432e-38 241 149
-0.083697118 0.61199999 0.097646631 1.098312e-38 242 149
-0.081814036 0.60600001 0.096689314 1.1167152e-38 243 149
-0.080751516 0.60600001 0.096689314 1.098312e-38 244 149
-0.079425998 0.60399997 0.096370205 1.1167152e-38 245 149
-0.078107491 0.602 0.096051104 1.1168231e-38 246 149
-0.076796003 0.60000002 0.095732003 1.1260427e-38 247 149
-0.075743996 0.60000002 0.095732003 1.0619742e-38 248 149
-0.074567512 0.59899998 0.095572442 1.0619742e-38 249 149
-0.073517263 0.59899998 0.095572442 9.7932308e-39 250 149
-0.072467014 0.59899998 0.095572442 9.7006764e-39 251 149
-0.071416765 0.59899998 0.095572442 9.6084836e-39 252 149
-0.070483997 0.60000002 0.095732003 9.5162879e-39 253 149
-0.069432005 0.60000002 0.095732003 9.6084864e-39 254 149
-0.06849397 0.60100001 0.09589155 9.515932e-39 255 149
-0.067440212 0.60100001 0.09589155 9.515932e-39 256 149
-0.066496916 0.602 0.096051104 9.515932e-39 257 149
-0.065550111 0.60299999 0.096210651 9.5162851e-39 258 149
-0.064492859 0.60299999 0.096210651 9.6084808e-39 259 149
-0.063435599 0.60299999 0.096210651 9.8832726e-39 260 149
-0.06248178 0.60399997 0.096370205 9.8832726e-39 261 149
-0.061422769 0.60399997 0.096370205 9.8832754e-39 262 149
-0.060563639 0.60600001 0.096689314 9.8832754e-39 263 149
-0.059501119 0.60600001 0.096689314 1.0066222e-38 264 149
-0.058727901 0.60900003 0.097167984 1.0066222e-38 265 149
-0.057660121 0.60900003 0.097167984 9.9747423e-39 266 149
-0.056685269 0.61000001 0.09732753 9.9747423e-39 267 149
-0.055615734 0.61000001 0.09732753 9.5162851e-39 268 149
-0.0545462 0.61000001 0.09732753 9.5162851e-39 269 149
-0.053476665 0.61000001 0.09732753 9.791077e-39 270 149
-0.052407134 0.61000001 0.09732753 9.791077e-39 271 149
-0.051421758 0.611 0.097487085 9.974392e-39 272 149
-0.050432879 0.61199999 0.097646631 9.974392e-39 273 149
-0.049359839 0.61199999 0.097646631 9.974392e-39 274 149
-0.048365697 0.61299998 0.097806185 9.974392e-39 275 149
-0.047290903 0.61299998 0.097806185 9.7914329e-39 276 149
-0.046291504 0.61400002 0.097965747 9.7914329e-39 277 149
-0.045214958 0.61400002 0.097965747 9.9747423e-39 278 149
-0.0442103 0.61500001 0.098125294 9.9747423e-39 279 149
-0.043132 0.61500001 0.098125294 9.7914329e-39 280 149
-0.042122077 0.616 0.098284848 9.7914329e-39 281 149
-0.041042022 0.616 0.098284848 9.7910798e-39 282 149
-0.040091716 0.61799997 0.098603956 9.8832754e-39 283 149
-0.039008155 0.61799997 0.098603956 1.0066585e-38 284 149
-0.037985966 0.61900002 0.098763511 1.0066585e-38 285 149
-0.036900654 0.61900002 0.098763511 1.0525398e-38 286 149
-0.035873201 0.62 0.098923065 1.0525398e-38 287 149
-0.034842238 0.62099999 0.099082612 1.0066941e-38 288 149
-0.033807773 0.62199998 0.099242166 1.0066941e-38 289 149
-0.032717198 0.62199998 0.099242166 1.0251332e-38 290 149
-0.031626627 0.62199998 0.099242166 1.0343528e-38 291 149
-0.030536054 0.62199998 0.099242166 1.0342451e-38 292 149
-0.029445477 0.62199998 0.099242166 9.6970821e-39 293 149
-0.028400492 0.62300003 0.099401727 8.6843791e-39 294 149
-0.027308168 0.62300003 0.099401727 6.0107058e-39 295 149
-0.026257919 0.62400001 0.099561274 3.8974062e-39 296 149
-0.025204165 0.625 0.099720828 6.8480251e-39 297 149
-0.024185479 0.62699997 0.10003994 9.4223155e-39 298 149
-0.023122961 0.62800002 0.1001995 9.3301198e-39 299 149
-0.022056932 0.62900001 0.10035904 8.217245e-39 300 149
-0.020954086 0.62900001 0.10035904 5.7283217e-39 301 149
-0.0198828 0.63 0.10051859 8.5856716e-39 302 149
-0.018808005 0.63099998 0.10067815 8.5856716e-39 303 149
-0.017729707 0.63200003 0.10083771 6.9359047e-39 304 149
-0.0166742 0.634 0.10115681 7.4890785e-39 305 149
-0.015562586 0.634 0.10115681 5.918513e-39 306 149
-0.014450972 0.634 0.10115681 6.1947397e-39 307 149
-0.013339359 0.634 0.10115681 7.3032621e-39 308 149
-0.012247032 0.63499999 0.10131636 9.0549777e-39 309 149
-0.011133666 0.63499999 0.10131636 1.0893128e-38 310 149
-0.0100203 0.63499999 0.10131636 1.0800931e-38 311 149
-0.0089209592 0.63599998 0.10147592 1.0802007e-38 312 149
-0.0078058392 0.63599998 0.10147592 1.117079e-38 313 149
-0.0066907196 0.63599998 0.10147592 1.1261906e-38 314 149
-0.0055843666 0.63700002 0.10163548 1.0893484e-38 315 149
-0.0044674934 0.63700002 0.10163548 1.0618689e-38 316 149
-0.00335588 0.63800001 0.10179503 1.0618689e-38 317 149
-0.0022372534 0.63800001 0.10179503 1.1077866e-38 318 149
-0.0011221332 0.63999999 0.10211413 1.0893834e-38 319 149
0 0.63999999 0.10211413 1.1077503e-38 320 149
0.0011238866 0.64099997 0.10227368 1.0892751e-38 321 149
0.00225128 0.64200002 0.10243323 1.0250982e-38 322 149
0.0033821799 0.64300001 0.10259279 1.0250982e-38 323 149
0.0045165867 0.64399999 0.10275234 1.0525774e-38 324 149
0.0056457333 0.64399999 0.10275234 1.0709805e-38 325 149
0.0067748795 0.64399999 0.10275234 1.1261544e-38 326 149
0.0079285735 0.64600003 0.10307146 1.1261544e-38 327 149
0.0090612266 0.64600003 0.10307146 1.1261188e-38 328 149
0.01020966 0.64700001 0.10323101 1.1168992e-38 329 149
0.011344067 0.64700001 0.10323101 1.1169714e-38 330 149
0.01249776 0.648 0.10339055 1.1261909e-38 331 149
0.01363392 0.648 0.10339055 1.1536335e-38 332 149
0.014792874 0.64899999 0.10355011 1.1904758e-38 333 149
0.015930785 0.64899999 0.10355011 1.1077515e-38 334 149
0.017068699 0.64899999 0.10355011 1.0155918e-38 335 149
0.018206613 0.64899999 0.10355011 1.006155e-38 336 149
0.019374331 0.64999998 0.10370966 7.2956797e-39 337 149
0.02057712 0.65200001 0.10402877 5.7265631e-39 338 149
0.021720294 0.65200001 0.10402877 5.6343661e-39 339 149
0.022898532 0.653 0.10418832 4.1689666e-39 340 149
0.024080278 0.65399998 0.10434788 8.4096055e-39 341 149
0.025265532 0.65499997 0.10450742 1.0703701e-38 342 149
0.026413966 0.65499997 0.10450742 1.0795896e-38 343 149
0.027562398 0.65499997 0.10450742 1.1075726e-38 344 149
0.028710833 0.65499997 0.10450742 1.1351954e-38 345 149
0.029859263 0.65499997 0.10450742 1.1169358e-38 346 149
0.03110238 0.65700001 0.10482653 1.1169358e-38 347 149
0.03225432 0.65700001 0.10482653 1.1720366e-38 348 149
0.033406258 0.65700001 0.10482653 1.1720366e-38 349 149
0.034663398 0.65899998 0.10514564 1.0886291e-38 350 149
0.035818845 0.65899998 0.10514564 6.8296835e-39 351 149
0.037086505 0.66100001 0.10546475 1.7852136e-39 352 149
0.038303319 0.662 0.1056243 6.9481689e-39 353 149
0.039583251 0.66399997 0.1059434 1.3007204e-38 354 149
0.040747464 0.66399997 0.1059434 1.3836605e-38 355 149
0.042037919 0.66600001 0.10626251 1.3378854e-38 356 149
0.043205637 0.66600001 0.10626251 1.3102627e-38 357 149
0.04437336 0.66600001 0.10626251 1.3010428e-38 358 149
0.045609459 0.667 0.10642207 1.2918231e-38 359 149
0.046778932 0.667 0.10642207 1.2735281e-38 360 149
0.047948405 0.667 0.10642207 1.2827835e-38 361 149
0.04919152 0.66799998 0.10658162 1.3653993e-38 362 149
0.050362743 0.66799998 0.10658162 1.2732037e-38 363 149
0.051688269 0.67000002 0.10690073 1.061226e-38 364 149
0.052863002 0.67000002 0.10690073 4.1589249e-39 365 149
0.054118387 0.671 0.10706028 2.2698233e-41 366 149
0.055294871 0.671 0.10706028 6.7569407e-39 367 149
0.056471359 0.671 0.10706028 1.2821696e-38 368 149
0.057733759 0.67199999 0.10721984 1.3467065e-38 369 149
0.058911994 0.67199999 0.10721984 1.1813661e-38 370 149
0.060090236 0.67199999 0.10721984 1.1998052e-38 371 149
0.061268479 0.67199999 0.10721984 1.2917119e-38 372 149
0.062446721 0.67199999 0.10721984 1.0981011e-38 373 149
0.06381432 0.67400002 0.10753895 9.4053808e-39 374 149
0.064996064 0.67400002 0.10753895 1.005075e-38 375 149
0.066275999 0.67500001 0.10769849 1.0968011e-38 376 149
-0.1014654 0.64300001 0.1014654 1.1349025e-38 230 150
-0.099869862 0.63999999 0.10099199 1.208659e-38 231 150
-0.098284855 0.63700002 0.1005186 1.2545047e-38 232 150
-0.097167984 0.63700002 0.1005186 1.1991875e-38 233 150
-0.096051104 0.63700002 0.1005186 1.1441574e-38 234 150
-0.094189063 0.63200003 0.099729598 1.1441574e-38 235 150
-0.09308096 0.63200003 0.099729598 1.1166785e-38 236 150
-0.090226531 0.62 0.097835995 1.1166785e-38 237 150
-0.088995695 0.61900002 0.097678199 1.089164e-38 238 150
-0.087910376 0.61900002 0.097678199 1.0799444e-38 239 150
-0.086825065 0.61900002 0.097678199 1.1166432e-38 240 150
-0.085601233 0.61799997 0.097520396 1.1166432e-38 241 150
-0.084244154 0.616 0.097204797 1.1166432e-38 242 150
-0.082624078 0.61199999 0.096573591 1.1258629e-38 243 150
-0.080751516 0.60600001 0.095626801 1.1258985e-38 244 150
-0.079294495 0.60299999 0.095153399 1.1258985e-38 245 150
-0.078107491 0.602 0.094995596 1.1168228e-38 246 150
-0.076796003 0.60000002 0.094680004 1.1168228e-38 247 150
-0.075743996 0.60000002 0.094680004 1.0710861e-38 248 150
-0.074692003 0.60000002 0.094680004 1.0803057e-38 249 150
-0.073517263 0.59899998 0.094522193 9.7013981e-39 250 150
-0.072467014 0.59899998 0.094522193 9.5170068e-39 251 150
-0.071536005 0.60000002 0.094680004 9.3336945e-39 252 150
-0.070483997 0.60000002 0.094680004 9.2411402e-39 253 150
-0.06954772 0.60100001 0.0948378 9.6084836e-39 254 150
-0.068607934 0.602 0.094995596 9.5162879e-39 255 150
-0.067552425 0.602 0.094995596 9.3329757e-39 256 150
-0.066607378 0.60299999 0.095153399 9.3329757e-39 257 150
-0.065550111 0.60299999 0.095153399 9.6084808e-39 258 150
-0.064599805 0.60399997 0.095311195 9.6084808e-39 259 150
-0.063540794 0.60399997 0.095311195 9.8836285e-39 260 150
-0.06248178 0.60399997 0.095311195 9.8836285e-39 261 150
-0.061626155 0.60600001 0.095626801 1.0066585e-38 262 150
-0.060563639 0.60600001 0.095626801 1.0066585e-38 263 150
-0.059501119 0.60600001 0.095626801 1.0066585e-38 264 150
-0.058727901 0.60900003 0.096100196 1.0066585e-38 265 150
-0.057660121 0.60900003 0.096100196 1.0066941e-38 266 150
-0.056685269 0.61000001 0.096258 1.0066941e-38 267 150
-0.055615734 0.61000001 0.096258 9.7921518e-39 268 150
-0.0545462 0.61000001 0.096258 9.7921518e-39 269 150
-0.053476665 0.61000001 0.096258 9.791077e-39 270 150
-0.052493043 0.611 0.096415803 9.791077e-39 271 150
-0.051505916 0.61199999 0.096573591 1.0066588e-38 272 150
-0.050515283 0.61299998 0.096731395 1.0066588e-38 273 150
-0.049440488 0.61299998 0.096731395 1.0066585e-38 274 150
-0.048365697 0.61299998 0.096731395 1.0066585e-38 275 150
-0.047368053 0.61400002 0.096889198 9.8832726e-39 276 150
-0.046366896 0.61500001 0.097047001 9.791077e-39 277 150
-0.0452886 0.61500001 0.097047001 9.8832726e-39 278 150
-0.0442103 0.61500001 0.097047001 9.8832726e-39 279 150
-0.043132 0.61500001 0.097047001 9.8832726e-39 280 150
-0.042122077 0.616 0.097204797 9.8832726e-39 281 150
-0.041175276 0.61799997 0.097520396 9.8832782e-39 282 150
-0.040091716 0.61799997 0.097520396 9.9754738e-39 283 150
-0.039008155 0.61799997 0.097520396 1.0250979e-38 284 150
-0.037985966 0.61900002 0.097678199 1.0250979e-38 285 150
-0.036960267 0.62 0.097835995 1.0709792e-38 286 150
-0.035931058 0.62099999 0.097993799 1.0709792e-38 287 150
-0.034898344 0.62199998 0.098151594 1.0434647e-38 288 150
-0.033807773 0.62199998 0.098151594 1.0434647e-38 289 150
-0.032717198 0.62199998 0.098151594 9.7892777e-39 290 150
-0.031626627 0.62199998 0.098151594 8.4985389e-39 291 150
-0.030585146 0.62300003 0.098309405 4.7271599e-39 292 150
-0.029492822 0.62300003 0.098309405 5.648756e-39 293 150
-0.028400492 0.62300003 0.098309405 6.8433532e-39 294 150
-0.027352 0.62400001 0.098467194 5.1838318e-39 295 150
-0.0263 0.625 0.098624997 4.4491408e-39 296 150
-0.025284817 0.62699997 0.098940589 6.9384228e-39 297 150
-0.024185479 0.62699997 0.098940589 7.5819958e-39 298 150
-0.023122961 0.62800002 0.099098399 7.5819958e-39 299 150
-0.022092 0.63 0.099413998 9.1377748e-39 300 150
-0.020987399 0.63 0.099413998 8.584601e-39 301 150
-0.019914359 0.63099998 0.099571794 9.601997e-39 302 150
-0.018837813 0.63200003 0.099729598 1.0062975e-38 303 150
-0.017729707 0.63200003 0.099729598 8.8698619e-39 304 150
-0.0166742 0.634 0.1000452 9.4230357e-39 305 150
-0.015562586 0.634 0.1000452 9.6049117e-39 306 150
-0.014450972 0.634 0.1000452 9.2357704e-39 307 150
-0.013339359 0.634 0.1000452 1.0157013e-38 308 150
-0.012247032 0.63499999 0.10020299 1.0617633e-38 309 150
-0.011133666 0.63499999 0.10020299 1.1169358e-38 310 150
-0.0100203 0.63499999 0.10020299 1.0893131e-38 311 150
-0.0089209592 0.63599998 0.1003608 1.0893847e-38 312 150
-0.0078058392 0.63599998 0.1003608 1.0986401e-38 313 150
-0.0066907196 0.63599998 0.1003608 1.14445e-38 314 150
-0.0055843666 0.63700002 0.1005186 1.098388e-38 315 150
-0.0044745067 0.63800001 0.1006764 1.0801284e-38 316 150
-0.00335588 0.63800001 0.1006764 1.0801284e-38 317 150
-0.0022372534 0.63800001 0.1006764 1.0893481e-38 318 150
-0.0011221332 0.63999999 0.10099199 1.0893481e-38 319 150
0 0.63999999 0.10099199 1.1077149e-38 320 150
0.00112564 0.64200002 0.1013076 1.1077149e-38 321 150
0.00225128 0.64200002 0.1013076 1.0893481e-38 322 150
0.0033821799 0.64300001 0.1014654 1.0893481e-38 323 150
0.0045165867 0.64399999 0.10162319 1.0893484e-38 324 150
0.0056457333 0.64399999 0.10162319 1.1077515e-38 325 150
0.00679592 0.64600003 0.1019388 1.1169711e-38 326 150
0.0079285735 0.64600003 0.1019388 1.1077515e-38 327 150
0.0090752533 0.64700001 0.10209659 1.1077162e-38 328 150
0.01020966 0.64700001 0.10209659 1.0893131e-38 329 150
0.011344067 0.64700001 0.10209659 1.116936e-38 330 150
0.01249776 0.648 0.1022544 1.1261556e-38 331 150
0.013654959 0.64899999 0.10241219 1.153742e-38 332 150
0.014792874 0.64899999 0.10241219 1.1629616e-38 333 150
0.015930785 0.64899999 0.10241219 1.1536701e-38 334 150
0.017095 0.64999998 0.10256999 1.135231e-38 335 150
0.018234665 0.64999998 0.10256999 1.1351936e-38 336 150
0.019374331 0.64999998 0.10256999 9.8768042e-39 337 150
0.02057712 0.65200001 0.1028856 7.8495793e-39 338 150
0.021753605 0.653 0.1030434 7.1120143e-39 339 150
0.022898532 0.653 0.1030434 6.0150372e-39 340 150
0.024080278 0.65399998 0.10320119 9.1496886e-39 341 150
0.025265532 0.65499997 0.10335899 1.1810061e-38 342 150
0.026413966 0.65499997 0.10335899 1.162603e-38 343 150
0.027646558 0.65700001 0.1036746 1.0802383e-38 344 150
0.028798498 0.65700001 0.1036746 1.0986414e-38 345 150
0.02995044 0.65700001 0.1036746 1.1353752e-38 346 150
0.03110238 0.65700001 0.1036746 1.1445947e-38 347 150
0.03225432 0.65700001 0.1036746 1.1905128e-38 348 150
0.033507951 0.65899998 0.10399019 1.2089519e-38 349 150
0.034663398 0.65899998 0.10399019 1.28206e-38 350 150
0.035818845 0.65899998 0.10399019 8.4877657e-39 351 150
0.037086505 0.66100001 0.1043058 3.564623e-41 352 150
0.038303319 0.662 0.1044636 2.8951513e-39 353 150
0.039583251 0.66399997 0.10477919 9.69572e-39 354 150
0.040747464 0.66399997 0.10477919 1.1263046e-38 355 150
0.042037919 0.66600001 0.1050948 1.2549816e-38 356 150
0.043205637 0.66600001 0.1050948 1.2826402e-38 357 150
0.04437336 0.66600001 0.1050948 1.2918952e-38 358 150
0.045609459 0.667 0.10525259 1.2550169e-38 359 150
0.046778932 0.667 0.10525259 1.2825314e-38 360 150
0.047948405 0.667 0.10525259 1.2548369e-38 361 150
0.04919152 0.66799998 0.1054104 1.1902988e-38 362 150
0.050362743 0.66799998 0.1054104 9.2293146e-39 363 150
0.051688269 0.67000002 0.105726 4.994791e-39 364 150
0.052863002 0.67000002 0.105726 1.215129e-39 365 150
0.054118387 0.671 0.10588379 1.4845258e-39 366 150
0.055294871 0.671 0.10588379 1.0427502e-38 367 150
0.056471359 0.671 0.10588379 1.2731667e-38 368 150
0.057733759 0.67199999 0.1060416 1.2916418e-38 369 150
0.059087332 0.67400002 0.1063572 1.2181011e-38 370 150
0.06026908 0.67400002 0.1063572 1.2273565e-38 371 150
0.061450824 0.67400002 0.1063572 1.3007881e-38 372 150
0.062632568 0.67400002 0.1063572 1.116397e-38 373 150
0.063909002 0.67500001 0.106515 9.9574783e-39 374 150
0.065092497 0.67500001 0.106515 1.0234065e-38 375 150
0.066275999 0.67500001 0.106515 1.0966576e-38 376 150
-0.1000259 0.64099997 0.1000259 1.2731259e-38 231 151
-0.098130554 0.63599998 0.099245667 1.3465231e-38 232 151
-0.096862897 0.63499999 0.09908963 1.2543275e-38 233 151
-0.09559875 0.634 0.098933578 1.1716733e-38 234 151
-0.094189063 0.63200003 0.098621495 1.1624536e-38 235 151
-0.09293367 0.63099998 0.098465435 1.1166429e-38 236 151
-0.091827318 0.63099998 0.098465435 1.1166429e-38 237 151
-0.089139462 0.62 0.096748933 1.0890921e-38 238 151
-0.087910376 0.61900002 0.096592888 1.0890921e-38 239 151
-0.086825065 0.61900002 0.096592888 1.1166432e-38 240 151
-0.085601233 0.61799997 0.096436836 1.1166432e-38 241 151
-0.084517673 0.61799997 0.096436836 1.0983117e-38 242 151
-0.082624078 0.61199999 0.095500551 1.0983117e-38 243 151
-0.081551038 0.61199999 0.095500551 1.1166785e-38 244 151
-0.079163 0.602 0.093940087 1.1258982e-38 245 151
-0.077977739 0.60100001 0.093784049 1.125935e-38 246 151
-0.076796003 0.60000002 0.093627997 1.1351546e-38 247 151
-0.075743996 0.60000002 0.093627997 1.0710508e-38 248 151
-0.074692003 0.60000002 0.093627997 1.0710508e-38 249 151
-0.073639996 0.60000002 0.093627997 9.9761899e-39 250 151
-0.072587997 0.60000002 0.093627997 9.8839943e-39 251 151
-0.071536005 0.60000002 0.093627997 9.5170068e-39 252 151
-0.070601478 0.60100001 0.093784049 9.5170068e-39 253 151
-0.06954772 0.60100001 0.093784049 9.3329729e-39 254 151
-0.068607934 0.602 0.093940087 9.3329729e-39 255 151
-0.067664638 0.60299999 0.094096139 9.517004e-39 256 151
-0.066607378 0.60299999 0.094096139 9.517004e-39 257 151
-0.065658823 0.60399997 0.094252177 9.7006764e-39 258 151
-0.064599805 0.60399997 0.094252177 9.7006764e-39 259 151
-0.063540794 0.60399997 0.094252177 9.9758241e-39 260 151
-0.062688679 0.60600001 0.094564281 1.0159855e-38 261 151
-0.061626155 0.60600001 0.094564281 1.0342451e-38 262 151
-0.060563639 0.60600001 0.094564281 1.015842e-38 263 151
-0.059599306 0.60699999 0.094720319 1.0159139e-38 264 151
-0.058727901 0.60900003 0.095032424 1.0159139e-38 265 151
-0.057660121 0.60900003 0.095032424 1.0342449e-38 266 151
-0.056685269 0.61000001 0.095188469 1.0342449e-38 267 151
-0.055615734 0.61000001 0.095188469 9.9754682e-39 268 151
-0.054635618 0.611 0.095344514 9.9754682e-39 269 151
-0.053651996 0.61199999 0.095500551 1.0066585e-38 270 151
-0.052664869 0.61299998 0.095656604 1.0066585e-38 271 151
-0.051590078 0.61299998 0.095656604 1.0066585e-38 272 151
-0.050515283 0.61299998 0.095656604 1.0159139e-38 273 151
-0.049521148 0.61400002 0.095812656 9.9754682e-39 274 151
-0.048444599 0.61400002 0.095812656 1.0159858e-38 275 151
-0.0474452 0.61500001 0.095968701 1.0251335e-38 276 151
-0.046366896 0.61500001 0.095968701 1.0066585e-38 277 151
-0.045362238 0.616 0.096124746 1.0159139e-38 278 151
-0.044282187 0.616 0.096124746 1.0159139e-38 279 151
-0.043202132 0.616 0.096124746 1.0342451e-38 280 151
-0.042122077 0.616 0.096124746 1.0434647e-38 281 151
-0.041175276 0.61799997 0.096436836 1.0250982e-38 282 151
-0.040091716 0.61799997 0.096436836 1.0250982e-38 283 151
-0.039071281 0.61900002 0.096592888 1.0434294e-38 284 151
-0.037985966 0.61900002 0.096592888 1.052649e-38 285 151
-0.036960267 0.62 0.096748933 1.0526124e-38 286 151
-0.035931058 0.62099999 0.096904978 1.0710155e-38 287 151
-0.034898344 0.62199998 0.097061023 1.0433931e-38 288 151
-0.033807773 0.62199998 0.097061023 1.0156985e-38 289 151
-0.032769799 0.62300003 0.097217076 7.3965115e-39 290 151
-0.031677473 0.62300003 0.097217076 5.0916194e-39 291 151
-0.030585146 0.62300003 0.097217076 2.0524034e-39 292 151
-0.029492822 0.62300003 0.097217076 3.4353392e-39 293 151
-0.02844608 0.62400001 0.097373113 7.7613466e-39 294 151
-0.027395833 0.625 0.097529165 6.2862165e-39 295 151
-0.0263 0.625 0.097529165 4.5395386e-39 296 151
-0.025284817 0.62699997 0.097841255 5.0005168e-39 297 151
-0.024224052 0.62800002 0.097997308 2.7046308e-39 298 151
-0.02315978 0.62900001 0.098153345 5.0095201e-39 299 151
-0.022092 0.63 0.098309398 9.8764539e-39 300 151
-0.020987399 0.63 0.098309398 9.8764539e-39 301 151
-0.019914359 0.63099998 0.098465435 1.0248468e-38 302 151
-0.018837813 0.63200003 0.098621495 1.126226e-38 303 151
-0.017785814 0.634 0.098933578 1.0986045e-38 304 151
-0.0166742 0.634 0.098933578 1.0986045e-38 305 151
-0.015562586 0.634 0.098933578 1.1079316e-38 306 151
-0.014450972 0.634 0.098933578 1.0986761e-38 307 151
-0.0133604 0.63499999 0.09908963 1.1169358e-38 308 151
-0.012247032 0.63499999 0.09908963 1.1169358e-38 309 151
-0.011133666 0.63499999 0.09908963 1.1169714e-38 310 151
-0.010036079 0.63599998 0.099245667 1.1077518e-38 311 151
-0.0089209592 0.63599998 0.099245667 1.1169711e-38 312 151
-0.0078058392 0.63599998 0.099245667 1.1261906e-38 313 151
-0.0067012399 0.63700002 0.099401727 1.1259741e-38 314 151
-0.0055931332 0.63800001 0.099557772 9.692057e-39 315 151
-0.0044745067 0.63800001 0.099557772 1.0520379e-38 316 151
-0.00335588 0.63800001 0.099557772 1.1626728e-38 317 151
-0.0022442664 0.63999999 0.099869862 1.1168992e-38 318 151
-0.0011238866 0.64099997 0.1000259 1.1261188e-38 319 151
0 0.64099997 0.1000259 1.1168992e-38 320 151
0.00112564 0.64200002 0.10018196 1.1261188e-38 321 151
0.0022547867 0.64300001 0.100338 1.1169714e-38 322 151
0.0033821799 0.64300001 0.100338 1.1169714e-38 323 151
0.0045165867 0.64399999 0.10049405 1.1169714e-38 324 151
0.0056457333 0.64399999 0.10049405 1.1169714e-38 325 151
0.00679592 0.64600003 0.10080615 1.1261909e-38 326 151
0.0079285735 0.64600003 0.10080615 1.1169714e-38 327 151
0.0090752533 0.64700001 0.10096219 1.1169358e-38 328 151
0.010225439 0.648 0.10111824 1.1169358e-38 329 151
0.0113616 0.648 0.10111824 1.1261556e-38 330 151
0.012517046 0.64899999 0.10127428 1.1261556e-38 331 151
0.013654959 0.64899999 0.10127428 1.153742e-38 332 151
0.014792874 0.64899999 0.10127428 1.1353389e-38 333 151
0.015930785 0.64899999 0.10127428 1.1812209e-38 334 151
0.017095 0.64999998 0.10143033 1.199696e-38 335 151
0.018234665 0.64999998 0.10143033 1.2180996e-38 336 151
0.019433947 0.65200001 0.10174242 1.20888e-38 337 151
0.02057712 0.65200001 0.10174242 1.1904042e-38 338 151
0.021753605 0.653 0.10189847 1.1442703e-38 339 151
0.022933599 0.65399998 0.10205451 1.0709104e-38 340 151
0.024080278 0.65399998 0.10205451 1.1354473e-38 341 151
0.025265532 0.65499997 0.10221056 1.1996251e-38 342 151
0.026413966 0.65499997 0.10221056 1.1904054e-38 343 151
0.027646558 0.65700001 0.10252266 1.1445947e-38 344 151
0.028798498 0.65700001 0.10252266 1.1445947e-38 345 151
0.02995044 0.65700001 0.10252266 1.1720739e-38 346 151
0.03110238 0.65700001 0.10252266 1.1720739e-38 347 151
0.03225432 0.65700001 0.10252266 1.1904421e-38 348 151
0.033507951 0.65899998 0.10283475 1.2181367e-38 349 151
0.0347686 0.66100001 0.10314685 1.3467784e-38 350 151
0.035927553 0.66100001 0.10314685 1.0333492e-38 351 151
0.037086505 0.66100001 0.10314685 3.7069067e-39 352 151
0.038361177 0.66299999 0.10345893 2.6009178e-39 353 151
0.039583251 0.66399997 0.10361498 4.6339231e-39 354 151
0.040747464 0.66399997 0.10361498 7.9529657e-39 355 151
0.042037919 0.66600001 0.10392708 1.1259799e-38 356 151
0.043205637 0.66600001 0.10392708 1.1628942e-38 357 151
0.04437336 0.66600001 0.10392708 1.2547648e-38 358 151
0.045609459 0.667 0.10408312 1.2455453e-38 359 151
0.046778932 0.667 0.10408312 1.2271043e-38 360 151
0.047948405 0.667 0.10408312 1.125689e-38 361 151
0.04919152 0.66799998 0.10423917 9.0459869e-39 362 151
0.050513536 0.67000002 0.10455126 4.5284011e-39 363 151
0.051765412 0.671 0.10470732 1.2980228e-41 364 151
0.052941896 0.671 0.10470732 8.4562056e-40 365 151
0.054118387 0.671 0.10470732 3.8888022e-39 366 151
0.055294871 0.671 0.10470732 9.6971269e-39 367 151
0.056723841 0.67400002 0.10517546 1.2916065e-38 368 151
0.057991501 0.67500001 0.1053315 1.2916065e-38 369 151
0.059175 0.67500001 0.1053315 1.2365409e-38 370 151
0.060358498 0.67500001 0.1053315 1.2549441e-38 371 151
0.061542001 0.67500001 0.1053315 1.3190474e-38 372 151
0.062725499 0.67500001 0.1053315 1.1439117e-38 373 151
0.064003684 0.676 0.10548755 9.7730871e-39 374 151
0.065188929 0.676 0.10548755 9.8652827e-39 375 151
0.066374183 0.676 0.10548755 1.0875099e-38 376 151
-0.098130554 0.63599998 0.098130554 1.2913505e-38 232 152
-0.096862897 0.63499999 0.09797626 1.2728755e-38 233 152
-0.09559875 0.634 0.097821973 1.2637265e-38 234 152
-0.094189063 0.63200003 0.097513385 1.2268483e-38 235 152
-0.09293367 0.63099998 0.097359091 1.0983489e-38 236 152
-0.091827318 0.63099998 0.097359091 1.0890934e-38 237 152
-0.089139462 0.62 0.095661864 1.089164e-38 238 152
-0.087910376 0.61900002 0.09550757 1.089164e-38 239 152
-0.086684793 0.61799997 0.095353276 1.1166782e-38 240 152
-0.085601233 0.61799997 0.095353276 1.1166782e-38 241 152
-0.084244154 0.616 0.095044687 1.098347e-38 242 152
-0.082759075 0.61299998 0.094581805 1.098347e-38 243 152
-0.081684284 0.61299998 0.094581805 1.1258982e-38 244 152
-0.079163 0.602 0.092884578 1.1258982e-38 245 152
-0.077977739 0.60100001 0.092730291 1.1076035e-38 246 152
-0.076796003 0.60000002 0.092576005 1.1076035e-38 247 152
-0.075743996 0.60000002 0.092576005 1.052683e-38 248 152
-0.074692003 0.60000002 0.092576005 1.0710861e-38 249 152
-0.073639996 0.60000002 0.092576005 9.7935937e-39 250 152
-0.072587997 0.60000002 0.092576005 9.6092024e-39 251 152
-0.071536005 0.60000002 0.092576005 9.3333386e-39 252 152
-0.070601478 0.60100001 0.092730291 9.3333386e-39 253 152
-0.06954772 0.60100001 0.092730291 9.5170068e-39 254 152
-0.068607934 0.602 0.092884578 9.5170068e-39 255 152
-0.067664638 0.60299999 0.093038872 9.6084808e-39 256 152
-0.066717833 0.60399997 0.093193166 9.7006764e-39 257 152
-0.065658823 0.60399997 0.093193166 9.7013953e-39 258 152
-0.064599805 0.60399997 0.093193166 9.7939496e-39 259 152
-0.063751198 0.60600001 0.093501754 9.9761871e-39 260 152
-0.062688679 0.60600001 0.093501754 9.9761871e-39 261 152
-0.061727855 0.60699999 0.093656048 1.0159502e-38 262 152
-0.060663577 0.60699999 0.093656048 9.975471e-39 263 152
-0.05969749 0.60799998 0.093810342 1.0158783e-38 264 152
-0.058824331 0.61000001 0.09411893 1.0158783e-38 265 152
-0.057754803 0.61000001 0.09411893 9.975471e-39 266 152
-0.056778189 0.611 0.094273224 9.975471e-39 267 152
-0.055706903 0.611 0.094273224 9.9754738e-39 268 152
-0.05472504 0.61199999 0.094427519 9.9754738e-39 269 152
-0.053739663 0.61299998 0.094581805 9.9754738e-39 270 152
-0.052664869 0.61299998 0.094581805 9.9754738e-39 271 152
-0.051674239 0.61400002 0.094736107 9.975471e-39 272 152
-0.050597694 0.61400002 0.094736107 9.975471e-39 273 152
-0.049521148 0.61400002 0.094736107 1.0159502e-38 274 152
-0.048444599 0.61400002 0.094736107 1.0159502e-38 275 152
-0.0474452 0.61500001 0.094890401 1.0251701e-38 276 152
-0.046366896 0.61500001 0.094890401 1.0251701e-38 277 152
-0.045362238 0.616 0.095044687 1.0159505e-38 278 152
-0.044282187 0.616 0.095044687 1.0159505e-38 279 152
-0.043202132 0.616 0.095044687 1.0250979e-38 280 152
-0.042122077 0.616 0.095044687 1.0343533e-38 281 152
-0.041175276 0.61799997 0.095353276 1.0251701e-38 282 152
-0.040091716 0.61799997 0.095353276 1.0251701e-38 283 152
-0.039071281 0.61900002 0.09550757 1.034318e-38 284 152
-0.037985966 0.61900002 0.09550757 1.0527213e-38 285 152
-0.036960267 0.62 0.095661864 1.0894553e-38 286 152
-0.035931058 0.62099999 0.095816158 1.1078945e-38 287 152
-0.034898344 0.62199998 0.095970452 1.0158436e-38 288 152
-0.033862129 0.62300003 0.096124746 8.5907513e-39 289 152
-0.032769799 0.62300003 0.096124746 4.0832282e-39 290 152
-0.031677473 0.62300003 0.096124746 3.0690777e-39 291 152
-0.030634239 0.62400001 0.09627904 4.9900631e-39 292 152
-0.029540159 0.62400001 0.09627904 5.1748145e-39 293 152
-0.028491667 0.625 0.096433327 1.0150504e-38 294 152
-0.027483499 0.62699997 0.096741915 9.4125806e-39 295 152
-0.026426241 0.62800002 0.096896209 6.1054252e-39 296 152
-0.025325146 0.62800002 0.096896209 6.1054252e-39 297 152
-0.024262626 0.62900001 0.097050503 6.9362747e-39 298 152
-0.023196599 0.63 0.097204797 9.1489698e-39 299 152
-0.022092 0.63 0.097204797 1.1169358e-38 300 152
-0.020987399 0.63 0.097204797 1.0893131e-38 301 152
-0.019914359 0.63099998 0.097359091 1.0250275e-38 302 152
-0.018837813 0.63200003 0.097513385 1.0711254e-38 303 152
-0.017785814 0.634 0.097821973 1.0619058e-38 304 152
-0.0166742 0.634 0.097821973 1.0711254e-38 305 152
-0.015562586 0.634 0.097821973 1.0619058e-38 306 152
-0.014450972 0.634 0.097821973 1.0711254e-38 307 152
-0.0133604 0.63499999 0.09797626 1.0802733e-38 308 152
-0.012247032 0.63499999 0.09797626 1.0986764e-38 309 152
-0.011151199 0.63599998 0.098130554 1.1078244e-38 310 152
-0.010036079 0.63599998 0.098130554 1.1078244e-38 311 152
-0.0089209592 0.63599998 0.098130554 1.1078244e-38 312 152
-0.0078181131 0.63700002 0.098284855 1.1539222e-38 313 152
-0.0067012399 0.63700002 0.098284855 9.3243507e-39 314 152
-0.0055931332 0.63800001 0.098439142 4.0691998e-39 315 152
-0.0044745067 0.63800001 0.098439142 1.0789766e-38 316 152
-0.0033663998 0.63999999 0.09874773 1.3371243e-38 317 152
-0.0022442664 0.63999999 0.09874773 1.1536698e-38 318 152
-0.0011238866 0.64099997 0.098902017 1.1628894e-38 319 152
0 0.64099997 0.098902017 1.1170439e-38 320 152
0.00112564 0.64200002 0.099056318 1.1170439e-38 321 152
0.0022547867 0.64300001 0.099210612 1.1170439e-38 322 152
0.0033821799 0.64300001 0.099210612 1.1170439e-38 323 152
0.0045165867 0.64399999 0.099364907 1.1354827e-38 324 152
0.0056457333 0.64399999 0.099364907 1.1170437e-38 325 152
0.00679592 0.64600003 0.099673495 1.1354471e-38 326 152
0.0079408465 0.64700001 0.099827781 1.1170439e-38 327 152
0.0090752533 0.64700001 0.099827781 1.1171161e-38 328 152
0.010225439 0.648 0.099982083 1.1171161e-38 329 152
0.011379133 0.64899999 0.10013637 1.1354117e-38 330 152
0.012517046 0.64899999 0.10013637 1.1354117e-38 331 152
0.013675999 0.64999998 0.10029066 1.1445953e-38 332 152
0.014815666 0.64999998 0.10029066 1.1445953e-38 333 152
0.015955333 0.64999998 0.10029066 1.1721459e-38 334 152
0.017095 0.64999998 0.10029066 1.1721459e-38 335 152
0.018290773 0.65200001 0.10059925 1.1813658e-38 336 152
0.019433947 0.65200001 0.10059925 1.1813658e-38 337 152
0.02057712 0.65200001 0.10059925 1.1814014e-38 338 152
0.021786919 0.65399998 0.10090783 1.1814014e-38 339 152
0.022933599 0.65399998 0.10090783 1.1813305e-38 340 152
0.024117097 0.65499997 0.10106213 1.1905859e-38 341 152
0.025265532 0.65499997 0.10106213 1.1629639e-38 342 152
0.026413966 0.65499997 0.10106213 1.1629639e-38 343 152
0.027646558 0.65700001 0.10137072 1.1814024e-38 344 152
0.028798498 0.65700001 0.10137072 1.1629993e-38 345 152
0.02995044 0.65700001 0.10137072 1.1813305e-38 346 152
0.031197058 0.65899998 0.1016793 1.1813305e-38 347 152
0.032352503 0.65899998 0.1016793 1.1996623e-38 348 152
0.033609647 0.66100001 0.10198789 1.2181014e-38 349 152
0.0347686 0.66100001 0.10198789 1.2917134e-38 350 152
0.035927553 0.66100001 0.10198789 1.0796635e-38 351 152
0.037142612 0.662 0.10214218 7.7530831e-39 352 152
0.038419038 0.66399997 0.10245077 2.7745205e-39 353 152
0.039583251 0.66399997 0.10245077 4.8152399e-40 354 152
0.040747464 0.66399997 0.10245077 1.3116434e-39 355 152
0.042037919 0.66600001 0.10275936 2.2401031e-39 356 152
0.043205637 0.66600001 0.10275936 3.9914599e-39 357 152
0.04437336 0.66600001 0.10275936 6.6521698e-39 358 152
0.045609459 0.667 0.10291365 6.3752228e-39 359 152
0.046778932 0.667 0.10291365 4.4416061e-39 360 152
0.047948405 0.667 0.10291365 1.1225634e-39 361 152
0.04919152 0.66799998 0.10306793 1.0048151e-40 362 152
0.050513536 0.67000002 0.10337654 7.9243428e-42 363 152
0.051765412 0.671 0.10353082 8.2900817e-42 364 152
0.052941896 0.671 0.10353082 2.5036944e-39 365 152
0.054118387 0.671 0.10353082 4.7185657e-39 366 152
0.055377278 0.67199999 0.10368511 9.8811622e-39 367 152
0.056723841 0.67400002 0.10399371 1.328449e-38 368 152
0.057991501 0.67500001 0.104148 1.328449e-38 369 152
0.059175 0.67500001 0.104148 1.2641639e-38 370 152
0.060358498 0.67500001 0.104148 1.2733835e-38 371 152
0.061542001 0.67500001 0.104148 1.3558182e-38 372 152
0.062818423 0.676 0.10430229 1.1714628e-38 373 152
0.064003684 0.676 0.10430229 9.1277177e-39 374 152
0.065188929 0.676 0.10430229 9.4046633e-39 375 152
0.066374183 0.676 0.10430229 1.0691784e-38 376 152
-0.097167984 0.63700002 0.097167984 1.36482e-38 233 153
-0.096051104 0.63700002 0.097167984 1.2913869e-38 234 153
-0.094785191 0.63599998 0.097015433 1.2545445e-38 235 153
-0.09308096 0.63200003 0.096405275 1.1718902e-38 236 153
-0.09197285 0.63200003 0.096405275 1.1350121e-38 237 153
-0.090864748 0.63200003 0.096405275 1.1350097e-38 238 153
-0.087768354 0.61799997 0.094269715 1.1350097e-38 239 153
-0.086684793 0.61799997 0.094269715 1.0983473e-38 240 153
-0.085324213 0.616 0.093964636 1.0983473e-38 241 153
-0.084244154 0.616 0.093964636 1.0983473e-38 242 153
-0.082759075 0.61299998 0.093507014 1.0983473e-38 243 153
-0.081684284 0.61299998 0.093507014 1.0983117e-38 244 153
-0.079163 0.602 0.091829076 1.1259704e-38 245 153
-0.077977739 0.60100001 0.091676541 1.1076038e-38 246 153
-0.076923996 0.60100001 0.091676541 1.1168234e-38 247 153
-0.075743996 0.60000002 0.091523997 1.0527193e-38 248 153
-0.074692003 0.60000002 0.091523997 1.0619747e-38 249 153
-0.073639996 0.60000002 0.091523997 1.0252051e-38 250 153
-0.072587997 0.60000002 0.091523997 1.0252051e-38 251 153
-0.071536005 0.60000002 0.091523997 9.8843474e-39 252 153
-0.070601478 0.60100001 0.091676541 9.8843474e-39 253 153
-0.06954772 0.60100001 0.091676541 9.6084808e-39 254 153
-0.068607934 0.602 0.091829076 9.6084808e-39 255 153
-0.067664638 0.60299999 0.091981612 9.7006764e-39 256 153
-0.066717833 0.60399997 0.092134148 9.7932308e-39 257 153
-0.065658823 0.60399997 0.092134148 9.7932308e-39 258 153
-0.064813718 0.60600001 0.092439234 9.9772619e-39 259 153
-0.063751198 0.60600001 0.092439234 9.9772619e-39 260 153
-0.062792122 0.60699999 0.09259177 9.7932308e-39 261 153
-0.061727855 0.60699999 0.09259177 1.0159858e-38 262 153
-0.060763516 0.60799998 0.092744313 1.0159858e-38 263 153
-0.05969749 0.60799998 0.092744313 1.0159858e-38 264 153
-0.058824331 0.61000001 0.0930494 1.0159858e-38 265 153
-0.057754803 0.61000001 0.0930494 1.0159858e-38 266 153
-0.056778189 0.611 0.093201943 1.0159858e-38 267 153
-0.055706903 0.611 0.093201943 1.0159858e-38 268 153
-0.054814454 0.61299998 0.093507014 1.0159858e-38 269 153
-0.053739663 0.61299998 0.093507014 1.0252054e-38 270 153
-0.052664869 0.61299998 0.093507014 1.0159858e-38 271 153
-0.051674239 0.61400002 0.093659565 1.0251335e-38 272 153
-0.050597694 0.61400002 0.093659565 1.034353e-38 273 153
-0.049521148 0.61400002 0.093659565 1.0526846e-38 274 153
-0.048523501 0.61500001 0.093812101 1.0526846e-38 275 153
-0.0474452 0.61500001 0.093812101 1.0251701e-38 276 153
-0.046366896 0.61500001 0.093812101 1.0159505e-38 277 153
-0.045362238 0.616 0.093964636 1.034353e-38 278 153
-0.044282187 0.616 0.093964636 1.034353e-38 279 153
-0.043202132 0.616 0.093964636 1.0802709e-38 280 153
-0.042122077 0.616 0.093964636 1.0802709e-38 281 153
-0.041175276 0.61799997 0.094269715 1.0802355e-38 282 153
-0.040091716 0.61799997 0.094269715 1.0802355e-38 283 153
-0.039071281 0.61900002 0.094422258 1.0893837e-38 284 153
-0.037985966 0.61900002 0.094422258 1.0709086e-38 285 153
-0.036960267 0.62 0.094574794 1.0526492e-38 286 153
-0.035931058 0.62099999 0.094727337 1.0803081e-38 287 153
-0.034898344 0.62199998 0.094879873 1.0802005e-38 288 153
-0.033862129 0.62300003 0.095032424 1.0156635e-38 289 153
-0.032769799 0.62300003 0.095032424 4.9965469e-39 290 153
-0.03172832 0.62400001 0.095184959 3.0604386e-39 291 153
-0.030634239 0.62400001 0.095184959 5.0833573e-39 292 153
-0.0295875 0.625 0.095337495 5.0833573e-39 293 153
-0.028582839 0.62699997 0.095642567 9.3211347e-39 294 153
-0.027483499 0.62699997 0.095642567 1.00587e-38 295 153
-0.026426241 0.62800002 0.095795117 8.1322997e-39 296 153
-0.025365472 0.62900001 0.095947653 8.4088866e-39 297 153
-0.024262626 0.62900001 0.095947653 1.0157376e-38 298 153
-0.023196599 0.63 0.096100196 1.071055e-38 299 153
-0.022092 0.63 0.096100196 1.0802383e-38 300 153
-0.020987399 0.63 0.096100196 1.0710187e-38 301 153
-0.019914359 0.63099998 0.096252732 1.1169358e-38 302 153
-0.018837813 0.63200003 0.096405275 1.1261553e-38 303 153
-0.017729707 0.63200003 0.096405275 1.1353739e-38 304 153
-0.0166742 0.634 0.096710362 1.1353739e-38 305 153
-0.015562586 0.634 0.096710362 1.1171146e-38 306 153
-0.014450972 0.634 0.096710362 1.1171146e-38 307 153
-0.0133604 0.63499999 0.096862897 1.1261909e-38 308 153
-0.012247032 0.63499999 0.096862897 1.1261909e-38 309 153
-0.011151199 0.63599998 0.097015433 1.1354108e-38 310 153
-0.010036079 0.63599998 0.097015433 1.1446303e-38 311 153
-0.0089349868 0.63700002 0.097167984 1.1446301e-38 312 153
-0.0078181131 0.63700002 0.097167984 1.1907279e-38 313 153
-0.0067117601 0.63800001 0.097320519 9.2281978e-39 314 153
-0.0055931332 0.63800001 0.097320519 3.2354818e-39 315 153
-0.0044885329 0.63999999 0.097625598 1.1613056e-38 316 153
-0.0033716597 0.64099997 0.097778134 1.4839903e-38 317 153
-0.0022477731 0.64099997 0.097778134 1.1905478e-38 318 153
-0.0011238866 0.64099997 0.097778134 1.1905478e-38 319 153
0 0.64200002 0.097930677 1.1721813e-38 320 153
0.0011273933 0.64300001 0.09808322 1.1721813e-38 321 153
0.0022547867 0.64300001 0.09808322 1.1721813e-38 322 153
0.0033874398 0.64399999 0.098235756 1.1721813e-38 323 153
0.0045165867 0.64399999 0.098235756 1.1538498e-38 324 153
0.0056632664 0.64600003 0.098540843 1.1538498e-38 325 153
0.00679592 0.64600003 0.098540843 1.1721813e-38 326 153
0.0079408465 0.64700001 0.098693378 1.1721813e-38 327 153
0.0090752533 0.64700001 0.098693378 1.1721459e-38 328 153
0.01024122 0.64899999 0.09899845 1.1721459e-38 329 153
0.011379133 0.64899999 0.09899845 1.1904775e-38 330 153
0.012536332 0.64999998 0.099150993 1.1904775e-38 331 153
0.013675999 0.64999998 0.099150993 1.1996251e-38 332 153
0.014815666 0.64999998 0.099150993 1.1996251e-38 333 153
0.016004426 0.65200001 0.099456072 1.2180998e-38 334 153
0.017147599 0.65200001 0.099456072 1.2180998e-38 335 153
0.018318826 0.653 0.099608615 1.2364667e-38 336 153
0.019463753 0.653 0.099608615 1.2364667e-38 337 153
0.020640239 0.65399998 0.099761158 1.2180998e-38 338 153
0.021820232 0.65499997 0.099913694 1.236503e-38 339 153
0.022968665 0.65499997 0.099913694 1.2457231e-38 340 153
0.024117097 0.65499997 0.099913694 1.2364676e-38 341 153
0.025265532 0.65499997 0.099913694 1.1997699e-38 342 153
0.026494619 0.65700001 0.10021878 1.1997699e-38 343 153
0.027688639 0.65799999 0.10037132 1.2364679e-38 344 153
0.028842334 0.65799999 0.10037132 1.2364679e-38 345 153
0.029996024 0.65799999 0.10037132 1.2363958e-38 346 153
0.031197058 0.65899998 0.10052385 1.2363958e-38 347 153
0.032450691 0.66100001 0.10082894 1.2363607e-38 348 153
0.033609647 0.66100001 0.10082894 1.273239e-38 349 153
0.0347686 0.66100001 0.10082894 1.309973e-38 350 153
0.035981905 0.662 0.10098148 1.1163622e-38 351 153
0.037142612 0.662 0.10098148 8.8598034e-39 352 153
0.038419038 0.66399997 0.10128655 5.5407608e-39 353 153
0.039583251 0.66399997 0.10128655 1.9515772e-39 354 153
