# .PCD v.7 - Point Cloud Data file format
FIELDS x y z rgb imX imY
SIZE 4 4 4 4 4 4
TYPE F F F F F F
COUNT 1 1 1 1 1 1
WIDTH 836
HEIGHT 1
VIEWPOINT 0 0 0 1 0 0 0
POINTS 836
DATA ascii
-0.01046214 0.66299999 0.0116246 1.1054427e-38 311 230
-0.0093137063 0.66399997 0.011642133 1.2160052e-38 312 230
-0.0081740404 0.66600001 0.011677199 1.5018477e-38 313 230
-0.0070063197 0.66600001 0.011677199 1.3551272e-38 314 230
-0.0058473665 0.667 0.011694733 1.3182488e-38 315 230
-0.0046989331 0.67000002 0.011747333 1.3362917e-38 316 230
-0.0035241998 0.67000002 0.011747333 1.2625352e-38 317 230
-0.0023564799 0.67199999 0.011782399 1.2803256e-38 318 230
-0.0011817467 0.67400002 0.011817466 1.2157887e-38 319 230
0 0.67500001 0.011835 1.2061375e-38 320 230
0.0011852533 0.676 0.011852534 1.1877344e-38 321 230
0.0023705065 0.676 0.011852534 1.1507851e-38 322 230
0.0035662798 0.67799997 0.011887599 1.0770286e-38 323 230
0.0047550397 0.67799997 0.011887599 9.6697063e-39 324 230
0.0059613334 0.68000001 0.011922667 1.2711803e-38 325 230
0.00717464 0.68199998 0.011957732 1.3731003e-38 326 230
0.0083826864 0.68300003 0.011975267 1.5297968e-38 327 230
0.0096222926 0.68599999 0.012027865 1.3825334e-38 328 230
0.010840859 0.68699998 0.012045399 1.1428608e-38 329 230
0.012045399 0.68699998 0.012045399 1.1420304e-38 330 230
0.013269227 0.68800002 0.012062933 1.1973477e-38 331 230
0.014538639 0.69099998 0.012115533 1.216221e-38 332 230
0.015795778 0.69300002 0.012150601 1.2899775e-38 333 230
0.01701084 0.69300002 0.012150601 1.3084182e-38 334 230
0.018304799 0.69599998 0.0122032 1.2991986e-38 335 230
0.019581227 0.69800001 0.012238266 1.3085254e-38 336 230
0.020864666 0.69999999 0.012273333 1.3915016e-38 337 230
0.02218668 0.70300001 0.012325933 1.3920041e-38 338 230
0.023452586 0.704 0.012343466 1.3643094e-38 339 230
0.024757065 0.70599997 0.012378532 1.3916053e-38 340 230
0.02603174 0.70700002 0.012396066 1.3731661e-38 341 230
0.027271347 0.70700002 0.012396066 1.3638014e-38 342 230
0.02855128 0.708 0.0124136 1.2992645e-38 343 230
0.029876797 0.70999998 0.012448666 9.5921935e-39 344 230
0.031253166 0.713 0.012501267 8.669877e-39 345 230
0.032548878 0.71399999 0.012518799 4.9957453e-39 346 230
0.033800758 0.71399999 0.012518799 4.0741478e-39 347 230
0.035150826 0.71600002 0.012553867 2.4207949e-39 348 230
0.036457058 0.71700001 0.0125714 3.0661644e-39 349 230
0.037819397 0.71899998 0.012606465 3.8934405e-39 350 230
0.039243106 0.722 0.012659066 4.2625818e-39 351 230
0.040677335 0.72500002 0.012711667 4.9050841e-39 352 230
0.041948501 0.72500002 0.012711667 5.2735065e-39 353 230
0.043338891 0.727 0.012746733 5.6390492e-39 354 230
0.044674929 0.72799999 0.012764266 5.5468536e-39 355 230
0.045951359 0.72799999 0.012764266 7.1098479e-39 356 230
0.047227785 0.72799999 0.012764266 7.6630203e-39 357 230
0.048504211 0.72799999 0.012764266 1.0420254e-38 358 230
-0.086670771 0.66799998 0.01054104 1.3179997e-38 246 231
-0.085371546 0.667 0.010525259 1.2442432e-38 247 231
-0.084202074 0.667 0.010525259 7.6637405e-39 248 231
-0.083032601 0.667 0.010525259 6.8339785e-39 249 231
-0.081740394 0.66600001 0.01050948 4.7296934e-39 250 231
-0.08057268 0.66600001 0.01050948 5.2828672e-39 251 231
-0.079166502 0.66399997 0.010477919 4.7271851e-39 252 231
-0.077884816 0.66299999 0.01046214 4.543154e-39 253 231
-0.076722354 0.66299999 0.01046214 4.8211674e-39 254 231
-0.075445928 0.662 0.01044636 5.7431223e-39 255 231
-0.074285224 0.662 0.01044636 5.6509238e-39 256 231
-0.073014058 0.66100001 0.01043058 4.6367719e-39 257 231
-0.07163769 0.65899998 0.010399019 3.8995754e-39 258 231
-0.07026834 0.65700001 0.01036746 3.6233486e-39 259 231
-0.068695597 0.653 0.010304339 3.7162631e-39 260 231
-0.06744723 0.65200001 0.01028856 4.4538296e-39 261 231
-0.066100657 0.64999998 0.010256999 5.8324452e-39 262 231
-0.064861059 0.64899999 0.01024122 5.5558569e-39 263 231
-0.063624963 0.648 0.010225439 4.5463755e-39 264 231
-0.062488798 0.648 0.010225439 3.7166135e-39 265 231
-0.061257958 0.64700001 0.01020966 1.6025824e-39 266 231
-0.060030628 0.64600003 0.01019388 3.4176268e-41 267 231
-0.058624454 0.64300001 0.01014654 3.6328663e-41 268 231
-0.05740764 0.64200002 0.01013076 3.6688796e-41 269 231
-0.056106664 0.63999999 0.0100992 3.8502077e-41 270 231
-0.054812707 0.63800001 0.01006764 1.0558952e-39 271 231
-0.053609919 0.63700002 0.01005186 5.6484057e-39 272 231
-0.052410636 0.63599998 0.010036079 5.924994e-39 273 231
-0.051295515 0.63599998 0.010036079 6.3809359e-39 274 231
-0.050101496 0.63499999 0.0100203 3.4303156e-39 275 231
-0.048756693 0.63200003 0.0099729598 3.6698605e-41 276 231
-0.047648586 0.63200003 0.0099729598 3.5619606e-41 277 231
-0.046466835 0.63099998 0.0099571794 3.6683191e-41 278 231
-0.045360483 0.63099998 0.0099571794 3.7403459e-41 279 231
-0.044254132 0.63099998 0.0099571794 3.7400656e-41 280 231
-0.043147776 0.63099998 0.0099571794 3.6680389e-41 281 231
-0.042041425 0.63099998 0.0099571794 3.4850293e-41 282 231
-0.040999945 0.63200003 0.0099729598 3.9892165e-41 283 231
-0.039891839 0.63200003 0.0099729598 7.481803e-39 284 231
-0.038906466 0.634 0.010004519 6.1910641e-39 285 231
-0.037854467 0.63499999 0.0100203 3.5913878e-41 286 231
-0.036798958 0.63599998 0.010036079 3.6634146e-41 287 231
-0.035739947 0.63700002 0.01005186 3.5584573e-41 288 231
-0.034623075 0.63700002 0.01005186 3.5584573e-41 289 231
-0.0335062 0.63700002 0.01005186 3.6302038e-41 290 231
-0.032440174 0.63800001 0.01006764 3.7022305e-41 291 231
-0.031419732 0.63999999 0.0100992 7.7277687e-40 292 231
-0.030392278 0.64200002 0.01013076 4.0399435e-40 293 231
-0.029312227 0.64300001 0.01014654 9.0426645e-39 294 231
-0.028228667 0.64399999 0.01016232 9.8727839e-39 295 231
-0.02718368 0.64600003 0.01019388 9.3995584e-39 296 231
-0.026091354 0.64700001 0.01020966 7.8322341e-39 297 231
-0.024995521 0.648 0.010225439 1.0680236e-38 298 231
-0.024006641 0.65200001 0.01028856 1.2800737e-38 299 231
-0.022898532 0.653 0.010304339 1.3265316e-38 300 231
-0.021753605 0.653 0.010304339 1.2896175e-38 301 231
-0.020640239 0.65399998 0.01032012 1.2615991e-38 302 231
-0.019493559 0.65399998 0.01032012 1.1878426e-38 303 231
-0.018374931 0.65499997 0.010335899 1.1880225e-38 304 231
-0.017226499 0.65499997 0.010335899 1.2157171e-38 305 231
-0.01612716 0.65700001 0.01036746 1.2526689e-38 306 231
-0.01497522 0.65700001 0.01036746 1.2526689e-38 307 231
-0.013865359 0.65899998 0.010399019 1.2525988e-38 308 231
-0.012748486 0.66100001 0.01043058 1.2894771e-38 309 231
-0.0116246 0.66299999 0.01046214 1.2346629e-38 310 231
-0.01046214 0.66299999 0.01046214 1.2439185e-38 311 231
-0.0093137063 0.66399997 0.010477919 1.3271814e-38 312 231
-0.0081740404 0.66600001 0.01050948 1.4009379e-38 313 231
-0.0070168395 0.667 0.010525259 1.3182485e-38 314 231
-0.0058561331 0.66799998 0.01054104 1.2721866e-38 315 231
-0.0046989331 0.67000002 0.0105726 1.2991971e-38 316 231
-0.0035294599 0.671 0.01058838 1.216221e-38 317 231
-0.0023564799 0.67199999 0.010604159 1.2157874e-38 318 231
-0.0011817467 0.67400002 0.01063572 1.1235559e-38 319 231
0 0.67500001 0.0106515 1.1783344e-38 320 231
0.0011852533 0.676 0.01066728 1.1783344e-38 321 231
0.0023775198 0.67799997 0.010698839 1.0769933e-38 322 231
0.0035662798 0.67799997 0.010698839 1.1139076e-38 323 231
0.0047620535 0.67900002 0.010714619 1.1425033e-38 324 231
0.0059613334 0.68000001 0.0107304 1.4374934e-38 325 231
0.00717464 0.68199998 0.010761959 1.4656562e-38 326 231
0.0083949603 0.68400002 0.01079352 1.4656562e-38 327 231
0.0096222926 0.68599999 0.010825079 1.373457e-38 328 231
0.010840859 0.68699998 0.010840859 1.1706267e-38 329 231
0.012045399 0.68699998 0.010840859 1.1977799e-38 330 231
0.013269227 0.68800002 0.010856641 1.3175983e-38 331 231
0.014538639 0.69099998 0.01090398 1.32718e-38 332 231
0.015795778 0.69300002 0.010935539 1.3732419e-38 333 231
0.017084479 0.69599998 0.010982879 1.3548025e-38 334 231
0.018331099 0.69700003 0.01099866 1.3271797e-38 335 231
0.019581227 0.69800001 0.01101444 1.3550527e-38 336 231
0.020894472 0.70099998 0.011061779 1.4011505e-38 337 231
0.02218668 0.70300001 0.01109334 1.3736678e-38 338 231
0.023452586 0.704 0.011109119 1.3091667e-38 339 231
0.024757065 0.70599997 0.011140679 1.3183832e-38 340 231
0.02603174 0.70700002 0.011156459 1.2723213e-38 341 231
0.027309919 0.708 0.01117224 1.1709083e-38 342 231
0.02855128 0.708 0.01117224 1.051054e-38 343 231
0.029876797 0.70999998 0.011203799 6.0988531e-39 344 231
0.031253166 0.713 0.011251139 4.4396905e-39 345 231
0.032548878 0.71399999 0.011266919 2.4214984e-39 346 231
0.033800758 0.71399999 0.011266919 2.6058911e-39 347 231
0.035150826 0.71600002 0.01129848 3.248776e-39 348 231
0.036457058 0.71700001 0.01131426 3.5253643e-39 349 231
0.037819397 0.71899998 0.01134582 3.8934433e-39 350 231
0.039406165 0.72500002 0.0114405 4.2625846e-39 351 231
0.040789545 0.727 0.01147206 4.8150395e-39 352 231
0.042064216 0.727 0.01147206 5.3678545e-39 353 231
0.043398503 0.72799999 0.01148784 6.0067429e-39 354 231
0.044797666 0.73000002 0.011519399 6.0989386e-39 355 231
0.046077598 0.73000002 0.011519399 7.2027624e-39 356 231
0.047357533 0.73000002 0.011519399 7.7559362e-39 357 231
0.048637468 0.73000002 0.011519399 1.0512451e-38 358 231
-0.087060012 0.671 0.0094118929 1.3181079e-38 246 232
-0.085755527 0.67000002 0.0093978662 1.207509e-38 247 232
-0.084328316 0.66799998 0.0093698129 6.2840515e-39 248 232
-0.083157085 0.66799998 0.0093698129 3.5181826e-39 249 232
-0.081863128 0.667 0.0093557863 1.7877079e-39 250 232
-0.080693655 0.667 0.0093557863 3.539785e-39 251 232
-0.079404958 0.66600001 0.0093417596 5.7373811e-39 252 232
-0.077884816 0.66299999 0.0092996797 5.5526298e-39 253 232
-0.076722354 0.66299999 0.0092996797 5.2814379e-39 254 232
-0.075445928 0.662 0.009285653 5.0970466e-39 255 232
-0.074285224 0.662 0.009285653 4.7289872e-39 256 232
-0.073014058 0.66100001 0.0092716264 4.5445945e-39 257 232
-0.07163769 0.65899998 0.0092435731 5.2792771e-39 258 232
-0.070375293 0.65799999 0.0092295464 5.3714727e-39 259 232
-0.068800792 0.65399998 0.0091734398 5.2796274e-39 260 232
-0.067550674 0.653 0.0091594132 5.094876e-39 261 232
-0.066100657 0.64999998 0.0091173323 4.3612766e-39 262 232
-0.064960994 0.64999998 0.0091173323 3.808463e-39 263 232
-0.063723139 0.64899999 0.0091033066 3.2563612e-39 264 232
-0.062488798 0.648 0.0090892799 3.5329481e-39 265 232
-0.061257958 0.64700001 0.0090752533 3.7194847e-39 266 232
-0.060123552 0.64700001 0.0090752533 4.3648541e-39 267 232
-0.058624454 0.64300001 0.0090191467 3.9935549e-39 268 232
-0.05740764 0.64200002 0.00900512 2.3340321e-39 269 232
-0.056106664 0.63999999 0.0089770658 3.6344077e-41 270 232
-0.054812707 0.63800001 0.0089490134 3.6344077e-41 271 232
-0.053609919 0.63700002 0.0089349868 3.7057338e-41 272 232
-0.052493047 0.63700002 0.0089349868 3.7417472e-41 273 232
-0.051295515 0.63599998 0.0089209592 8.657362e-40 274 232
-0.050180398 0.63599998 0.0089209592 3.1256243e-40 275 232
-0.04898813 0.63499999 0.0089069325 3.6693e-41 276 232
-0.047648586 0.63200003 0.0088648535 3.5974134e-41 277 232
-0.046466835 0.63099998 0.008850826 3.5608395e-41 278 232
-0.045360483 0.63099998 0.008850826 3.6687395e-41 279 232
-0.044254132 0.63099998 0.008850826 3.7043325e-41 280 232
-0.043147776 0.63099998 0.008850826 3.7043325e-41 281 232
-0.042041425 0.63099998 0.008850826 3.5932095e-41 282 232
-0.040999945 0.63200003 0.0088648535 4.0615235e-41 283 232
-0.039891839 0.63200003 0.0088648535 7.5729294e-39 284 232
-0.038906466 0.634 0.0088929068 6.2821906e-39 285 232
-0.037854467 0.63499999 0.0089069325 3.6998483e-41 286 232
-0.036798958 0.63599998 0.0089209592 3.7718751e-41 287 232
-0.035739947 0.63700002 0.0089349868 3.4869911e-41 288 232
-0.034623075 0.63700002 0.0089349868 3.5230045e-41 289 232
-0.033558797 0.63800001 0.0089490134 1.2778301e-40 290 232
-0.032541864 0.63999999 0.0089770658 4.0400976e-40 291 232
-0.031468827 0.64099997 0.0089910924 6.8020849e-40 292 232
-0.030392278 0.64200002 0.00900512 6.8020849e-40 293 232
-0.029312227 0.64300001 0.0090191467 1.070145e-38 294 232
-0.028228667 0.64399999 0.0090331733 9.9638851e-39 295 232
-0.027225759 0.64700001 0.0090752533 8.9339111e-39 296 232
-0.026091354 0.64700001 0.0090752533 1.0316846e-38 297 232
-0.025034092 0.64899999 0.0091033066 1.2618862e-38 298 232
-0.024006641 0.65200001 0.0091453865 1.2895809e-38 299 232
-0.022898532 0.653 0.0091594132 1.2805409e-38 300 232
-0.021753605 0.653 0.0091594132 1.252882e-38 301 232
-0.020640239 0.65399998 0.0091734398 1.2708894e-38 302 232
-0.019493559 0.65399998 0.0091734398 1.2247916e-38 303 232
-0.018374931 0.65499997 0.0091874655 1.2248641e-38 304 232
-0.017226499 0.65499997 0.0091874655 1.2433032e-38 305 232
-0.01612716 0.65700001 0.0092155198 1.2433399e-38 306 232
-0.014998012 0.65799999 0.0092295464 1.2525595e-38 307 232
-0.01390744 0.66100001 0.0092716264 1.2710007e-38 308 232
-0.012767773 0.662 0.009285653 1.4185138e-38 309 232
-0.0116246 0.66299999 0.0092996797 1.4377101e-38 310 232
-0.010477919 0.66399997 0.0093137063 1.4377101e-38 311 232
-0.0093417596 0.66600001 0.0093417596 1.3550922e-38 312 232
-0.0081863133 0.667 0.0093557863 1.3458726e-38 313 232
-0.0070168395 0.667 0.0093557863 1.3088475e-38 314 232
-0.0058561331 0.66799998 0.0093698129 1.2259075e-38 315 232
-0.0046989331 0.67000002 0.0093978662 1.2989077e-38 316 232
-0.0035294599 0.671 0.0094118929 1.2528099e-38 317 232
-0.0023564799 0.67199999 0.0094259195 1.151142e-38 318 232
-0.0011817467 0.67400002 0.0094539737 1.0497627e-38 319 232
0 0.67500001 0.0094679995 1.1140495e-38 320 232
0.0011852533 0.676 0.0094820261 1.0679517e-38 321 232
0.0023775198 0.67799997 0.0095100794 1.0955047e-38 322 232
0.0035662798 0.67799997 0.0095100794 1.3813112e-38 323 232
0.0047690663 0.68000001 0.0095381327 1.3825717e-38 324 232
0.005978866 0.68199998 0.009566186 1.4747313e-38 325 232
0.0071851597 0.68300003 0.0095802136 1.4013711e-38 326 232
0.0083949603 0.68400002 0.0095942402 1.3737484e-38 327 232
0.0096222926 0.68599999 0.0096222926 1.4196647e-38 328 232
0.010856641 0.68800002 0.0096503468 1.39197e-38 329 232
0.012062933 0.68800002 0.0096503468 1.4285596e-38 330 232
0.013327086 0.69099998 0.0096924258 1.3732422e-38 331 232
0.014580719 0.69300002 0.0097204801 1.3360746e-38 332 232
0.015818574 0.69400001 0.0097345067 1.3637693e-38 333 232
0.017109027 0.69700003 0.0097765867 1.3639481e-38 334 232
0.0183574 0.69800001 0.0097906133 1.3731677e-38 335 232
0.019637333 0.69999999 0.0098186666 1.2354492e-38 336 232
0.020894472 0.70099998 0.0098326923 1.1893154e-38 337 232
0.02218668 0.70300001 0.0098607466 1.079072e-38 338 232
0.023452586 0.704 0.0098747732 9.2230354e-39 339 232
0.024757065 0.70599997 0.0099028256 5.3655606e-39 340 232
0.02603174 0.70700002 0.0099168532 4.720201e-39 341 232
0.027309919 0.708 0.0099308798 3.3419553e-39 342 232
0.028631933 0.70999998 0.0099589331 3.4341509e-39 343 232
0.029918881 0.71100003 0.0099729598 2.9750197e-39 344 232
0.031296998 0.71399999 0.01001504 3.0675741e-39 345 232
0.032548878 0.71399999 0.01001504 3.2487606e-39 346 232
0.03389544 0.71600002 0.010043093 3.3409562e-39 347 232
0.035150826 0.71600002 0.010043093 3.4324554e-39 348 232
0.036558751 0.71899998 0.010085173 3.8930734e-39 349 232
0.0379772 0.722 0.010127253 3.984567e-39 350 232
0.039406165 0.72500002 0.010169334 4.5377393e-39 351 232
0.040789545 0.727 0.010197386 4.8154052e-39 352 232
0.042064216 0.727 0.010197386 5.183829e-39 353 232
0.043398503 0.72799999 0.010211413 6.5588433e-39 354 232
0.044797666 0.73000002 0.010239467 6.5588433e-39 355 232
0.046140719 0.73100001 0.010253493 7.3860803e-39 356 232
0.047422405 0.73100001 0.010253493 7.6626671e-39 357 232
0.048704091 0.73100001 0.010253493 1.078976e-38 358 232
-0.087060012 0.671 0.0082354061 1.2997403e-38 246 233
-0.085883528 0.671 0.0082354061 1.2167284e-38 247 233
-0.084580801 0.67000002 0.0082231332 6.3766017e-39 248 233
-0.083406061 0.67000002 0.0082231332 2.4121896e-39 249 233
-0.081985861 0.66799998 0.0081985854 1.0472562e-39 250 233
-0.080814637 0.66799998 0.0081985854 3.5365382e-39 251 233
-0.079524182 0.667 0.0081863133 5.4618705e-39 252 233
-0.078002289 0.66399997 0.0081494926 5.4618705e-39 253 233
-0.076722354 0.66299999 0.0081372196 5.4636809e-39 254 233
-0.075445928 0.662 0.0081249457 5.2792897e-39 255 233
-0.074285224 0.662 0.0081249457 5.0970494e-39 256 233
-0.073014058 0.66100001 0.0081126727 5.004495e-39 257 233
-0.071855105 0.66100001 0.0081126727 5.7384531e-39 258 233
-0.070482239 0.65899998 0.0080881258 5.5540633e-39 259 233
-0.069116399 0.65700001 0.0080635799 5.0952515e-39 260 233
-0.067550674 0.653 0.0080144862 4.6342734e-39 261 233
-0.066304058 0.65200001 0.0080022132 3.1670592e-39 262 233
-0.064960994 0.64999998 0.0079776663 2.4291355e-39 263 233
-0.063723139 0.64899999 0.0079653924 8.6682782e-40 264 233
-0.062488798 0.648 0.0079531204 2.1575666e-39 265 233
-0.061257958 0.64700001 0.0079408465 4.6385712e-39 266 233
-0.060123552 0.64700001 0.0079408465 5.8371144e-39 267 233
-0.058715623 0.64399999 0.0079040267 6.3856204e-39 268 233
-0.057497058 0.64300001 0.0078917528 5.555501e-39 269 233
-0.056194331 0.64099997 0.0078672068 2.8908003e-39 270 233
-0.054984529 0.63999999 0.0078549329 1.3234746e-39 271 233
-0.053694081 0.63800001 0.007830387 3.5581771e-41 272 233
-0.052493047 0.63700002 0.0078181131 3.4142637e-41 273 233
-0.051295515 0.63599998 0.0078058392 3.3792312e-41 274 233
-0.050180398 0.63599998 0.0078058392 3.5953115e-41 275 233
-0.04898813 0.63499999 0.0077935657 3.5965726e-41 276 233
-0.047648586 0.63200003 0.0077567468 3.4885325e-41 277 233
-0.04654048 0.63200003 0.0077567468 3.5964325e-41 278 233
-0.045360483 0.63099998 0.0077444729 3.6324459e-41 279 233
-0.044254132 0.63099998 0.0077444729 3.6690198e-41 280 233
-0.043147776 0.63099998 0.0077444729 3.6330064e-41 281 233
-0.042041425 0.63099998 0.0077444729 3.7025108e-41 282 233
-0.040999945 0.63200003 0.0077567468 4.2427114e-41 283 233
-0.039891839 0.63200003 0.0077567468 7.7576962e-39 284 233
-0.038906466 0.634 0.0077812932 6.2825647e-39 285 233
-0.037914075 0.63599998 0.0078058392 3.737263e-41 286 233
-0.036856819 0.63700002 0.0078181131 3.6292229e-41 287 233
-0.035739947 0.63700002 0.0078181131 3.4878319e-41 288 233
-0.034677424 0.63800001 0.007830387 3.5597185e-41 289 233
-0.033663996 0.63999999 0.0078549329 3.5239854e-41 290 233
-0.032541864 0.63999999 0.0078549329 3.5599987e-41 291 233
-0.031517919 0.64200002 0.0078794798 4.9689903e-40 292 233
-0.030392278 0.64200002 0.0078794798 5.8909466e-40 293 233
-0.029312227 0.64300001 0.0078917528 1.1069156e-38 294 233
-0.028228667 0.64399999 0.0079040267 1.0331591e-38 295 233
-0.027225759 0.64700001 0.0079408465 9.8540723e-39 296 233
-0.02613168 0.648 0.0079531204 1.1697985e-38 297 233
-0.025034092 0.64899999 0.0079653924 1.3449332e-38 298 233
-0.024006641 0.65200001 0.0080022132 1.2803963e-38 299 233
-0.022898532 0.653 0.0080144862 1.2711411e-38 300 233
-0.021786919 0.65399998 0.0080267601 1.2342989e-38 301 233
-0.020640239 0.65399998 0.0080267601 1.2524146e-38 302 233
-0.019523365 0.65499997 0.008039033 1.2247919e-38 303 233
-0.018374931 0.65499997 0.008039033 1.2248287e-38 304 233
-0.0172791 0.65700001 0.0080635799 1.2340483e-38 305 233
-0.01612716 0.65700001 0.0080635799 1.2157185e-38 306 233
-0.015020805 0.65899998 0.0080881258 1.1972792e-38 307 233
-0.01390744 0.66100001 0.0081126727 1.1422512e-38 308 233
-0.012767773 0.662 0.0081249457 1.2713251e-38 309 233
-0.0116246 0.66299999 0.0081372196 1.3731368e-38 310 233
-0.010477919 0.66399997 0.0081494926 1.4191988e-38 311 233
-0.0093417596 0.66600001 0.0081740404 1.4191978e-38 312 233
-0.0081863133 0.667 0.0081863133 1.3454412e-38 313 233
-0.0070273597 0.66799998 0.0081985854 1.3177434e-38 314 233
-0.0058736666 0.67000002 0.0082231332 1.1886695e-38 315 233
-0.0046989331 0.67000002 0.0082231332 1.2893995e-38 316 233
-0.0035294599 0.671 0.0082354061 1.2893995e-38 317 233
-0.0023564799 0.67199999 0.00824768 1.2709247e-38 318 233
-0.0011834999 0.67500001 0.0082844999 1.2248269e-38 319 233
0 0.676 0.0082967728 1.0771687e-38 320 233
0.0011887599 0.67799997 0.0083213197 1.0218872e-38 321 233
0.0023775198 0.67799997 0.0083213197 1.2068563e-38 322 233
0.0035715401 0.67900002 0.0083335936 1.4189062e-38 323 233
0.0047690663 0.68000001 0.0083458666 1.4379239e-38 324 233
0.005978866 0.68199998 0.0083704125 1.4471436e-38 325 233
0.0071851597 0.68300003 0.0083826864 1.3553088e-38 326 233
0.0084195063 0.68599999 0.0084195063 1.3460893e-38 327 233
0.0096363192 0.68699998 0.0084317802 1.4286337e-38 328 233
0.010856641 0.68800002 0.0084440531 1.4747315e-38 329 233
0.012097999 0.69 0.0084686 1.46533e-38 330 233
0.013327086 0.69099998 0.008480873 1.3362561e-38 331 233
0.01460176 0.69400001 0.0085176928 1.2994459e-38 332 233
0.015864158 0.69599998 0.0085422397 1.2994459e-38 333 233
0.017109027 0.69700003 0.0085545136 1.1894546e-38 334 233
0.0183574 0.69800001 0.0085667865 1.1341374e-38 335 233
0.019637333 0.69999999 0.0085913334 9.2291535e-39 336 233
0.020894472 0.70099998 0.0086036054 8.3993914e-39 337 233
0.02218668 0.70300001 0.0086281532 6.4679943e-39 338 233
0.023452586 0.704 0.0086404262 6.0066561e-39 339 233
0.024757065 0.70599997 0.0086649731 3.3409183e-39 340 233
0.026068559 0.708 0.008689519 3.6175052e-39 341 233
0.027387066 0.70999998 0.0087140659 4.811745e-39 342 233
0.028672259 0.71100003 0.0087263398 4.996495e-39 343 233
0.030003037 0.713 0.0087508867 4.3529347e-39 344 233
0.031296998 0.71399999 0.0087631596 4.0767079e-39 345 233
0.032548878 0.71399999 0.0087631596 3.0654455e-39 346 233
0.03389544 0.71600002 0.0087877065 3.0654455e-39 347 233
0.035199918 0.71700001 0.0087999795 3.6175627e-39 348 233
0.036609601 0.72000003 0.0088367993 4.2629321e-39 349 233
0.038029801 0.72299999 0.0088736191 5.0912662e-39 350 233
0.039406165 0.72500002 0.0088981669 5.2756575e-39 351 233
0.040789545 0.727 0.0089227129 6.0103527e-39 352 233
0.042064216 0.727 0.0089227129 5.8259614e-39 353 233
0.043398503 0.72799999 0.0089349858 6.0085548e-39 354 233
0.044797666 0.73000002 0.0089595336 6.1007504e-39 355 233
0.046140719 0.73100001 0.0089718066 6.467361e-39 356 233
0.047422405 0.73100001 0.0089718066 7.1127304e-39 357 233
-0.087189756 0.67199999 0.0070694401 1.2444946e-38 246 234
-0.085883528 0.671 0.0070589199 1.1891772e-38 247 234
-0.084707037 0.671 0.0070589199 7.4786234e-39 248 234
-0.083406061 0.67000002 0.0070483997 3.5142113e-39 249 234
-0.081985861 0.66799998 0.0070273597 5.8700112e-40 250 234
-0.080814637 0.66799998 0.0070273597 3.1684788e-39 251 234
-0.079524182 0.667 0.0070168395 5.4615173e-39 252 234
-0.078237243 0.66600001 0.0070063197 5.2771247e-39 253 234
-0.076838076 0.66399997 0.0069852793 4.2690838e-39 254 234
-0.075559892 0.66299999 0.0069747595 4.9144532e-39 255 234
-0.074285224 0.662 0.0069642398 6.0157603e-39 256 234
-0.07312452 0.662 0.0069642398 5.7395321e-39 257 234
-0.071855105 0.66100001 0.00695372 4.9115805e-39 258 234
-0.070482239 0.65899998 0.0069326796 4.4509611e-39 259 234
-0.069116399 0.65700001 0.0069116396 2.7979194e-39 260 234
-0.067654118 0.65399998 0.0068800794 2.6135295e-39 261 234
-0.066405743 0.653 0.0068695596 2.8904653e-39 262 234
-0.064960994 0.64999998 0.0068379994 3.4436391e-39 263 234
-0.063723139 0.64899999 0.0068274797 4.2719523e-39 264 234
-0.062585227 0.64899999 0.0068274797 4.0879211e-39 265 234
-0.06135264 0.648 0.0068169599 3.2603241e-39 266 234
-0.060123552 0.64700001 0.0068064397 2.7993459e-39 267 234
-0.058715623 0.64399999 0.0067748795 3.7173365e-39 268 234
-0.057497058 0.64300001 0.0067643598 3.5329453e-39 269 234
-0.056282002 0.64200002 0.00675384 3.624771e-39 270 234
-0.054984529 0.63999999 0.0067327996 4.9155098e-39 271 234
-0.053694081 0.63800001 0.0067117601 6.843356e-39 272 234
-0.052493047 0.63700002 0.0067012399 5.7370098e-39 273 234
-0.051376175 0.63700002 0.0067012399 2.0614025e-39 274 234
-0.050180398 0.63599998 0.0066907196 4.0223992e-40 275 234
-0.049065277 0.63599998 0.0066907196 3.6320255e-41 276 234
-0.047648586 0.63200003 0.0066486401 3.5960121e-41 277 234
-0.04654048 0.63200003 0.0066486401 3.5961522e-41 278 234
-0.045432374 0.63200003 0.0066486401 3.6321656e-41 279 234
-0.044254132 0.63099998 0.0066381195 3.6321656e-41 280 234
-0.043147776 0.63099998 0.0066381195 3.668179e-41 281 234
-0.042108051 0.63200003 0.0066486401 3.5932095e-41 282 234
-0.040999945 0.63200003 0.0066486401 4.1334101e-41 283 234
-0.040081199 0.63499999 0.0066801999 7.4825372e-39 284 234
-0.038967833 0.63499999 0.0066801999 6.0070484e-39 285 234
-0.037914075 0.63599998 0.0066907196 3.6290828e-41 286 234
-0.036856819 0.63700002 0.0067012399 3.6650961e-41 287 234
-0.035796054 0.63800001 0.0067117601 3.487972e-41 288 234
-0.034677424 0.63800001 0.0067117601 3.487972e-41 289 234
-0.033663996 0.63999999 0.0067327996 3.1074214e-40 290 234
-0.03259271 0.64099997 0.0067433193 4.9549213e-40 291 234
-0.031517919 0.64200002 0.00675384 6.7983995e-40 292 234
-0.030439619 0.64300001 0.0067643598 7.7239431e-40 293 234
-0.029357811 0.64399999 0.0067748795 1.1162058e-38 294 234
-0.028316336 0.64600003 0.00679592 1.0516689e-38 295 234
-0.027225759 0.64700001 0.0068064397 1.1329205e-38 296 234
-0.02613168 0.648 0.0068169599 1.2619944e-38 297 234
-0.025034092 0.64899999 0.0068274797 1.2713213e-38 298 234
-0.024006641 0.65200001 0.0068590399 1.2160039e-38 299 234
-0.022898532 0.653 0.0068695596 1.2707092e-38 300 234
-0.021753605 0.653 0.0068695596 1.2430865e-38 301 234
-0.020640239 0.65399998 0.0068800794 1.2429435e-38 302 234
-0.019523365 0.65499997 0.0068905996 1.2245404e-38 303 234
-0.018374931 0.65499997 0.0068905996 1.2152852e-38 304 234
-0.0172791 0.65700001 0.0069116396 1.2429079e-38 305 234
-0.016176252 0.65899998 0.0069326796 1.2062821e-38 306 234
-0.015020805 0.65899998 0.0069326796 1.1417452e-38 307 234
-0.01392848 0.662 0.0069642398 8.9296203e-39 308 234
-0.012767773 0.662 0.0069642398 1.0588783e-38 309 234
-0.011642133 0.66399997 0.0069852793 1.1423583e-38 310 234
-0.010477919 0.66399997 0.0069852793 1.1700528e-38 311 234
-0.0093417596 0.66600001 0.0070063197 1.2345875e-38 312 234
-0.0081985854 0.66799998 0.0070273597 1.2530267e-38 313 234
-0.0070273597 0.66799998 0.0070273597 1.2528096e-38 314 234
-0.0058736666 0.67000002 0.0070483997 1.1790531e-38 315 234
-0.0047059464 0.671 0.0070589199 1.3259547e-38 316 234
-0.00353472 0.67199999 0.0070694401 1.3444297e-38 317 234
-0.0023669999 0.67500001 0.0071010003 1.336038e-38 318 234
-0.0011834999 0.67500001 0.0071010003 1.3175989e-38 319 234
0 0.676 0.0071115191 1.1879862e-38 320 234
0.0011887599 0.67799997 0.0071325595 1.151072e-38 321 234
0.0023775198 0.67799997 0.0071325595 1.3450794e-38 322 234
0.0035715401 0.67900002 0.0071430802 1.437311e-38 323 234
0.0047690663 0.68000001 0.0071535995 1.4101928e-38 324 234
0.005978866 0.68199998 0.00717464 1.4101928e-38 325 234
0.0071956799 0.68400002 0.0071956799 1.3642022e-38 326 234
0.0084317802 0.68699998 0.0072272392 1.345763e-38 327 234
0.0096363192 0.68699998 0.0072272392 1.3822817e-38 328 234
0.010888199 0.69 0.0072587994 1.3454393e-38 329 234
0.012097999 0.69 0.0072587994 1.2160755e-38 330 234
0.013327086 0.69099998 0.0072693196 1.0962571e-38 331 234
0.01460176 0.69400001 0.0073008798 1.161655e-38 332 234
0.015864158 0.69599998 0.0073219193 1.2446311e-38 333 234
0.017109027 0.69700003 0.00733244 7.6636382e-39 334 234
0.0183574 0.69800001 0.0073429602 5.4513033e-39 335 234
0.019637333 0.69999999 0.0073639993 3.6178303e-39 336 234
0.020894472 0.70099998 0.0073745195 3.8025803e-39 337 234
0.02218668 0.70300001 0.0073955595 3.3434351e-39 338 234
0.023452586 0.704 0.0074060797 3.6200234e-39 339 234
0.024757065 0.70599997 0.0074271196 5.1787325e-39 340 234
0.026068559 0.708 0.0074481601 5.6397106e-39 341 234
0.027387066 0.70999998 0.0074691991 5.2745182e-39 342 234
0.028752912 0.713 0.0075007593 5.0904871e-39 343 234
0.030003037 0.713 0.0075007593 4.1706944e-39 344 234
0.031296998 0.71399999 0.0075112795 3.7097177e-39 345 234
0.032548878 0.71399999 0.0075112795 2.9739715e-39 346 234
0.03389544 0.71600002 0.00753232 3.2505598e-39 347 234
0.035298105 0.71899998 0.0075638802 4.2607867e-39 348 234
0.03671129 0.722 0.0075954394 5.8281124e-39 349 234
0.038029801 0.72299999 0.0076059597 6.9312356e-39 350 234
0.039406165 0.72500002 0.0076270006 6.7468443e-39 351 234
0.040789545 0.727 0.0076480396 6.8393931e-39 352 234
0.042064216 0.727 0.0076480396 6.0092737e-39 353 234
0.043398503 0.72799999 0.0076585598 5.6408499e-39 354 234
0.044797666 0.73000002 0.0076795998 5.7330455e-39 355 234
0.046140719 0.73100001 0.00769012 5.5486389e-39 356 234
0.04755215 0.73299998 0.0077111595 6.3780394e-39 357 234
-0.086011514 0.67199999 0.0058911997 1.2628611e-38 247 235
-0.084833272 0.67199999 0.0058911997 9.1327427e-39 248 235
-0.083530545 0.671 0.0058824331 4.8913836e-39 249 235
-0.082231335 0.67000002 0.0058736666 3.3823141e-41 250 235
-0.081056595 0.67000002 0.0058736666 1.0515764e-39 251 235
-0.079643413 0.66799998 0.0058561331 3.626964e-39 252 235
-0.078354709 0.667 0.0058473665 3.8109951e-39 253 235
-0.076838076 0.66399997 0.0058210664 4.4534793e-39 254 235
-0.075559892 0.66299999 0.0058122999 4.5456749e-39 255 235
-0.074285224 0.662 0.0058035329 5.0952487e-39 256 235
-0.07312452 0.662 0.0058035329 4.7264662e-39 257 235
-0.071855105 0.66100001 0.0057947668 3.4404119e-39 258 235
-0.070482239 0.65899998 0.0057772328 3.3482163e-39 259 235
-0.069116399 0.65700001 0.0057596997 3.2581759e-39 260 235
-0.067964457 0.65700001 0.0057596997 3.2581759e-39 261 235
-0.066609129 0.65499997 0.0057421662 2.9837344e-39 262 235
-0.064960994 0.64999998 0.005698333 3.2603213e-39 263 235
-0.063723139 0.64899999 0.0056895665 4.2719523e-39 264 235
-0.062585227 0.64899999 0.0056895665 3.9957255e-39 265 235
-0.06135264 0.648 0.0056807999 3.0759328e-39 266 235
-0.060123552 0.64700001 0.0056720334 2.6149547e-39 267 235
-0.058897976 0.64600003 0.0056632664 3.9924717e-39 268 235
-0.057586476 0.64399999 0.0056457333 3.7162449e-39 269 235
-0.056282002 0.64200002 0.0056281998 3.3485414e-39 270 235
-0.055070441 0.64099997 0.0056194332 4.1779419e-39 271 235
-0.053862397 0.63999999 0.0056106662 4.455996e-39 272 235
-0.05257545 0.63800001 0.0055931332 4.5481916e-39 273 235
-0.051376175 0.63700002 0.0055843666 5.4650934e-39 274 235
-0.0502593 0.63700002 0.0055843666 4.4505828e-39 275 235
-0.049065277 0.63599998 0.0055755996 2.056704e-39 276 235
-0.047874767 0.63499999 0.0055668331 8.5816078e-40 277 235
-0.04654048 0.63200003 0.0055405335 3.6671981e-41 278 235
-0.045432374 0.63200003 0.0055405335 3.6671981e-41 279 235
-0.044324268 0.63200003 0.0055405335 3.6321656e-41 280 235
-0.043216161 0.63200003 0.0055405335 3.6321656e-41 281 235
-0.042108051 0.63200003 0.0055405335 3.6297834e-41 282 235
-0.040999945 0.63200003 0.0055405335 4.2061375e-41 283 235
-0.040081199 0.63499999 0.0055668331 7.8502422e-39 284 235
-0.038967833 0.63499999 0.0055668331 6.3751107e-39 285 235
-0.037914075 0.63599998 0.0055755996 3.5564955e-41 286 235
-0.036856819 0.63700002 0.0055843666 3.6286624e-41 287 235
-0.035796054 0.63800001 0.0055931332 3.5238452e-41 288 235
-0.034786131 0.63999999 0.0056106662 3.4878319e-41 289 235
-0.033716597 0.64099997 0.0056194332 3.559158e-41 290 235
-0.03259271 0.64099997 0.0056194332 3.6311847e-41 291 235
-0.031517919 0.64200002 0.0056281998 5.8871631e-40 292 235
-0.030439619 0.64300001 0.0056369668 5.8871631e-40 293 235
-0.029357811 0.64399999 0.0056457333 1.1437554e-38 294 235
-0.028316336 0.64600003 0.0056632664 1.0976577e-38 295 235
-0.027225759 0.64700001 0.0056720334 1.1605433e-38 296 235
-0.02613168 0.648 0.0056807999 1.2066772e-38 297 235
-0.025034092 0.64899999 0.0056895665 1.2250084e-38 298 235
-0.024006641 0.65200001 0.0057158666 1.1328126e-38 299 235
-0.022898532 0.653 0.0057246331 1.1602549e-38 300 235
-0.021753605 0.653 0.0057246331 1.1510354e-38 301 235
-0.020640239 0.65399998 0.0057333997 1.169296e-38 302 235
-0.019523365 0.65499997 0.0057421662 1.1416733e-38 303 235
-0.018374931 0.65499997 0.0057421662 1.1139436e-38 304 235
-0.0172791 0.65700001 0.0057596997 1.1324186e-38 305 235
-0.016176252 0.65899998 0.0057772328 1.1234505e-38 306 235
-0.015020805 0.65899998 0.0057772328 1.1050114e-38 307 235
-0.01392848 0.662 0.0058035329 1.0491901e-38 308 235
-0.012767773 0.662 0.0058035329 1.0215314e-38 309 235
-0.011642133 0.66399997 0.0058210664 9.8540849e-39 310 235
-0.010477919 0.66399997 0.0058210664 1.0315423e-38 311 235
-0.0093417596 0.66600001 0.0058385995 1.1239159e-38 312 235
-0.0081863133 0.667 0.0058473665 1.2529898e-38 313 235
-0.0070273597 0.66799998 0.0058561331 1.3079475e-38 314 235
-0.0058824331 0.671 0.0058824331 1.2618496e-38 315 235
-0.0047059464 0.671 0.0058824331 1.3076603e-38 316 235
-0.00354524 0.67400002 0.0059087332 1.3168799e-38 317 235
-0.0023669999 0.67500001 0.0059174998 1.3355708e-38 318 235
-0.0011834999 0.67500001 0.0059174998 1.4093632e-38 319 235
0 0.67799997 0.0059437994 1.3172765e-38 320 235
0.0011905134 0.67900002 0.0059525664 1.24352e-38 321 235
0.0023810267 0.67900002 0.0059525664 1.2346251e-38 322 235
0.0035767998 0.68000001 0.0059613334 1.363699e-38 323 235
0.004783093 0.68199998 0.005978866 1.4468189e-38 324 235
0.0059876335 0.68300003 0.0059876335 1.4283797e-38 325 235
0.0071956799 0.68400002 0.0059964 1.3730973e-38 326 235
0.0084317802 0.68699998 0.0060226996 1.3269997e-38 327 235
0.0096363192 0.68699998 0.0060226996 1.2992321e-38 328 235
0.010888199 0.69 0.0060489997 1.2346951e-38 329 235
0.012115533 0.69099998 0.0060577663 1.087467e-38 330 235
0.01336566 0.69300002 0.0060753003 1.004491e-38 331 235
0.014643839 0.69599998 0.0061015999 1.1338518e-38 332 235
0.015886955 0.69700003 0.0061103669 1.1799496e-38 333 235
0.017133573 0.69800001 0.006119133 6.2857681e-39 334 235
0.0183574 0.69800001 0.006119133 5.7325943e-39 335 235
0.019637333 0.69999999 0.0061366665 5.735481e-39 336 235
0.020894472 0.70099998 0.0061454331 6.0120679e-39 337 235
0.02218668 0.70300001 0.0061629666 6.652771e-39 338 235
0.023519212 0.70599997 0.0061892662 6.4683797e-39 339 235
0.024757065 0.70599997 0.0061892662 6.6513248e-39 340 235
0.026068559 0.708 0.0062067998 7.0201087e-39 341 235
0.027387066 0.70999998 0.0062243328 6.9289823e-39 342 235
0.028752912 0.713 0.0062506334 6.3761673e-39 343 235
0.030045118 0.71399999 0.0062593995 4.9968454e-39 344 235
0.031296998 0.71399999 0.0062593995 4.5358686e-39 345 235
0.032548878 0.71399999 0.0062593995 3.3416764e-39 346 235
0.03403746 0.71899998 0.0063032326 3.5260677e-39 347 235
0.035347197 0.72000003 0.0063120001 4.4437458e-39 348 235
0.03671129 0.722 0.0063295332 4.9050841e-39 349 235
0.038029801 0.72299999 0.0063382997 4.3537236e-39 350 235
0.039406165 0.72500002 0.0063558333 4.8147018e-39 351 235
0.040789545 0.727 0.0063733663 5.5501032e-39 352 235
0.042122077 0.72799999 0.0063821329 4.074613e-39 353 235
0.043398503 0.72799999 0.0063821329 3.5271817e-39 354 235
0.044859033 0.73100001 0.006408433 4.4494968e-39 355 235
0.046266954 0.73299998 0.0064259665 6.3758716e-39 356 235
0.047617026 0.73400003 0.006434733 7.021241e-39 357 235
-0.086395502 0.67500001 0.0047339997 1.2814807e-38 247 236
-0.085085757 0.67400002 0.0047269869 1.023766e-38 248 236
-0.083655037 0.67199999 0.0047129598 5.535681e-39 249 236
-0.082354069 0.671 0.0047059464 3.2374198e-41 250 236
-0.081177577 0.671 0.0047059464 3.4895134e-41 251 236
-0.079881869 0.67000002 0.0046989331 1.6951465e-39 252 236
-0.078472182 0.66799998 0.0046849065 3.1702766e-39 253 236
-0.077185236 0.667 0.0046778931 5.7395293e-39 254 236
-0.075901799 0.66600001 0.0046708798 5.2781911e-39 255 236
-0.074285224 0.662 0.0046428265 4.7271879e-39 256 236
-0.07312452 0.662 0.0046428265 4.2662111e-39 257 236
-0.071855105 0.66100001 0.0046358132 2.8897493e-39 258 236
-0.070696153 0.66100001 0.0046358132 3.165976e-39 259 236
-0.069326796 0.65899998 0.0046217865 4.1768826e-39 260 236
-0.067964457 0.65700001 0.0046077599 4.2694369e-39 261 236
-0.066812515 0.65700001 0.0046077599 3.8109741e-39 262 236
-0.065360755 0.65399998 0.0045867199 3.8109741e-39 263 236
-0.063821331 0.64999998 0.0045586661 2.9848162e-39 264 236
-0.062585227 0.64899999 0.0045516533 2.7078692e-39 265 236
-0.06135264 0.648 0.00454464 3.2596024e-39 266 236
-0.060216483 0.648 0.00454464 3.4439923e-39 267 236
-0.058897976 0.64600003 0.0045306133 4.2697872e-39 268 236
-0.057765324 0.64600003 0.0045306133 4.6385712e-39 269 236
-0.056369666 0.64300001 0.0045095733 4.36235e-39 270 236
-0.055070441 0.64099997 0.0044955462 3.8091762e-39 271 236
-0.053946555 0.64099997 0.0044955462 2.432727e-39 272 236
-0.05257545 0.63800001 0.0044745067 3.0780964e-39 273 236
-0.051456824 0.63800001 0.0044745067 5.4672584e-39 274 236
-0.0502593 0.63700002 0.0044674934 5.3750628e-39 275 236
-0.049065277 0.63599998 0.0044604796 2.7913992e-39 276 236
-0.047950156 0.63599998 0.0044604796 1.1318764e-39 277 236
-0.046687759 0.634 0.0044464534 3.5948911e-41 278 236
-0.045432374 0.63200003 0.0044324268 3.5948911e-41 279 236
-0.044324268 0.63200003 0.0044324268 3.703772e-41 280 236
-0.043216161 0.63200003 0.0044324268 3.6677586e-41 281 236
-0.042108051 0.63200003 0.0044324268 3.5210427e-41 282 236
-0.040999945 0.63200003 0.0044324268 4.0612432e-41 283 236
-0.040081199 0.63499999 0.0044534663 7.7583954e-39 284 236
-0.038967833 0.63499999 0.0044534663 6.4676566e-39 285 236
-0.037914075 0.63599998 0.0044604796 3.5919484e-41 286 236
-0.036856819 0.63700002 0.0044674934 3.6999885e-41 287 236
-0.035796054 0.63800001 0.0044745067 3.4874115e-41 288 236
-0.034786131 0.63999999 0.0044885329 3.4513981e-41 289 236
-0.033716597 0.64099997 0.0044955462 3.5231446e-41 290 236
-0.03264356 0.64200002 0.00450256 1.2778581e-40 291 236
-0.031567011 0.64300001 0.0045095733 4.0432926e-40 292 236
-0.03048696 0.64399999 0.0045165867 6.8091475e-40 293 236
-0.029448988 0.64600003 0.0045306133 1.1529043e-38 294 236
-0.028360168 0.64700001 0.0045376266 1.0975871e-38 295 236
-0.02726784 0.648 0.00454464 9.9505896e-39 296 236
-0.026172007 0.64899999 0.0045516533 1.0134622e-38 297 236
-0.025072664 0.64999998 0.0045586661 1.077353e-38 298 236
-0.024006641 0.65200001 0.0045726933 1.0035965e-38 299 236
-0.022898532 0.653 0.0045797066 1.0404022e-38 300 236
-0.021753605 0.653 0.0045797066 1.0680969e-38 301 236
-0.020640239 0.65399998 0.0045867199 1.1140145e-38 302 236
-0.019523365 0.65499997 0.0045937328 1.0955395e-38 303 236
-0.018374931 0.65499997 0.0045937328 1.0398999e-38 304 236
-0.017331699 0.65899998 0.0046217865 1.0491554e-38 305 236
-0.016176252 0.65899998 0.0046217865 1.0405118e-38 306 236
-0.015066394 0.66100001 0.0046358132 1.0497672e-38 307 236
-0.01392848 0.662 0.0046428265 1.076958e-38 308 236
-0.012787059 0.66299999 0.0046498398 1.0216406e-38 309 236
-0.011642133 0.66399997 0.0046568532 9.297328e-39 310 236
-0.010477919 0.66399997 0.0046568532 9.9426975e-39 311 236
-0.0093417596 0.66600001 0.0046708798 1.1144092e-38 312 236
-0.0081863133 0.667 0.0046778931 1.3080201e-38 313 236
-0.0070273597 0.66799998 0.0046849065 1.2988355e-38 314 236
-0.0058736666 0.67000002 0.0046989331 1.2619213e-38 315 236
-0.0047129598 0.67199999 0.0047129598 1.3075885e-38 316 236
-0.00354524 0.67400002 0.0047269869 1.316808e-38 317 236
-0.0023669999 0.67500001 0.0047339997 1.3262797e-38 318 236
-0.0011852533 0.676 0.0047410131 1.3908166e-38 319 236
0 0.67900002 0.0047620535 1.3450428e-38 320 236
0.0011905134 0.67900002 0.0047620535 1.2528111e-38 321 236
0.0023845332 0.68000001 0.0047690663 1.16998e-38 322 236
0.00358732 0.68199998 0.004783093 1.317493e-38 323 236
0.0047901068 0.68300003 0.0047901068 1.4190877e-38 324 236
0.0059876335 0.68300003 0.0047901068 1.3637703e-38 325 236
0.0071956799 0.68400002 0.0047971201 1.3360027e-38 326 236
0.0084317802 0.68699998 0.0048181596 1.2530267e-38 327 236
0.0096363192 0.68699998 0.0048181596 1.1884882e-38 328 236
0.010888199 0.69 0.0048391996 1.0594143e-38 329 236
0.012115533 0.69099998 0.0048462129 1.0322571e-38 330 236
0.01336566 0.69300002 0.00486024 1.1705506e-38 331 236
0.014643839 0.69599998 0.0048812795 1.0604916e-38 332 236
0.015886955 0.69700003 0.0048882933 9.3141773e-39 333 236
0.017133573 0.69800001 0.0048953067 6.4708656e-39 334 236
0.018409999 0.69999999 0.0049093333 6.7470924e-39 335 236
0.019665385 0.70099998 0.0049163462 6.4730306e-39 336 236
0.020894472 0.70099998 0.0049163462 6.8418117e-39 337 236
0.02218668 0.70300001 0.0049303733 7.2062923e-39 338 236
0.023519212 0.70599997 0.0049514128 6.7456728e-39 339 236
0.024757065 0.70599997 0.0049514128 7.0211835e-39 340 236
0.026142199 0.70999998 0.0049794666 7.1133792e-39 341 236
0.027425639 0.71100003 0.0049864799 6.5620075e-39 342 236
0.028752912 0.713 0.0050005065 6.0084735e-39 343 236
0.030045118 0.71399999 0.0050075199 4.9042938e-39 344 236
0.031296998 0.71399999 0.0050075199 4.628067e-39 345 236
0.032640055 0.71600002 0.0050215465 3.8012127e-39 346 236
0.03403746 0.71899998 0.0050425865 3.8934083e-39 347 236
0.035347197 0.72000003 0.0050496003 4.2600678e-39 348 236
0.03671129 0.722 0.0050636264 4.2600678e-39 349 236
0.038029801 0.72299999 0.0050706398 2.6959974e-39 350 236
0.039406165 0.72500002 0.0050846669 2.4190517e-39 351 236
0.040789545 0.727 0.0050986931 1.5928868e-39 352 236
0.042122077 0.72799999 0.0051057064 1.31666e-39 353 236
0.043517731 0.73000002 0.0051197335 2.9765149e-39 354 236
0.044981763 0.73299998 0.005140773 4.4512848e-39 355 236
0.046330083 0.73400003 0.0051477868 7.3867809e-39 356 236
0.047617026 0.73400003 0.0051477868 8.0321503e-39 357 236
-0.08796823 0.67799997 0.0035662798 1.2445667e-38 246 237
-0.086395502 0.67500001 0.0035505001 1.2998482e-38 247 237
-0.085212 0.67500001 0.0035505001 1.0514242e-38 248 237
-0.083655037 0.67199999 0.00353472 5.8126253e-39 249 237
-0.082476802 0.67199999 0.00353472 3.3084657e-41 250 237
-0.081177577 0.671 0.0035294599 3.3804924e-41 251 237
-0.080001086 0.671 0.0035294599 2.7957334e-39 252 237
-0.078707129 0.67000002 0.0035241998 4.454896e-39 253 237
-0.077185236 0.667 0.0035084197 6.1072371e-39 254 237
-0.075901799 0.66600001 0.0035031599 5.277475e-39 255 237
-0.074397437 0.66299999 0.0034873798 3.9003055e-39 256 237
-0.073234983 0.66299999 0.0034873798 4.2687279e-39 257 237
-0.071963809 0.662 0.0034821199 4.3623528e-39 258 237
-0.070696153 0.66100001 0.00347686 4.3623528e-39 259 237
-0.069326796 0.65899998 0.0034663398 4.912284e-39 260 237
-0.068067901 0.65799999 0.0034610799 4.7278913e-39 261 237
-0.066812515 0.65700001 0.0034558198 3.8102608e-39 262 237
-0.065460697 0.65499997 0.0034452998 3.8102608e-39 263 237
-0.064214081 0.65399998 0.0034400397 4.6396614e-39 264 237
-0.062681668 0.64999998 0.0034189997 4.4556303e-39 265 237
-0.061447315 0.64899999 0.0034137398 3.9053249e-39 266 237
-0.060216483 0.648 0.00340848 3.8131293e-39 267 237
-0.058989145 0.64700001 0.0034032199 4.1783175e-39 268 237
-0.057765324 0.64600003 0.00339796 4.36235e-39 269 237
-0.056457333 0.64399999 0.0033874398 4.4545485e-39 270 237
-0.055156358 0.64200002 0.00337692 4.3623528e-39 271 237
-0.053946555 0.64099997 0.0033716597 3.7205777e-39 272 237
-0.052740265 0.63999999 0.0033663998 3.6283807e-39 273 237
-0.051456824 0.63800001 0.00335588 5.555501e-39 274 237
-0.0502593 0.63700002 0.0033506199 5.1870786e-39 275 237
-0.049142428 0.63700002 0.0033506199 1.1401721e-39 276 237
-0.047950156 0.63599998 0.0033453598 3.2022473e-41 277 237
-0.046761397 0.63499999 0.0033400999 3.595872e-41 278 237
-0.045432374 0.63200003 0.0033243201 3.6318854e-41 279 237
-0.044324268 0.63200003 0.0033243201 3.703772e-41 280 237
-0.043216161 0.63200003 0.0033243201 3.703772e-41 281 237
-0.042108051 0.63200003 0.0033243201 3.5213229e-41 282 237
-0.040999945 0.63200003 0.0033243201 3.9534834e-41 283 237
-0.040081199 0.63499999 0.0033400999 7.2977746e-39 284 237
-0.039029196 0.63599998 0.0033453598 6.3754582e-39 285 237
-0.037973695 0.63700002 0.0033506199 3.1143018e-40 286 237
-0.036856819 0.63700002 0.0033506199 2.1923455e-40 287 237
-0.035908263 0.63999999 0.0033663998 3.4158051e-41 288 237
-0.034840483 0.64099997 0.0033716597 3.4158051e-41 289 237
-0.033716597 0.64099997 0.0033716597 3.4871312e-41 290 237
-0.03264356 0.64200002 0.00337692 1.2778581e-40 291 237
-0.031714294 0.64600003 0.00339796 2.1959048e-40 292 237
-0.030581642 0.64600003 0.00339796 3.1178611e-40 293 237
-0.029448988 0.64600003 0.00339796 1.1437217e-38 294 237
-0.028360168 0.64700001 0.0034032199 1.0976239e-38 295 237
-0.02726784 0.648 0.00340848 8.0202337e-39 296 237
-0.026172007 0.64899999 0.0034137398 7.0064419e-39 297 237
-0.025072664 0.64999998 0.0034189997 8.8359926e-39 298 237
-0.024006641 0.65200001 0.0034295199 8.006592e-39 299 237
-0.022898532 0.653 0.0034347798 8.928191e-39 300 237
-0.021753605 0.653 0.0034347798 1.0587714e-38 301 237
-0.020640239 0.65399998 0.0034400397 1.0682053e-38 302 237
-0.019523365 0.65499997 0.0034452998 1.0221077e-38 303 237
-0.018374931 0.65499997 0.0034452998 1.0491201e-38 304 237
-0.017331699 0.65899998 0.0034663398 1.0030224e-38 305 237
-0.016176252 0.65899998 0.0034663398 9.9401947e-39 306 237
-0.015066394 0.66100001 0.00347686 9.9401947e-39 307 237
-0.013949519 0.66299999 0.0034873798 9.6628862e-39 308 237
-0.012806346 0.66399997 0.0034926396 9.7550818e-39 309 237
-0.011677199 0.66600001 0.0035031599 1.0861778e-38 310 237
-0.01050948 0.66600001 0.0035031599 1.1783736e-38 311 237
-0.0093557863 0.667 0.0035084197 1.1971705e-38 312 237
-0.0081985854 0.66799998 0.0035136798 1.353867e-38 313 237
-0.0070483997 0.67000002 0.0035241998 1.2712494e-38 314 237
-0.0058736666 0.67000002 0.0035241998 1.2343352e-38 315 237
-0.0047269869 0.67400002 0.00354524 1.2800737e-38 316 237
-0.0035505001 0.67500001 0.0035505001 1.2893291e-38 317 237
-0.0023705065 0.676 0.0035557596 1.3078766e-38 318 237
-0.0011887599 0.67799997 0.0035662798 1.3447907e-38 319 237
0 0.67900002 0.0035715401 1.2988368e-38 320 237
0.0011922666 0.68000001 0.0035767998 1.3080922e-38 321 237
0.0023845332 0.68000001 0.0035767998 1.317528e-38 322 237
0.00358732 0.68199998 0.00358732 1.3728454e-38 323 237
0.0047971201 0.68400002 0.00359784 1.3730605e-38 324 237
0.0059964 0.68400002 0.00359784 1.2900844e-38 325 237
0.0072167199 0.68599999 0.00360836 1.3265667e-38 326 237
0.0084440531 0.68800002 0.0036188802 1.2067125e-38 327 237
0.0096783992 0.69 0.0036293997 1.1879857e-38 328 237
0.01090398 0.69099998 0.0036346598 1.2340833e-38 329 237
0.012150601 0.69300002 0.0036451798 1.1796275e-38 330 237
0.013384946 0.69400001 0.0036504399 1.188847e-38 331 237
0.01466488 0.69700003 0.00366622 8.585247e-39 332 237
0.015909746 0.69800001 0.0036714801 8.1242703e-39 333 237
0.017182667 0.69999999 0.0036819996 7.9434705e-39 334 237
0.018409999 0.69999999 0.0036819996 7.6668851e-39 335 237
0.019665385 0.70099998 0.0036872597 6.8417963e-39 336 237
0.020954086 0.70300001 0.0036977797 6.6570449e-39 337 237
0.022218239 0.704 0.0037030398 6.4712313e-39 338 237
0.023519212 0.70599997 0.0037135598 6.2868401e-39 339 237
0.024792133 0.70700002 0.0037188199 6.0095497e-39 340 237
0.026179021 0.71100003 0.0037398601 6.1021055e-39 341 237
0.027425639 0.71100003 0.0037398601 5.9180758e-39 342 237
0.028793238 0.71399999 0.0037556398 5.6414903e-39 343 237
0.030045118 0.71399999 0.0037556398 5.2752245e-39 344 237
0.031296998 0.71399999 0.0037556398 4.9989977e-39 345 237
0.032640055 0.71600002 0.00376616 4.2628929e-39 346 237
0.034084801 0.72000003 0.0037872 4.1706972e-39 347 237
0.035347197 0.72000003 0.0037872 4.4437262e-39 348 237
0.03671129 0.722 0.0037977197 4.3515306e-39 349 237
0.038029801 0.72299999 0.0038029798 2.9718584e-39 350 237
0.039406165 0.72500002 0.0038135003 2.418686e-39 351 237
0.040789545 0.727 0.0038240198 2.3282882e-39 352 237
0.0422378 0.73000002 0.0038397999 3.0658533e-39 353 237
0.043577347 0.73100001 0.00384506 4.8143038e-39 354 237
0.044981763 0.73299998 0.0038555798 5.5518702e-39 355 237
0.046266954 0.73299998 0.0038555798 7.8455912e-39 356 237
0.047617026 0.73400003 0.0038608401 8.4909607e-39 357 237
-0.08796823 0.67799997 0.0023775198 1.2445662e-38 246 238
-0.086523488 0.676 0.0023705065 1.2722609e-38 247 238
-0.085338242 0.676 0.0023705065 1.0604979e-38 248 238
-0.084028497 0.67500001 0.0023669999 6.1795903e-39 249 238
