# .PCD v.7 - Point Cloud Data file format
FIELDS x y z rgb imX imY
SIZE 4 4 4 4 4 4
TYPE F F F F F F
COUNT 1 1 1 1 1 1
WIDTH 834
HEIGHT 1
VIEWPOINT 0 0 0 1 0 0 0
POINTS 834
DATA ascii
-0.034856264 0.70999998 -0.028631933 1.438176e-38 292 263
-0.033516716 0.708 -0.02855128 1.438176e-38 293 263
-0.03227536 0.708 -0.02855128 1.3457262e-38 294 263
-0.031034 0.708 -0.02855128 1.3457262e-38 295 263
-0.029750559 0.70700002 -0.028510952 1.3921811e-38 296 263
-0.028389972 0.704 -0.028389972 1.2815463e-38 297 263
-0.027155625 0.704 -0.028389972 1.1252806e-38 298 263
-0.025884461 0.70300001 -0.028349647 1.1252806e-38 299 263
-0.024651866 0.70300001 -0.028349647 1.1069491e-38 300 263
-0.023319334 0.69999999 -0.028228667 1.0977296e-38 301 263
-0.02202888 0.69800001 -0.028148014 1.1159536e-38 302 263
-0.020805053 0.69800001 -0.028148014 1.1159536e-38 303 263
-0.019581227 0.69800001 -0.028148014 1.0883674e-38 304 263
-0.0183574 0.69800001 -0.028148014 1.0975871e-38 305 263
-0.017133573 0.69800001 -0.028148014 1.07922e-38 306 263
-0.015886955 0.69700003 -0.028107686 1.07922e-38 307 263
-0.01466488 0.69700003 -0.028107686 1.0700004e-38 308 263
-0.013442807 0.69700003 -0.028107686 1.0700004e-38 309 263
-0.0122032 0.69599998 -0.028067358 1.0515617e-38 310 263
-0.010982879 0.69599998 -0.028067358 1.0515617e-38 311 263
-0.0097345067 0.69400001 -0.027986705 1.0423772e-38 312 263
-0.0085176928 0.69400001 -0.027986705 1.1806706e-38 313 263
-0.0073008798 0.69400001 -0.027986705 1.1899663e-38 314 263
-0.0060840664 0.69400001 -0.027986705 9.5025748e-39 315 263
-0.0048672534 0.69400001 -0.027986705 9.7835576e-39 316 263
-0.0036504399 0.69400001 -0.027986705 1.1996254e-38 317 263
-0.0024336267 0.69400001 -0.027986705 1.1902999e-38 318 263
-0.0012168133 0.69400001 -0.027986705 1.1902999e-38 319 263
0 0.69400001 -0.027986705 1.1442377e-38 320 263
0.0012203199 0.69599998 -0.028067358 1.0797007e-38 321 263
0.0024406398 0.69599998 -0.028067358 1.0887758e-38 322 263
0.00366622 0.69700003 -0.028107686 1.1533128e-38 323 263
0.0048882933 0.69700003 -0.028107686 1.1809355e-38 324 263
0.0061103669 0.69700003 -0.028107686 1.1901909e-38 325 263
0.00733244 0.69700003 -0.028107686 1.2084853e-38 326 263
0.0085667865 0.69800001 -0.028148014 1.171607e-38 327 263
0.0097906133 0.69800001 -0.028148014 1.1807174e-38 328 263
0.01101444 0.69800001 -0.028148014 1.1622783e-38 329 263
0.012273333 0.69999999 -0.028228667 1.1897558e-38 330 263
0.013500666 0.69999999 -0.028228667 1.1805003e-38 331 263
0.014749039 0.70099998 -0.028268991 1.1988656e-38 332 263
0.016023712 0.70300001 -0.028349647 1.1804265e-38 333 263
0.017280852 0.704 -0.028389972 1.1987195e-38 334 263
0.018567799 0.70599997 -0.028470624 1.1525856e-38 335 263
0.019833706 0.70700002 -0.028510952 1.2164743e-38 336 263
0.021103119 0.708 -0.02855128 1.1242787e-38 337 263
0.022407599 0.70999998 -0.028631933 1.1881322e-38 338 263
0.023685781 0.71100003 -0.028672259 1.0959366e-38 339 263
0.025107734 0.71600002 -0.028873893 1.114774e-38 340 263
0.026363119 0.71600002 -0.028873893 1.6772032e-38 341 263
0.027657079 0.71700001 -0.028914221 1.7147311e-38 342 263
0.028914221 0.71700001 -0.028914221 1.7608649e-38 343 263
-0.040004052 0.713 -0.030003037 1.8069988e-38 288 264
-0.038590867 0.70999998 -0.029876797 1.7885955e-38 289 264
-0.037345998 0.70999998 -0.029876797 1.5305534e-38 290 264
-0.036101133 0.70999998 -0.029876797 1.3185034e-38 291 264
-0.034856264 0.70999998 -0.029876797 1.3462315e-38 292 264
-0.033611398 0.70999998 -0.029876797 1.3554511e-38 293 264
-0.03227536 0.708 -0.02979264 1.3090628e-38 294 264
-0.031034 0.708 -0.02979264 1.2721845e-38 295 264
-0.029750559 0.70700002 -0.029750559 1.3644501e-38 296 264
-0.028470624 0.70599997 -0.029708479 1.2722904e-38 297 264
-0.027155625 0.704 -0.029624319 1.1160255e-38 298 264
-0.02592128 0.704 -0.029624319 1.1252809e-38 299 264
-0.024651866 0.70300001 -0.029582238 1.0977299e-38 300 264
-0.023352645 0.70099998 -0.029498078 1.0977299e-38 301 264
-0.02202888 0.69800001 -0.029371841 1.1160608e-38 302 264
-0.020805053 0.69800001 -0.029371841 1.0976577e-38 303 264
-0.019581227 0.69800001 -0.029371841 1.0792903e-38 304 264
-0.0183574 0.69800001 -0.029371841 1.0792903e-38 305 264
-0.017133573 0.69800001 -0.029371841 1.088403e-38 306 264
-0.015909746 0.69800001 -0.029371841 1.088403e-38 307 264
-0.01468592 0.69800001 -0.029371841 1.0700001e-38 308 264
-0.013462093 0.69800001 -0.029371841 1.0700001e-38 309 264
-0.012220734 0.69700003 -0.02932976 1.0333021e-38 310 264
-0.01099866 0.69700003 -0.02932976 1.0333021e-38 311 264
-0.0097625591 0.69599998 -0.029287677 1.0976943e-38 312 264
-0.0085422397 0.69599998 -0.029287677 1.1991093e-38 313 264
-0.0073219193 0.69599998 -0.029287677 1.1900384e-38 314 264
-0.0061015999 0.69599998 -0.029287677 9.3189066e-39 315 264
-0.0048812795 0.69599998 -0.029287677 9.8750344e-39 316 264
-0.0036504399 0.69400001 -0.029203519 1.2271762e-38 317 264
-0.0024336267 0.69400001 -0.029203519 1.2178866e-38 318 264
-0.0012168133 0.69400001 -0.029203519 1.208667e-38 319 264
0 0.69599998 -0.029287677 1.1718241e-38 320 264
0.0012203199 0.69599998 -0.029287677 1.1072871e-38 321 264
0.0024406398 0.69599998 -0.029287677 1.1071427e-38 322 264
0.00366622 0.69700003 -0.02932976 1.162424e-38 323 264
0.0048882933 0.69700003 -0.02932976 1.1625677e-38 324 264
0.0061103669 0.69700003 -0.02932976 1.1625677e-38 325 264
0.00733244 0.69700003 -0.02932976 1.2175599e-38 326 264
0.0085667865 0.69800001 -0.029371841 1.1807177e-38 327 264
0.0097906133 0.69800001 -0.029371841 1.1897552e-38 328 264
0.01101444 0.69800001 -0.029371841 1.152877e-38 329 264
0.012273333 0.69999999 -0.029455997 1.1529473e-38 330 264
0.013519952 0.70099998 -0.029498078 1.1621669e-38 331 264
0.014812159 0.704 -0.029624319 1.1987911e-38 332 264
0.016046507 0.704 -0.029624319 1.180352e-38 333 264
0.017280852 0.704 -0.029624319 1.2169413e-38 334 264
0.018567799 0.70599997 -0.029708479 1.1708434e-38 335 264
0.019833706 0.70700002 -0.029750559 1.1978191e-38 336 264
0.021103119 0.708 -0.02979264 1.1609049e-38 337 264
0.022439159 0.71100003 -0.029918881 1.1974241e-38 338 264
0.023685781 0.71100003 -0.029918881 1.0683502e-38 339 264
0.025107734 0.71600002 -0.03012928 1.1420011e-38 340 264
0.026363119 0.71600002 -0.03012928 1.7412727e-38 341 264
0.027657079 0.71700001 -0.030171359 1.7239504e-38 342 264
-0.040004052 0.713 -0.031253166 1.7978874e-38 288 265
-0.038753927 0.713 -0.031253166 1.7886678e-38 289 265
-0.037398599 0.71100003 -0.031165501 1.585727e-38 290 265
-0.036101133 0.70999998 -0.031121666 1.3368347e-38 291 265
-0.034856264 0.70999998 -0.031121666 1.2542867e-38 292 265
-0.033611398 0.70999998 -0.031121666 1.2911291e-38 293 265
-0.032366529 0.70999998 -0.031121666 1.2999511e-38 294 265
-0.031034 0.708 -0.031034 1.2538173e-38 295 265
-0.029750559 0.70700002 -0.030990168 1.2815819e-38 296 265
-0.028470624 0.70599997 -0.030946331 1.217045e-38 297 265
-0.027155625 0.704 -0.030858666 1.1435034e-38 298 265
-0.02592128 0.704 -0.030858666 1.152723e-38 299 265
-0.024651866 0.70300001 -0.030814834 1.1160608e-38 300 265
-0.023352645 0.70099998 -0.030727165 1.1160608e-38 301 265
-0.022091998 0.69999999 -0.030683333 1.0702138e-38 302 265
-0.020805053 0.69800001 -0.030595668 1.0702138e-38 303 265
-0.019581227 0.69800001 -0.030595668 1.0792179e-38 304 265
-0.0183574 0.69800001 -0.030595668 1.0792179e-38 305 265
-0.017133573 0.69800001 -0.030595668 1.0700354e-38 306 265
-0.015909746 0.69800001 -0.030595668 1.079255e-38 307 265
-0.01468592 0.69800001 -0.030595668 1.0516686e-38 308 265
-0.013462093 0.69800001 -0.030595668 1.0516686e-38 309 265
-0.012238266 0.69800001 -0.030595668 1.0609249e-38 310 265
-0.01099866 0.69700003 -0.030551834 1.1070586e-38 311 265
-0.0097765867 0.69700003 -0.030551834 1.1346804e-38 312 265
-0.0085545136 0.69700003 -0.030551834 1.1807422e-38 313 265
-0.00733244 0.69700003 -0.030551834 1.1900019e-38 314 265
-0.0061103669 0.69700003 -0.030551834 9.502572e-39 315 265
-0.0048882933 0.69700003 -0.030551834 1.0150539e-38 316 265
-0.0036609597 0.69599998 -0.030507999 1.2547626e-38 317 265
-0.0024406398 0.69599998 -0.030507999 1.2177791e-38 318 265
-0.0012203199 0.69599998 -0.030507999 1.2177791e-38 319 265
0 0.69700003 -0.030551834 1.1810439e-38 320 265
0.0012220733 0.69700003 -0.030551834 1.1533494e-38 321 265
0.0024441467 0.69700003 -0.030551834 1.1623877e-38 322 265
0.00366622 0.69700003 -0.030551834 1.1992301e-38 323 265
0.0048953067 0.69800001 -0.030595668 1.1808622e-38 324 265
0.006119133 0.69800001 -0.030595668 1.1808622e-38 325 265
0.0073429602 0.69800001 -0.030595668 1.1899723e-38 326 265
0.0085667865 0.69800001 -0.030595668 1.1622777e-38 327 265
0.0097906133 0.69800001 -0.030595668 1.0332728e-38 328 265
0.011045999 0.69999999 -0.030683333 7.7512502e-39 329 265
0.012273333 0.69999999 -0.030683333 9.1384811e-39 330 265
0.013519952 0.70099998 -0.030727165 1.042922e-38 331 265
0.014812159 0.704 -0.030858666 1.2169043e-38 332 265
0.016046507 0.704 -0.030858666 1.1708066e-38 333 265
0.017329946 0.70599997 -0.030946331 1.234982e-38 334 265
0.018594101 0.70700002 -0.030990168 1.2165427e-38 335 265
0.01986176 0.708 -0.031034 1.2159336e-38 336 265
0.021162732 0.70999998 -0.031121666 1.1882748e-38 337 265
0.022439159 0.71100003 -0.031165501 1.1973888e-38 338 265
0.023685781 0.71100003 -0.031165501 1.0960095e-38 339 265
0.025107734 0.71600002 -0.031384666 1.1880989e-38 340 265
0.026363119 0.71600002 -0.031384666 1.7505281e-38 341 265
-0.040004052 0.713 -0.032503292 1.8162539e-38 288 266
-0.038753927 0.713 -0.032503292 1.7885952e-38 289 266
-0.037503798 0.713 -0.032503292 1.5673589e-38 290 266
-0.036151983 0.71100003 -0.032412119 1.3553088e-38 291 266
-0.034905359 0.71100003 -0.032412119 1.3554498e-38 292 266
-0.033611398 0.70999998 -0.032366529 1.3554498e-38 293 266
-0.032366529 0.70999998 -0.032366529 1.3458681e-38 294 266
-0.031034 0.708 -0.03227536 1.2537084e-38 295 266
-0.02979264 0.708 -0.03227536 1.2997318e-38 296 266
-0.028470624 0.70599997 -0.032184184 1.253634e-38 297 266
-0.027232772 0.70599997 -0.032184184 1.15265e-38 298 266
-0.02592128 0.704 -0.032093015 1.1618697e-38 299 266
-0.024651866 0.70300001 -0.032047424 1.1436103e-38 300 266
-0.023419274 0.70300001 -0.032047424 1.1436103e-38 301 266
-0.022123558 0.70099998 -0.031956252 1.1252788e-38 302 266
-0.020864666 0.69999999 -0.031910665 1.1160593e-38 303 266
-0.019637333 0.69999999 -0.031910665 1.0884733e-38 304 266
-0.018409999 0.69999999 -0.031910665 1.0792179e-38 305 266
-0.017133573 0.69800001 -0.031819493 1.0516686e-38 306 266
-0.015909746 0.69800001 -0.031819493 1.0608882e-38 307 266
-0.01468592 0.69800001 -0.031819493 1.0333377e-38 308 266
-0.013462093 0.69800001 -0.031819493 1.0333377e-38 309 266
-0.012238266 0.69800001 -0.031819493 1.0150425e-38 310 266
-0.01101444 0.69800001 -0.031819493 1.0611403e-38 311 266
-0.0097765867 0.69700003 -0.03177391 1.1899974e-38 312 266
-0.0085545136 0.69700003 -0.03177391 1.2084366e-38 313 266
-0.00733244 0.69700003 -0.03177391 1.1715269e-38 314 266
-0.0061103669 0.69700003 -0.03177391 9.502572e-39 315 266
-0.0048882933 0.69700003 -0.03177391 1.0150539e-38 316 266
-0.00366622 0.69700003 -0.03177391 1.2363595e-38 317 266
-0.0024441467 0.69700003 -0.03177391 1.217851e-38 318 266
-0.0012220733 0.69700003 -0.03177391 1.1902282e-38 319 266
0 0.69800001 -0.031819493 1.2086667e-38 320 266
0.0012238267 0.69800001 -0.031819493 1.1810439e-38 321 266
0.0024476533 0.69800001 -0.031819493 1.2176329e-38 322 266
0.0036714801 0.69800001 -0.031819493 1.2176329e-38 323 266
0.0048953067 0.69800001 -0.031819493 1.2175955e-38 324 266
0.006119133 0.69800001 -0.031819493 1.189937e-38 325 266
0.0073429602 0.69800001 -0.031819493 1.1898991e-38 326 266
0.0085667865 0.69800001 -0.031819493 1.1530568e-38 327 266
0.0098186666 0.69999999 -0.031910665 9.6862612e-39 328 266
0.011045999 0.69999999 -0.031910665 5.8140448e-39 329 266
0.012273333 0.69999999 -0.031910665 8.8557649e-39 330 266
0.013558527 0.70300001 -0.032047424 1.1252851e-38 331 266
0.014812159 0.704 -0.032093015 1.1982831e-38 332 266
0.016092092 0.70599997 -0.032184184 1.1429659e-38 333 266
0.017329946 0.70599997 -0.032184184 1.2069969e-38 334 266
0.0186204 0.708 -0.03227536 1.1608991e-38 335 266
0.01986176 0.708 -0.03227536 1.1328852e-38 336 266
0.021162732 0.70999998 -0.032366529 1.1697635e-38 337 266
0.022439159 0.71100003 -0.032412119 1.16062e-38 338 266
0.023752406 0.713 -0.032503292 1.0684244e-38 339 266
0.025107734 0.71600002 -0.032640055 1.1699124e-38 340 266
0.026363119 0.71600002 -0.032640055 1.7414895e-38 341 266
-0.040004052 0.713 -0.033753417 1.7703007e-38 288 267
-0.038753927 0.713 -0.033753417 1.7703007e-38 289 267
-0.037503798 0.713 -0.033753417 1.5766509e-38 290 267
-0.036253672 0.713 -0.033753417 1.364601e-38 291 267
-0.034905359 0.71100003 -0.033658739 1.4475022e-38 292 267
-0.033658739 0.71100003 -0.033658739 1.4567219e-38 293 267
-0.032366529 0.70999998 -0.033611398 1.3549808e-38 294 267
-0.031121666 0.70999998 -0.033611398 1.3088828e-38 295 267
-0.02979264 0.708 -0.033516716 1.2907636e-38 296 267
-0.028510952 0.70700002 -0.033469379 1.2723605e-38 297 267
-0.027232772 0.70599997 -0.033422034 1.2264415e-38 298 267
-0.02592128 0.704 -0.03332736 1.1895993e-38 299 267
-0.024651866 0.70300001 -0.033280019 1.1618697e-38 300 267
-0.023419274 0.70300001 -0.033280019 1.1618697e-38 301 267
-0.022123558 0.70099998 -0.03318534 1.1343908e-38 302 267
-0.020864666 0.69999999 -0.033137999 1.1159875e-38 303 267
-0.019637333 0.69999999 -0.033137999 1.0792179e-38 304 267
-0.018409999 0.69999999 -0.033137999 1.0792179e-38 305 267
-0.017182667 0.69999999 -0.033137999 1.0517039e-38 306 267
-0.015955333 0.69999999 -0.033137999 1.0517039e-38 307 267
-0.01468592 0.69800001 -0.033043321 1.0333374e-38 308 267
-0.013462093 0.69800001 -0.033043321 1.0333374e-38 309 267
-0.012238266 0.69800001 -0.033043321 9.9660333e-39 310 267
-0.01101444 0.69800001 -0.033043321 1.0242622e-38 311 267
-0.0097906133 0.69800001 -0.033043321 1.1529043e-38 312 267
-0.0085545136 0.69700003 -0.03299598 1.2635391e-38 313 267
-0.00733244 0.69700003 -0.03299598 1.180747e-38 314 267
-0.0061103669 0.69700003 -0.03299598 9.5944159e-39 315 267
-0.0048953067 0.69800001 -0.033043321 1.0150895e-38 316 267
-0.0036714801 0.69800001 -0.033043321 1.2363592e-38 317 267
-0.0024476533 0.69800001 -0.033043321 1.2178866e-38 318 267
-0.0012238267 0.69800001 -0.033043321 1.208667e-38 319 267
0 0.69800001 -0.033043321 1.2086664e-38 320 267
0.0012238267 0.69800001 -0.033043321 1.1902632e-38 321 267
0.0024476533 0.69800001 -0.033043321 1.1902259e-38 322 267
0.0036714801 0.69800001 -0.033043321 1.1810064e-38 323 267
0.0048953067 0.69800001 -0.033043321 1.217595e-38 324 267
0.006119133 0.69800001 -0.033043321 1.1807527e-38 325 267
0.0073639993 0.69999999 -0.033137999 1.2174122e-38 326 267
0.0085913334 0.69999999 -0.033137999 1.1713146e-38 327 267
0.0098186666 0.69999999 -0.033137999 9.5011469e-39 328 267
0.011045999 0.69999999 -0.033137999 6.2742999e-39 329 267
0.012290866 0.70099998 -0.03318534 9.223844e-39 330 267
0.013577812 0.704 -0.03332736 1.0606778e-38 331 267
0.014854239 0.70599997 -0.033422034 1.0321925e-38 332 267
0.016092092 0.70599997 -0.033422034 9.6765558e-39 333 267
0.017354494 0.70700002 -0.033469379 8.6519558e-39 334 267
0.0186204 0.708 -0.033516716 9.758302e-39 335 267
0.019917866 0.70999998 -0.033611398 1.105049e-38 336 267
0.021192541 0.71100003 -0.033658739 1.1695859e-38 337 267
0.022502279 0.713 -0.033753417 1.1420376e-38 338 267
0.023852346 0.71600002 -0.03389544 1.0314389e-38 339 267
0.0251428 0.71700001 -0.033942781 1.1606575e-38 340 267
0.02639994 0.71700001 -0.033942781 1.7599291e-38 341 267
0.027657079 0.71700001 -0.033942781 1.769869e-38 342 267
-0.040060159 0.71399999 -0.035052639 1.7978871e-38 288 268
-0.038808275 0.71399999 -0.035052639 1.8163262e-38 289 268
-0.037556399 0.71399999 -0.035052639 1.5859424e-38 290 268
-0.036253672 0.713 -0.035003547 1.3462339e-38 291 268
-0.035003547 0.713 -0.035003547 1.4290265e-38 292 268
-0.033658739 0.71100003 -0.034905359 1.4566852e-38 293 268
-0.032412119 0.71100003 -0.034905359 1.3458672e-38 294 268
-0.031121666 0.70999998 -0.034856264 1.2813302e-38 295 268
-0.02979264 0.708 -0.034758076 1.3368951e-38 296 268
-0.028510952 0.70700002 -0.034708988 1.3184561e-38 297 268
-0.027232772 0.70599997 -0.034659892 1.3184917e-38 298 268
-0.02592128 0.704 -0.034561705 1.2723578e-38 299 268
-0.024651866 0.70300001 -0.034512613 1.1894558e-38 300 268
-0.023419274 0.70300001 -0.034512613 1.1710525e-38 301 268
-0.02218668 0.70300001 -0.034512613 1.1619053e-38 302 268
-0.020864666 0.69999999 -0.034365334 1.1526856e-38 303 268
-0.019637333 0.69999999 -0.034365334 1.0793607e-38 304 268
-0.018409999 0.69999999 -0.034365334 1.0793607e-38 305 268
-0.017182667 0.69999999 -0.034365334 1.0700349e-38 306 268
-0.015955333 0.69999999 -0.034365334 1.0792903e-38 307 268
-0.014727999 0.69999999 -0.034365334 1.0516686e-38 308 268
-0.013500666 0.69999999 -0.034365334 1.0516686e-38 309 268
-0.012238266 0.69800001 -0.034267146 1.0334096e-38 310 268
-0.01101444 0.69800001 -0.034267146 1.0334096e-38 311 268
-0.0097906133 0.69800001 -0.034267146 1.1160258e-38 312 268
-0.0085667865 0.69800001 -0.034267146 1.1990018e-38 313 268
-0.0073429602 0.69800001 -0.034267146 1.1621274e-38 314 268
-0.006119133 0.69800001 -0.034267146 9.8695581e-39 315 268
-0.0048953067 0.69800001 -0.034267146 1.0151249e-38 316 268
-0.0036714801 0.69800001 -0.034267146 1.2363945e-38 317 268
-0.0024476533 0.69800001 -0.034267146 1.2178863e-38 318 268
-0.0012238267 0.69800001 -0.034267146 1.2086667e-38 319 268
0 0.69800001 -0.034267146 1.2178494e-38 320 268
0.0012273333 0.69999999 -0.034365334 1.2086297e-38 321 268
0.0024476533 0.69800001 -0.034267146 1.2268875e-38 322 268
0.0036714801 0.69800001 -0.034267146 1.2084484e-38 323 268
0.0048953067 0.69800001 -0.034267146 1.2359246e-38 324 268
0.0061366665 0.69999999 -0.034365334 1.1990824e-38 325 268
0.0073639993 0.69999999 -0.034365334 1.2265942e-38 326 268
0.0085913334 0.69999999 -0.034365334 1.1251792e-38 327 268
0.0098186666 0.69999999 -0.034365334 9.3164053e-39 328 268
0.011061779 0.70099998 -0.034414422 6.4587009e-39 329 268
0.012290866 0.70099998 -0.034414422 7.8430969e-39 330 268
0.013577812 0.704 -0.034561705 8.9494431e-39 331 268
0.014854239 0.70599997 -0.034659892 9.3106796e-39 332 268
0.016114887 0.70700002 -0.034708988 8.2968864e-39 333 268
0.017379038 0.708 -0.034758076 7.8258259e-39 334 268
0.018672999 0.70999998 -0.034856264 8.563391e-39 335 268
0.019917866 0.70999998 -0.034856264 1.0776443e-38 336 268
0.021192541 0.71100003 -0.034905359 1.0960475e-38 337 268
0.022502279 0.713 -0.035003547 1.1142718e-38 338 268
0.023852346 0.71600002 -0.035150826 1.022112e-38 339 268
0.025107734 0.71600002 -0.035150826 1.169662e-38 340 268
0.026363119 0.71600002 -0.035150826 1.7965921e-38 341 268
-0.038916986 0.71600002 -0.036406212 1.7979227e-38 289 269
-0.037556399 0.71399999 -0.036304519 1.5950901e-38 290 269
-0.036304519 0.71399999 -0.036304519 1.3830401e-38 291 269
-0.035003547 0.713 -0.036253672 1.4012955e-38 292 269
-0.033658739 0.71100003 -0.036151983 1.4012955e-38 293 269
-0.032412119 0.71100003 -0.036151983 1.3643785e-38 294 269
-0.031165501 0.71100003 -0.036151983 1.3366839e-38 295 269
-0.029876797 0.70999998 -0.036101133 1.3276776e-38 296 269
-0.02855128 0.708 -0.03599944 1.3553362e-38 297 269
-0.027271347 0.70700002 -0.035948593 1.3645189e-38 298 269
-0.02592128 0.704 -0.035796054 1.2722872e-38 299 269
-0.024686933 0.704 -0.035796054 1.2168631e-38 300 269
-0.023419274 0.70300001 -0.035745207 1.2076434e-38 301 269
-0.02218668 0.70300001 -0.035745207 1.1250989e-38 302 269
-0.020894472 0.70099998 -0.035643511 1.1250989e-38 303 269
-0.019665385 0.70099998 -0.035643511 1.0700336e-38 304 269
-0.018436298 0.70099998 -0.035643511 1.0792532e-38 305 269
-0.017207211 0.70099998 -0.035643511 1.0700705e-38 306 269
-0.015955333 0.69999999 -0.035592664 1.0700705e-38 307 269
-0.014727999 0.69999999 -0.035592664 1.0699633e-38 308 269
-0.013500666 0.69999999 -0.035592664 1.0699633e-38 309 269
-0.012273333 0.69999999 -0.035592664 1.0793253e-38 310 269
-0.011045999 0.69999999 -0.035592664 1.0701058e-38 311 269
-0.0098186666 0.69999999 -0.035592664 1.1068042e-38 312 269
-0.0085913334 0.69999999 -0.035592664 1.1805609e-38 313 269
-0.0073639993 0.69999999 -0.035592664 1.1711303e-38 314 269
-0.0061366665 0.69999999 -0.035592664 1.0328367e-38 315 269
-0.0049093333 0.69999999 -0.035592664 1.0243797e-38 316 269
-0.0036819996 0.69999999 -0.035592664 1.2272103e-38 317 269
-0.0024546667 0.69999999 -0.035592664 1.2178497e-38 318 269
-0.0012273333 0.69999999 -0.035592664 1.2178497e-38 319 269
0 0.69999999 -0.035592664 1.2178846e-38 320 269
0.0012273333 0.69999999 -0.035592664 1.1994455e-38 321 269
0.0024546667 0.69999999 -0.035592664 1.217703e-38 322 269
0.0036819996 0.69999999 -0.035592664 1.1992637e-38 323 269
0.0049093333 0.69999999 -0.035592664 1.2267035e-38 324 269
0.0061366665 0.69999999 -0.035592664 1.2082643e-38 325 269
0.0073745195 0.70099998 -0.035643511 1.2632561e-38 326 269
0.0086036054 0.70099998 -0.035643511 1.1065236e-38 327 269
0.0098326923 0.70099998 -0.035643511 8.6710359e-39 328 269
0.01109334 0.70300001 -0.035745207 6.3661466e-39 329 269
0.012325933 0.70300001 -0.035745207 6.6463474e-39 330 269
0.013616386 0.70599997 -0.035897743 6.553793e-39 331 269
0.014854239 0.70599997 -0.035897743 7.4699914e-39 332 269
0.016114887 0.70700002 -0.035948593 6.824622e-39 333 269
0.017379038 0.708 -0.03599944 7.0911307e-39 334 269
0.018672999 0.70999998 -0.036101133 8.0130884e-39 335 269
0.01994592 0.71100003 -0.036151983 1.0687483e-38 336 269
0.021192541 0.71100003 -0.036151983 1.013431e-38 337 269
0.022502279 0.713 -0.036253672 1.1140555e-38 338 269
0.02378572 0.71399999 -0.036304519 1.0679577e-38 339 269
0.025037598 0.71399999 -0.036304519 1.1514024e-38 340 269
0.026289478 0.71399999 -0.036304519 1.7599294e-38 341 269
-0.038808275 0.71399999 -0.037556399 1.8162539e-38 289 270
-0.037556399 0.71399999 -0.037556399 1.6042017e-38 290 270
-0.036253672 0.713 -0.037503798 1.4013713e-38 291 270
-0.035003547 0.713 -0.037503798 1.4197348e-38 292 270
-0.033658739 0.71100003 -0.037398599 1.392076e-38 293 270
-0.032412119 0.71100003 -0.037398599 1.373598e-38 294 270
-0.031165501 0.71100003 -0.037398599 1.2998415e-38 295 270
-0.029876797 0.70999998 -0.037345998 1.3274255e-38 296 270
-0.02855128 0.708 -0.0372408 1.3735233e-38 297 270
-0.027271347 0.70700002 -0.037188202 1.2909769e-38 298 270
-0.02592128 0.704 -0.037030395 1.078927e-38 299 270
-0.024686933 0.704 -0.037030395 1.1889158e-38 300 270
-0.023419274 0.70300001 -0.036977798 1.2257582e-38 301 270
-0.02218668 0.70300001 -0.036977798 1.1157724e-38 302 270
-0.020894472 0.70099998 -0.036872596 1.124992e-38 303 270
-0.019665385 0.70099998 -0.036872596 1.0699983e-38 304 270
-0.018436298 0.70099998 -0.036872596 1.0699983e-38 305 270
-0.017207211 0.70099998 -0.036872596 1.0882576e-38 306 270
-0.015978126 0.70099998 -0.036872596 1.0975131e-38 307 270
-0.014727999 0.69999999 -0.036819998 1.1250636e-38 308 270
-0.013500666 0.69999999 -0.036819998 1.1711614e-38 309 270
-0.012273333 0.69999999 -0.036819998 1.1989623e-38 310 270
-0.011045999 0.69999999 -0.036819998 1.1621201e-38 311 270
-0.0098186666 0.69999999 -0.036819998 1.1621198e-38 312 270
-0.0085913334 0.69999999 -0.036819998 1.1805948e-38 313 270
-0.0073639993 0.69999999 -0.036819998 1.1711653e-38 314 270
-0.0061366665 0.69999999 -0.036819998 1.0328717e-38 315 270
-0.0049163462 0.70099998 -0.036872596 1.0243794e-38 316 270
-0.0036872597 0.70099998 -0.036872596 1.22721e-38 317 270
-0.0024546667 0.69999999 -0.036819998 1.2178494e-38 318 270
-0.0012273333 0.69999999 -0.036819998 1.2178494e-38 319 270
0 0.69999999 -0.036819998 1.2270319e-38 320 270
0.0012273333 0.69999999 -0.036819998 1.1901538e-38 321 270
0.0024546667 0.69999999 -0.036819998 1.2268135e-38 322 270
0.0036819996 0.69999999 -0.036819998 1.199119e-38 323 270
0.0049093333 0.69999999 -0.036819998 1.2449615e-38 324 270
0.0061366665 0.69999999 -0.036819998 1.2080474e-38 325 270
0.0073745195 0.70099998 -0.036872596 1.2446368e-38 326 270
0.0086281532 0.70300001 -0.036977798 1.0049283e-38 327 270
0.0098607466 0.70300001 -0.036977798 8.2979402e-39 328 270
0.01109334 0.70300001 -0.036977798 6.2696363e-39 329 270
0.012343466 0.704 -0.037030395 5.7182744e-39 330 270
0.013616386 0.70599997 -0.037135597 4.9807094e-39 331 270
0.01487528 0.70700002 -0.037188202 3.6013721e-39 332 270
0.016183265 0.70999998 -0.037345998 4.6155226e-39 333 270
0.017428132 0.70999998 -0.037345998 6.267135e-39 334 270
0.0186993 0.71100003 -0.037398599 7.6500695e-39 335 270
0.01994592 0.71100003 -0.037398599 1.1609444e-38 336 270
0.021252153 0.713 -0.037503798 1.0042117e-38 337 270
0.022533838 0.71399999 -0.037556399 1.0402266e-38 338 270
0.02378572 0.71399999 -0.037556399 1.0863243e-38 339 270
0.025037598 0.71399999 -0.037556399 1.14229e-38 340 270
0.026289478 0.71399999 -0.037556399 1.7507812e-38 341 270
-0.038808275 0.71399999 -0.038808275 1.8254738e-38 289 271
-0.037556399 0.71399999 -0.038808275 1.6134566e-38 290 271
-0.036253672 0.713 -0.038753927 1.373784e-38 291 271
-0.035003547 0.713 -0.038753927 1.4288816e-38 292 271
-0.033658739 0.71100003 -0.038645219 1.3920035e-38 293 271
-0.032412119 0.71100003 -0.038645219 1.3734901e-38 294 271
-0.031165501 0.71100003 -0.038645219 1.3181727e-38 295 271
-0.029876797 0.70999998 -0.038590867 1.3364658e-38 296 271
-0.02855128 0.708 -0.038482159 1.3640885e-38 297 271
-0.027271347 0.70700002 -0.038427804 1.2265822e-38 298 271
-0.02603174 0.70700002 -0.038427804 1.0422269e-38 299 271
-0.024686933 0.704 -0.038264744 1.1154445e-38 300 271
-0.023452586 0.704 -0.038264744 1.1707619e-38 301 271
-0.02218668 0.70300001 -0.038210396 1.1157721e-38 302 271
-0.020954086 0.70300001 -0.038210396 1.1065526e-38 303 271
-0.019721493 0.70300001 -0.038210396 1.0882216e-38 304 271
-0.018488899 0.70300001 -0.038210396 1.0882216e-38 305 271
-0.017256306 0.70300001 -0.038210396 1.0789662e-38 306 271
-0.016023712 0.70300001 -0.038210396 1.0882216e-38 307 271
-0.014749039 0.70099998 -0.038101684 1.1158072e-38 308 271
-0.013500666 0.69999999 -0.038047329 1.2172222e-38 309 271
-0.012273333 0.69999999 -0.038047329 1.2820447e-38 310 271
-0.011045999 0.69999999 -0.038047329 1.2267274e-38 311 271
-0.0098186666 0.69999999 -0.038047329 1.2082882e-38 312 271
-0.0085913334 0.69999999 -0.038047329 1.2267274e-38 313 271
-0.0073745195 0.70099998 -0.038101684 1.2174066e-38 314 271
-0.0061454331 0.70099998 -0.038101684 1.0237958e-38 315 271
-0.0049163462 0.70099998 -0.038101684 1.0334911e-38 316 271
-0.0036872597 0.70099998 -0.038101684 1.2455412e-38 317 271
-0.0024581731 0.70099998 -0.038101684 1.2269966e-38 318 271
-0.0012290865 0.70099998 -0.038101684 1.2085934e-38 319 271
0 0.69999999 -0.038047329 1.2086285e-38 320 271
0.0012273333 0.69999999 -0.038047329 1.1809339e-38 321 271
0.0024546667 0.69999999 -0.038047329 1.2358881e-38 322 271
0.0036819996 0.69999999 -0.038047329 1.2082292e-38 323 271
0.0049093333 0.69999999 -0.038047329 1.244817e-38 324 271
0.0061454331 0.70099998 -0.038101684 1.1710605e-38 325 271
0.0073955595 0.70300001 -0.038210396 1.1432589e-38 326 271
0.0086281532 0.70300001 -0.038210396 8.6667199e-39 327 271
0.0098607466 0.70300001 -0.038210396 7.3727539e-39 328 271
0.011109119 0.704 -0.038264744 5.1604189e-39 329 271
0.012343466 0.704 -0.038264744 4.05803e-39 330 271
0.013635674 0.70700002 -0.038427804 3.597412e-39 331 271
0.01489632 0.708 -0.038482159 2.4936106e-39 332 271
0.01620606 0.71100003 -0.038645219 3.5081227e-39 333 271
0.01745268 0.71100003 -0.038645219 5.0740191e-39 334 271
0.0186993 0.71100003 -0.038645219 7.2870729e-39 335 271
0.020002026 0.713 -0.038753927 1.2165134e-38 336 271
0.021281958 0.71399999 -0.038808275 1.0505614e-38 337 271
0.022596961 0.71600002 -0.038916986 1.0675593e-38 338 271
0.02378572 0.71399999 -0.038808275 1.1689744e-38 339 271
0.025037598 0.71399999 -0.038808275 1.1790235e-38 340 271
0.026289478 0.71399999 -0.038808275 1.8151734e-38 341 271
-0.038808275 0.71399999 -0.040060159 1.7978871e-38 289 272
-0.037556399 0.71399999 -0.040060159 1.650263e-38 290 272
-0.036253672 0.713 -0.040004052 1.4289574e-38 291 272
-0.035003547 0.713 -0.040004052 1.3642728e-38 292 272
-0.033753417 0.713 -0.040004052 1.3458337e-38 293 272
-0.032503292 0.713 -0.040004052 1.3826378e-38 294 272
-0.031165501 0.71100003 -0.039891839 1.3273204e-38 295 272
-0.029918881 0.71100003 -0.039891839 1.3273176e-38 296 272
-0.028631933 0.70999998 -0.039835732 1.2812557e-38 297 272
-0.027309919 0.708 -0.039723519 1.2169686e-38 298 272
-0.02603174 0.70700002 -0.039667413 1.1985295e-38 299 272
-0.024757065 0.70599997 -0.039611302 1.1250601e-38 300 272
-0.023452586 0.704 -0.039499093 1.1342796e-38 301 272
-0.022218239 0.704 -0.039499093 1.1249895e-38 302 272
-0.020954086 0.70300001 -0.039442986 1.1249895e-38 303 272
-0.019721493 0.70300001 -0.039442986 1.0882567e-38 304 272
-0.018515198 0.704 -0.039499093 1.0697815e-38 305 272
-0.017280852 0.704 -0.039499093 1.088113e-38 306 272
-0.016046507 0.704 -0.039499093 1.088113e-38 307 272
-0.014791119 0.70300001 -0.039442986 1.1065157e-38 308 272
-0.013558527 0.70300001 -0.039442986 1.2263699e-38 309 272
-0.012325933 0.70300001 -0.039442986 1.2636429e-38 310 272
-0.011061779 0.70099998 -0.039330769 1.2452036e-38 311 272
-0.0098326923 0.70099998 -0.039330769 1.2268365e-38 312 272
-0.0086281532 0.70300001 -0.039442986 1.2544952e-38 313 272
-0.0073955595 0.70300001 -0.039442986 1.2265906e-38 314 272
-0.0061629666 0.70300001 -0.039442986 1.0237602e-38 315 272
-0.0049303733 0.70300001 -0.039442986 1.0518939e-38 316 272
-0.0036872597 0.70099998 -0.039330769 1.2731276e-38 317 272
-0.0024581731 0.70099998 -0.039330769 1.2361795e-38 318 272
-0.0012290865 0.70099998 -0.039330769 1.2177045e-38 319 272
0 0.70099998 -0.039330769 1.2177752e-38 320 272
0.0012290865 0.70099998 -0.039330769 1.1809328e-38 321 272
0.0024581731 0.70099998 -0.039330769 1.2266322e-38 322 272
0.0036872597 0.70099998 -0.039330769 1.1620953e-38 323 272
0.0049163462 0.70099998 -0.039330769 1.1525138e-38 324 272
0.0061454331 0.70099998 -0.039330769 1.0050007e-38 325 272
0.0073955595 0.70300001 -0.039442986 1.0140781e-38 326 272
0.0086404262 0.704 -0.039499093 6.8217381e-39 327 272
0.0098747732 0.704 -0.039499093 5.0703939e-39 328 272
0.011109119 0.704 -0.039499093 3.2264813e-39 329 272
0.012378532 0.70599997 -0.039611302 4.5132699e-39 330 272
0.013635674 0.70700002 -0.039667413 4.5132699e-39 331 272
0.01489632 0.708 -0.039723519 3.5960051e-39 332 272
0.01620606 0.71100003 -0.039891839 4.0566231e-39 333 272
0.017501773 0.713 -0.040004052 3.2326246e-39 334 272
0.018751899 0.713 -0.040004052 5.9988522e-39 335 272
0.020030079 0.71399999 -0.040060159 1.1521582e-38 336 272
0.021341572 0.71600002 -0.040172372 1.11528e-38 337 272
0.02262852 0.71700001 -0.040228479 1.0966238e-38 338 272
0.02388566 0.71700001 -0.040228479 1.0781847e-38 339 272
0.0251428 0.71700001 -0.040228479 1.2347024e-38 340 272
-0.038916986 0.71600002 -0.041427758 1.8070343e-38 289 273
-0.037556399 0.71399999 -0.041312039 1.6318234e-38 290 273
-0.036304519 0.71399999 -0.041312039 1.4382126e-38 291 273
-0.035052639 0.71399999 -0.041312039 1.382819e-38 292 273
-0.033800758 0.71399999 -0.041312039 1.3090623e-38 293 273
-0.032503292 0.713 -0.041254178 1.4010028e-38 294 273
-0.031253166 0.713 -0.041254178 1.3733081e-38 295 273
-0.029918881 0.71100003 -0.041138459 1.4007833e-38 296 273
-0.028631933 0.70999998 -0.041080594 1.3546857e-38 297 273
-0.027309919 0.708 -0.040964879 1.1985983e-38 298 273
-0.026068559 0.708 -0.040964879 1.1985983e-38 299 273
-0.024792133 0.70700002 -0.040907022 1.1986346e-38 300 273
-0.023519212 0.70599997 -0.040849157 1.189415e-38 301 273
-0.022281358 0.70599997 -0.040849157 1.1434623e-38 302 273
-0.020983893 0.704 -0.040733438 1.1618655e-38 303 273
-0.019749546 0.704 -0.040733438 1.1342078e-38 304 273
-0.018567799 0.70599997 -0.040849157 1.1342078e-38 305 273
-0.017280852 0.704 -0.040733438 1.1065506e-38 306 273
-0.016046507 0.704 -0.040733438 1.1065506e-38 307 273
-0.014812159 0.704 -0.040733438 1.1250626e-38 308 273
-0.013577812 0.704 -0.040733438 1.1619048e-38 309 273
-0.012325933 0.70300001 -0.040675577 1.189816e-38 310 273
-0.01109334 0.70300001 -0.040675577 1.2266583e-38 311 273
-0.0098607466 0.70300001 -0.040675577 1.2083992e-38 312 273
-0.0086281532 0.70300001 -0.040675577 1.2083992e-38 313 273
-0.0073955595 0.70300001 -0.040675577 1.1988596e-38 314 273
-0.0061717331 0.704 -0.040733438 1.0329073e-38 315 273
-0.0049303733 0.70300001 -0.040675577 1.0518208e-38 316 273
-0.0036977797 0.70300001 -0.040675577 1.2823459e-38 317 273
-0.0024651866 0.70300001 -0.040675577 1.2452909e-38 318 273
-0.0012290865 0.70099998 -0.040559858 1.2268878e-38 319 273
0 0.70099998 -0.040559858 1.2359979e-38 320 273
0.0012290865 0.70099998 -0.040559858 1.2175587e-38 321 273
0.0024581731 0.70099998 -0.040559858 1.2448909e-38 322 273
0.0036872597 0.70099998 -0.040559858 1.1619148e-38 323 273
0.0049163462 0.70099998 -0.040559858 1.1428996e-38 324 273
0.0061629666 0.70300001 -0.040675577 1.0046061e-38 325 273
0.0074060797 0.704 -0.040733438 1.0957959e-38 326 273
0.0086404262 0.704 -0.040733438 8.9296554e-39 327 273
0.0098747732 0.704 -0.040733438 6.8141949e-39 328 273
0.011109119 0.704 -0.040733438 4.6014998e-39 329 273
0.012378532 0.70599997 -0.040849157 3.226847e-39 330 273
0.013635674 0.70700002 -0.040907022 3.6878252e-39 331 273
0.014938398 0.70999998 -0.041080594 3.5041724e-39 332 273
0.016274439 0.71399999 -0.041312039 3.6885637e-39 333 273
0.017526319 0.71399999 -0.041312039 2.5854559e-39 334 273
0.0188308 0.71600002 -0.041427758 4.0609461e-39 335 273
0.020086186 0.71600002 -0.041427758 8.4834595e-39 336 273
0.021371379 0.71700001 -0.041485619 1.0327372e-38 337 273
0.02262852 0.71700001 -0.041485619 1.1705991e-38 338 273
0.02388566 0.71700001 -0.041485619 1.1521958e-38 339 273
0.0251428 0.71700001 -0.041485619 1.2538255e-38 340 273
-0.038916986 0.71600002 -0.042683143 1.7886675e-38 289 274
-0.037661601 0.71600002 -0.042683143 1.6317878e-38 290 274
-0.036406212 0.71600002 -0.042683143 1.438177e-38 291 274
-0.035052639 0.71399999 -0.042563915 1.4105498e-38 292 274
-0.033800758 0.71399999 -0.042563915 1.3828911e-38 293 274
-0.032548878 0.71399999 -0.042563915 1.3737397e-38 294 274
-0.031253166 0.713 -0.042504307 1.3092027e-38 295 274
-0.030003037 0.713 -0.042504307 1.4008914e-38 296 274
-0.028672259 0.71100003 -0.042385083 1.3731967e-38 297 274
-0.027387066 0.70999998 -0.042325463 1.3086951e-38 298 274
-0.026068559 0.708 -0.042206239 1.3179146e-38 299 274
-0.024792133 0.70700002 -0.042146627 1.2077843e-38 300 274
-0.023519212 0.70599997 -0.042087011 1.2077843e-38 301 274
-0.022281358 0.70599997 -0.042087011 1.1711935e-38 302 274
-0.021043506 0.70599997 -0.042087011 1.1619739e-38 303 274
-0.019805651 0.70599997 -0.042087011 1.1435711e-38 304 274
-0.018567799 0.70599997 -0.042087011 1.106693e-38 305 274
-0.017329946 0.70599997 -0.042087011 1.106621e-38 306 274
-0.016092092 0.70599997 -0.042087011 1.1342796e-38 307 274
-0.014812159 0.704 -0.041967787 1.1159847e-38 308 274
-0.013577812 0.704 -0.041967787 1.1159847e-38 309 274
-0.012343466 0.704 -0.041967787 1.1159144e-38 310 274
-0.011109119 0.704 -0.041967787 1.1712317e-38 311 274
-0.0098747732 0.704 -0.041967787 1.1529368e-38 312 274
-0.0086404262 0.704 -0.041967787 1.1345337e-38 313 274
-0.0074060797 0.704 -0.041967787 1.1802753e-38 314 274
-0.0061717331 0.704 -0.041967787 1.0788961e-38 315 274
-0.0049303733 0.70300001 -0.041908171 1.0426009e-38 316 274
-0.0036977797 0.70300001 -0.041908171 1.2639063e-38 317 274
-0.0024651866 0.70300001 -0.041908171 1.2269228e-38 318 274
-0.0012325933 0.70300001 -0.041908171 1.2177033e-38 319 274
0 0.70099998 -0.041788943 1.2543994e-38 320 274
0.0012290865 0.70099998 -0.041788943 1.2359602e-38 321 274
0.0024651866 0.70300001 -0.041908171 1.2539659e-38 322 274
0.0036977797 0.70300001 -0.041908171 1.1525506e-38 323 274
0.0049303733 0.70300001 -0.041908171 1.1425036e-38 324 274
0.0061629666 0.70300001 -0.041908171 9.7651543e-39 325 274
0.0074060797 0.704 -0.041967787 1.0769232e-38 326 274
0.0086404262 0.704 -0.041967787 9.7550818e-39 327 274
0.0098747732 0.704 -0.041967787 8.0073235e-39 328 274
0.011140679 0.70599997 -0.042087011 5.8871842e-39 329 274
0.012378532 0.70599997 -0.042087011 2.6740236e-39 330 274
0.013635674 0.70700002 -0.042146627 2.7662192e-39 331 274
0.014938398 0.70999998 -0.042325463 3.5020018e-39 332 274
0.016274439 0.71399999 -0.042563915 3.8711445e-39 333 274
0.017526319 0.71399999 -0.042563915 3.6871161e-39 334 274
0.0188308 0.71600002 -0.042683143 3.7796705e-39 335 274
0.020114239 0.71700001 -0.042742759 4.3404043e-39 336 274
0.021371379 0.71700001 -0.042742759 7.2903043e-39 337 274
0.02262852 0.71700001 -0.042742759 1.0782943e-38 338 274
0.02388566 0.71700001 -0.042742759 1.1612703e-38 339 274
0.0251428 0.71700001 -0.042742759 1.2626488e-38 340 274
-0.037714198 0.71700001 -0.043999899 1.6502274e-38 290 275
-0.036457058 0.71700001 -0.043999899 1.4658361e-38 291 275
-0.035150826 0.71600002 -0.043938532 1.4473928e-38 292 275
-0.03389544 0.71600002 -0.043938532 1.401295e-38 293 275
-0.032640055 0.71600002 -0.043938532 1.3000565e-38 294 275
-0.031296998 0.71399999 -0.043815799 1.2816172e-38 295 275
-0.030003037 0.713 -0.043754432 1.3734491e-38 296 275
-0.028672259 0.71100003 -0.043631699 1.3457905e-38 297 275
-0.027387066 0.70999998 -0.043570329 1.3362093e-38 298 275
-0.026142199 0.70999998 -0.043570329 1.3362093e-38 299 275
-0.024827199 0.708 -0.043447599 1.3269544e-38 300 275
-0.023552528 0.70700002 -0.043386232 1.3454294e-38 301 275
-0.022312919 0.70700002 -0.043386232 1.2813595e-38 302 275
-0.021043506 0.70599997 -0.043324865 1.2721398e-38 303 275
-0.019805651 0.70599997 -0.043324865 1.2353336e-38 304 275
-0.018567799 0.70599997 -0.043324865 1.2076749e-38 305 275
-0.017329946 0.70599997 -0.043324865 1.1434977e-38 306 275
-0.016092092 0.70599997 -0.043324865 1.1434977e-38 307 275
-0.014854239 0.70599997 -0.043324865 1.125168e-38 308 275
-0.013616386 0.70599997 -0.043324865 1.1435711e-38 309 275
-0.012343466 0.704 -0.043202132 1.1066948e-38 310 275
-0.011109119 0.704 -0.043202132 1.1251339e-38 311 275
-0.0098747732 0.704 -0.043202132 1.1343905e-38 312 275
-0.0086404262 0.704 -0.043202132 1.1528655e-38 313 275
-0.0074060797 0.704 -0.043202132 1.1526898e-38 314 275
-0.0061717331 0.704 -0.043202132 1.042055e-38 315 275
-0.0049373866 0.704 -0.043202132 1.0242334e-38 316 275
-0.0037030398 0.704 -0.043202132 1.2270638e-38 317 275
-0.0024686933 0.704 -0.043202132 1.2360698e-38 318 275
-0.0012343467 0.704 -0.043202132 1.2268503e-38 319 275
0 0.704 -0.043202132 1.2451432e-38 320 275
0.0012343467 0.704 -0.043202132 1.2266682e-38 321 275
0.0024686933 0.704 -0.043202132 1.2538218e-38 322 275
0.0037030398 0.704 -0.043202132 1.143187e-38 323 275
0.0049373866 0.704 -0.043202132 1.1421083e-38 324 275
0.0061717331 0.704 -0.043202132 9.6693672e-39 325 275
0.0074060797 0.704 -0.043202132 1.0124941e-38 326 275
0.0086404262 0.704 -0.043202132 9.9405479e-39 327 275
0.0099028256 0.70599997 -0.043324865 9.1122305e-39 328 275
0.011140679 0.70599997 -0.043324865 8.3746641e-39 329 275
0.012378532 0.70599997 -0.043324865 6.904943e-39 330 275
0.013654959 0.708 -0.043447599 6.4443236e-39 331 275
0.014938398 0.70999998 -0.043570329 6.1648753e-39 332 275
0.016274439 0.71399999 -0.043815799 5.7964529e-39 333 275
0.017526319 0.71399999 -0.043815799 4.5168698e-39 334 275
0.0188308 0.71600002 -0.043938532 4.2399228e-39 335 275
0.020114239 0.71700001 -0.043999899 3.9669302e-39 336 275
0.021430992 0.71899998 -0.044122629 5.9030384e-39 337 275
0.022691639 0.71899998 -0.044122629 8.8482595e-39 338 275
0.023952285 0.71899998 -0.044122629 9.5858246e-39 339 275
0.025212931 0.71899998 -0.044122629 1.1796722e-38 340 275
-0.037819397 0.71899998 -0.045383278 1.6594475e-38 290 276
-0.036558751 0.71899998 -0.045383278 1.4934593e-38 291 276
-0.035199918 0.71700001 -0.045257039 1.447536e-38 292 276
-0.033942781 0.71700001 -0.045257039 1.382999e-38 293 276
-0.032685637 0.71700001 -0.045257039 1.2632128e-38 294 276
-0.031384666 0.71600002 -0.045193922 1.2263346e-38 295 276
-0.030045118 0.71399999 -0.045067675 1.336751e-38 296 276
-0.028752912 0.713 -0.045004558 1.3551541e-38 297 276
-0.027425639 0.71100003 -0.044878319 1.3825241e-38 298 276
-0.026142199 0.70999998 -0.044815198 1.2995482e-38 299 276
-0.024827199 0.708 -0.044688959 1.3636181e-38 300 276
-0.023585839 0.708 -0.044688959 1.3912768e-38 301 276
-0.022312919 0.70700002 -0.044625837 1.3454308e-38 302 276
-0.021073313 0.70700002 -0.044625837 1.317808e-38 303 276
-0.019833706 0.70700002 -0.044625837 1.281109e-38 304 276
-0.018594101 0.70700002 -0.044625837 1.2718894e-38 305 276
-0.017354494 0.70700002 -0.044625837 1.1985998e-38 306 276
-0.016114887 0.70700002 -0.044625837 1.1985998e-38 307 276
-0.014854239 0.70599997 -0.044562716 1.180233e-38 308 276
-0.013616386 0.70599997 -0.044562716 1.180233e-38 309 276
-0.012343466 0.704 -0.044436477 1.1801979e-38 310 276
-0.011109119 0.704 -0.044436477 1.1801979e-38 311 276
-0.0098747732 0.704 -0.044436477 1.1710147e-38 312 276
-0.0086404262 0.704 -0.044436477 1.1987094e-38 313 276
-0.0074060797 0.704 -0.044436477 1.171199e-38 314 276
-0.0061717331 0.704 -0.044436477 1.0236859e-38 315 276
-0.0049373866 0.704 -0.044436477 1.0240529e-38 316 276
-0.0037030398 0.704 -0.044436477 1.2453585e-38 317 276
-0.0024686933 0.704 -0.044436477 1.2543996e-38 318 276
-0.0012343467 0.704 -0.044436477 1.2359246e-38 319 276
0 0.704 -0.044436477 1.2542178e-38 320 276
0.0012343467 0.704 -0.044436477 1.2357785e-38 321 276
0.0024686933 0.704 -0.044436477 1.2352747e-38 322 276
0.0037030398 0.704 -0.044436477 1.0969813e-38 323 276
0.0049373866 0.704 -0.044436477 1.0960828e-38 324 276
0.0061892662 0.70599997 -0.044562716 9.4860577e-39 325 276
0.0074271196 0.70599997 -0.044562716 1.0032392e-38 326 276
0.0086649731 0.70599997 -0.044562716 1.0677761e-38 327 276
0.0099028256 0.70599997 -0.044562716 1.0681e-38 328 276
0.011140679 0.70599997 -0.044562716 1.1049783e-38 329 276
0.012396066 0.70700002 -0.044625837 1.1147024e-38 330 276
0.013654959 0.708 -0.044688959 1.0962272e-38 331 276
0.014959441 0.71100003 -0.044878319 9.5721507e-39 332 276
0.016274439 0.71399999 -0.045067675 7.5438468e-39 333 276
0.017575413 0.71600002 -0.045193922 5.3451857e-39 334 276
0.018857099 0.71700001 -0.045257039 5.3451857e-39 335 276
0.020114239 0.71700001 -0.045257039 5.1600812e-39 336 276
0.021430992 0.71899998 -0.045383278 5.8054506e-39 337 276
0.022691639 0.71899998 -0.045383278 7.0043441e-39 338 276
0.0239856 0.72000003 -0.045446403 8.2950829e-39 339 276
0.025248 0.72000003 -0.045446403 1.1518693e-38 340 276
-0.037871998 0.72000003 -0.0467088 1.6502993e-38 290 277
-0.036609601 0.72000003 -0.0467088 1.4382853e-38 291 277
-0.035347197 0.72000003 -0.0467088 1.4198767e-38 292 277
-0.034084801 0.72000003 -0.0467088 1.3922539e-38 293 277
-0.0328224 0.72000003 -0.0467088 1.3736308e-38 294 277
-0.031428497 0.71700001 -0.046514176 1.2722156e-38 295 277
-0.03012928 0.71600002 -0.046449307 1.3273159e-38 296 277
-0.028793238 0.71399999 -0.046319555 1.3641942e-38 297 277
-0.027425639 0.71100003 -0.046124939 1.3458624e-38 298 277
-0.026142199 0.70999998 -0.046060063 1.2444831e-38 299 277
-0.024897331 0.70999998 -0.046060063 1.3819852e-38 300 277
-0.023585839 0.708 -0.045930319 1.3819852e-38 301 277
-0.022344479 0.708 -0.045930319 1.3819499e-38 302 277
-0.021073313 0.70700002 -0.045865446 1.3819499e-38 303 277
-0.019833706 0.70700002 -0.045865446 1.3176648e-38 304 277
-0.018594101 0.70700002 -0.045865446 1.3084452e-38 305 277
-0.017354494 0.70700002 -0.045865446 1.2626698e-38 306 277
-0.016114887 0.70700002 -0.045865446 1.2626698e-38 307 277
-0.014854239 0.70599997 -0.04580057 1.2535582e-38 308 277
-0.013616386 0.70599997 -0.04580057 1.2443386e-38 309 277
-0.012378532 0.70599997 -0.04580057 1.2443752e-38 310 277
-0.011140679 0.70599997 -0.04580057 1.2443752e-38 311 277
-0.0099028256 0.70599997 -0.04580057 1.2170042e-38 312 277
-0.0086649731 0.70599997 -0.04580057 1.2722857e-38 313 277
-0.0074060797 0.704 -0.045670826 1.2172596e-38 314 277
-0.0061717331 0.704 -0.045670826 1.0052095e-38 315 277
-0.0049373866 0.704 -0.045670826 9.7802575e-39 316 277
-0.0037030398 0.704 -0.045670826 1.226954e-38 317 277
-0.0024686933 0.704 -0.045670826 1.2634379e-38 318 277
-0.0012343467 0.704 -0.045670826 1.2542183e-38 319 277
0 0.70599997 -0.04580057 1.2633277e-38 320 277
0.0012378532 0.70599997 -0.04580057 1.2172659e-38 321 277
0.0024686933 0.704 -0.045670826 1.1615533e-38 322 277
0.0037030398 0.704 -0.045670826 9.9563699e-39 323 277
0.0049373866 0.704 -0.045670826 9.3960229e-39 324 277
0.0061892662 0.70599997 -0.04580057 9.3038273e-39 325 277
0.0074271196 0.70599997 -0.04580057 1.0220739e-38 326 277
0.0086649731 0.70599997 -0.04580057 1.0866108e-38 327 277
0.0099028256 0.70599997 -0.04580057 1.068495e-38 328 277
0.011140679 0.70599997 -0.04580057 1.1145569e-38 329 277
0.0124136 0.708 -0.045930319 1.1240289e-38 330 277
0.013693533 0.70999998 -0.046060063 1.1332484e-38 331 277
0.014959441 0.71100003 -0.046124939 1.0774994e-38 332 277
0.016274439 0.71399999 -0.046319555 8.8388862e-39 333 277
0.017575413 0.71600002 -0.046449307 7.5531851e-39 334 277
0.018857099 0.71700001 -0.046514176 8.8439239e-39 335 277
0.020114239 0.71700001 -0.046514176 1.0043548e-38 336 277
0.021430992 0.71899998 -0.046643924 9.2137854e-39 337 277
0.022786319 0.722 -0.046838548 8.2021516e-39 338 277
0.024052227 0.722 -0.046838548 9.2163036e-39 339 277
0.025353199 0.72299999 -0.046903417 1.2345577e-38 340 277
0.026620859 0.72299999 -0.046903417 1.7232304e-38 341 277
-0.039134402 0.72000003 -0.0479712 1.8162539e-38 289 278
-0.037871998 0.72000003 -0.0479712 1.6410427e-38 290 278
-0.036609601 0.72000003 -0.0479712 1.4013701e-38 291 278
-0.035445385 0.722 -0.048104454 1.4013656e-38 292 278
-0.034179479 0.722 -0.048104454 1.4290603e-38 293 278
-0.0328224 0.72000003 -0.0479712 1.410511e-38 294 278
-0.031516165 0.71899998 -0.04790457 1.2998763e-38 295 278
-0.030171359 0.71700001 -0.04777132 1.2905105e-38 296 278
-0.028873893 0.71600002 -0.047704693 1.3089497e-38 297 278
-0.027502786 0.713 -0.047504812 1.3181314e-38 298 278
-0.026252659 0.713 -0.047504812 1.2628499e-38 299 278
-0.024897331 0.70999998 -0.047304932 1.336211e-38 300 278
-0.023652466 0.70999998 -0.047304932 1.3178077e-38 301 278
-0.022344479 0.708 -0.047171678 1.3177724e-38 302 278
-0.021103119 0.708 -0.047171678 1.3085528e-38 303 278
-0.01986176 0.708 -0.047171678 1.2993686e-38 304 278
-0.018594101 0.70700002 -0.047105055 1.2993686e-38 305 278
-0.017354494 0.70700002 -0.047105055 1.2901124e-38 306 278
-0.016114887 0.70700002 -0.047105055 1.3085156e-38 307 278
-0.01487528 0.70700002 -0.047105055 1.3084449e-38 308 278
-0.013616386 0.70599997 -0.047038425 1.2900418e-38 309 278
-0.012378532 0.70599997 -0.047038425 1.2717096e-38 310 278
-0.011140679 0.70599997 -0.047038425 1.3085879e-38 311 278
-0.0099028256 0.70599997 -0.047038425 1.2539872e-38 312 278
-0.0086649731 0.70599997 -0.047038425 1.3093046e-38 313 278
-0.0074271196 0.70599997 -0.047038425 1.2634627e-38 314 278
-0.0061892662 0.70599997 -0.047038425 9.8687579e-39 315 278
-0.0049514128 0.70599997 -0.047038425 9.1373838e-39 316 278
-0.0037135598 0.70599997 -0.047038425 1.1627026e-38 317 278
-0.0024757064 0.70599997 -0.047038425 1.272548e-38 318 278
-0.0012378532 0.70599997 -0.047038425 1.2633283e-38 319 278
0 0.70599997 -0.047038425 1.2724379e-38 320 278
0.0012378532 0.70599997 -0.047038425 1.2171564e-38 321 278
0.0024757064 0.70599997 -0.047038425 1.1521156e-38 322 278
0.0037135598 0.70599997 -0.047038425 9.400657e-39 323 278
0.0049514128 0.70599997 -0.047038425 8.1081413e-39 324 278
0.0061892662 0.70599997 -0.047038425 8.9375433e-39 325 278
0.0074271196 0.70599997 -0.047038425 9.3059783e-39 326 278
0.0086649731 0.70599997 -0.047038425 9.7669564e-39 327 278
0.0099028256 0.70599997 -0.047038425 1.1327449e-38 328 278
0.011156459 0.70700002 -0.047105055 1.1695872e-38 329 278
