# .PCD v.7 - Point Cloud Data file format
FIELDS x y z rgb imX imY
SIZE 4 4 4 4 4 4
TYPE F F F F F F
COUNT 1 1 1 1 1 1
WIDTH 840
HEIGHT 1
VIEWPOINT 0 0 0 1 0 0 0
POINTS 840
DATA ascii
-0.043994639 0.69700003 -0.01099866 1.217418e-38 284 249
-0.042588469 0.69400001 -0.01095132 1.1621007e-38 285 249
-0.041371655 0.69400001 -0.01095132 1.0883794e-38 286 249
-0.04009698 0.69300002 -0.010935539 1.1529163e-38 287 249
-0.038713597 0.69 -0.010888199 1.1713556e-38 288 249
-0.037395094 0.68800002 -0.010856641 1.1436609e-38 289 249
-0.035925802 0.68300003 -0.01077774 1.1159303e-38 290 249
-0.034728274 0.68300003 -0.01077774 1.1067106e-38 291 249
-0.033530746 0.68300003 -0.01077774 1.0883794e-38 292 249
-0.032285877 0.68199998 -0.010761959 1.0883794e-38 293 249
-0.030998932 0.68000001 -0.0107304 1.1065669e-38 294 249
-0.029762832 0.67900002 -0.010714619 1.1341895e-38 295 249
-0.028572321 0.67900002 -0.010714619 1.1711391e-38 296 249
-0.027341479 0.67799997 -0.010698839 1.1526641e-38 297 249
-0.026152719 0.67799997 -0.010698839 1.1066385e-38 298 249
-0.024963958 0.67799997 -0.010698839 1.0974189e-38 299 249
-0.023494666 0.67000002 -0.0105726 1.0515732e-38 300 249
-0.022253305 0.66799998 -0.01054104 1.0607927e-38 301 249
-0.02101896 0.66600001 -0.01050948 1.005583e-38 302 249
-0.019761819 0.66299999 -0.01046214 9.7788829e-39 303 249
-0.018571306 0.662 -0.01044636 1.1436243e-38 304 249
-0.0173843 0.66100001 -0.01043058 1.2542591e-38 305 249
-0.016225345 0.66100001 -0.01043058 1.1618097e-38 306 249
-0.015066394 0.66100001 -0.01043058 9.4050431e-39 307 249
-0.01390744 0.66100001 -0.01043058 5.9909041e-39 308 249
-0.012748486 0.66100001 -0.01043058 6.3593278e-39 309 249
-0.011589534 0.66100001 -0.01043058 7.2783961e-39 310 249
-0.01043058 0.66100001 -0.01043058 7.1858417e-39 311 249
-0.0092716264 0.66100001 -0.01043058 7.1865718e-39 312 249
-0.0081249457 0.662 -0.01044636 9.5836568e-39 313 249
-0.0069747595 0.66299999 -0.01046214 1.0228676e-38 314 249
-0.0058210664 0.66399997 -0.010477919 1.0966241e-38 315 249
-0.0046568532 0.66399997 -0.010477919 1.0233006e-38 316 249
-0.0035031599 0.66600001 -0.01050948 1.0509951e-38 317 249
-0.0023494666 0.67000002 -0.0105726 1.0509954e-38 318 249
-0.0011747333 0.67000002 -0.0105726 1.0509954e-38 319 249
0 0.671 -0.01058838 1.0509949e-38 320 249
0.0011782399 0.67199999 -0.010604159 1.0509949e-38 321 249
0.0023669999 0.67500001 -0.0106515 1.0601418e-38 322 249
0.0035505001 0.67500001 -0.0106515 1.0417387e-38 323 249
0.0047410131 0.676 -0.01066728 1.0784002e-38 324 249
0.0059262668 0.676 -0.01066728 1.0784002e-38 325 249
0.0071325595 0.67799997 -0.010698839 1.0873674e-38 326 249
0.0083458666 0.68000001 -0.0107304 8.0156094e-39 327 249
0.009566186 0.68199998 -0.010761959 6.9092646e-39 328 249
0.010761959 0.68199998 -0.010761959 4.4199826e-39 329 249
0.011975267 0.68300003 -0.01077774 5.1532289e-39 330 249
0.01319208 0.68400002 -0.01079352 5.5220114e-39 331 249
0.01443344 0.68599999 -0.010825079 5.2493705e-39 332 249
0.015659019 0.68699998 -0.010840859 5.9869356e-39 333 249
0.01686356 0.68699998 -0.010840859 6.5411814e-39 334 249
0.0180944 0.68800002 -0.010856641 7.2787464e-39 335 249
0.019300694 0.68800002 -0.010856641 8.2954333e-39 336 249
0.020566599 0.69 -0.010888199 9.1255527e-39 337 249
0.021807959 0.69099998 -0.01090398 9.3117586e-39 338 249
0.02308614 0.69300002 -0.010935539 9.7727368e-39 339 249
0.024301201 0.69300002 -0.010935539 1.0050027e-38 340 249
0.025553079 0.69400001 -0.01095132 1.0050027e-38 341 249
0.026885614 0.69700003 -0.01099866 1.0417363e-38 342 249
0.028148014 0.69800001 -0.01101444 1.0601756e-38 343 249
0.029455997 0.69999999 -0.011045999 1.0418088e-38 344 249
0.030814834 0.70300001 -0.01109334 1.0418088e-38 345 249
0.032047424 0.70300001 -0.01109334 1.0694673e-38 346 249
0.03332736 0.704 -0.011109119 1.0602119e-38 347 249
0.034659892 0.70599997 -0.011140679 1.0325539e-38 348 249
0.035948593 0.70700002 -0.011156459 9.9567553e-39 349 249
0.0372408 0.708 -0.01117224 9.9553175e-39 350 249
0.038482159 0.708 -0.01117224 9.5861749e-39 351 249
0.039835732 0.70999998 -0.011203799 9.4007074e-39 352 249
0.041138459 0.71100003 -0.01121958 8.9400894e-39 353 249
0.042504307 0.713 -0.011251139 8.9382902e-39 354 249
0.043815799 0.71399999 -0.011266919 8.7535402e-39 355 249
0.045193922 0.71600002 -0.01129848 8.3872632e-39 356 249
0.0467088 0.72000003 -0.011361601 8.2028719e-39 357 249
0.0479712 0.72000003 -0.011361601 7.1865508e-39 358 249
0.0492336 0.72000003 -0.011361601 5.5270308e-39 359 249
0.050496001 0.72000003 -0.011361601 1.2902331e-38 360 249
0.051758397 0.72000003 -0.011361601 1.6129178e-38 361 249
0.053020801 0.72000003 -0.011361601 1.9265647e-38 362 249
-0.065371275 0.71700001 -0.0125714 1.935929e-38 268 250
-0.064024724 0.71600002 -0.012553867 1.7238791e-38 269 250
-0.062593997 0.71399999 -0.012518799 1.2081969e-38 270 250
-0.061342116 0.71399999 -0.012518799 1.2542588e-38 271 250
-0.060006075 0.713 -0.012501267 1.2819902e-38 272 250
-0.058755953 0.713 -0.012501267 1.2081979e-38 273 250
-0.057344519 0.71100003 -0.0124662 1.1713556e-38 274 250
-0.056018997 0.70999998 -0.012448666 1.1621361e-38 275 250
-0.054619838 0.708 -0.0124136 1.1345493e-38 276 250
-0.053227689 0.70599997 -0.012378532 1.1253297e-38 277 250
-0.051842559 0.704 -0.012343466 1.1253653e-38 278 250
-0.050608214 0.704 -0.012343466 1.1253653e-38 279 250
-0.049303733 0.70300001 -0.012325933 1.1163256e-38 280 250
-0.048071139 0.70300001 -0.012325933 1.1347288e-38 281 250
-0.046638668 0.69999999 -0.012273333 1.0978152e-38 282 250
-0.045281585 0.69800001 -0.012238266 1.0885956e-38 283 250
-0.043994639 0.69700003 -0.012220734 1.1896515e-38 284 250
-0.042588469 0.69400001 -0.012168133 1.1528092e-38 285 250
-0.041371655 0.69400001 -0.012168133 1.1618486e-38 286 250
-0.04009698 0.69300002 -0.012150601 1.2079465e-38 287 250
-0.038769703 0.69099998 -0.012115533 1.1712476e-38 288 250
-0.037395094 0.68800002 -0.012062933 1.1067106e-38 289 250
-0.035978399 0.68400002 -0.0119928 1.0606851e-38 290 250
-0.034728274 0.68300003 -0.011975267 1.0791243e-38 291 250
-0.033530746 0.68300003 -0.011975267 1.0884514e-38 292 250
-0.032285877 0.68199998 -0.011957732 1.097671e-38 293 250
-0.030998932 0.68000001 -0.011922667 1.1068184e-38 294 250
-0.029806666 0.68000001 -0.011922667 1.1897584e-38 295 250
-0.028572321 0.67900002 -0.011905133 1.3002127e-38 296 250
-0.027341479 0.67799997 -0.011887599 1.2356758e-38 297 250
-0.026075572 0.676 -0.011852534 1.1252568e-38 298 250
-0.024890319 0.676 -0.011852534 1.1068537e-38 299 250
-0.023494666 0.67000002 -0.011747333 1.0515732e-38 300 250
-0.022253305 0.66799998 -0.011712266 1.0515732e-38 301 250
-0.021050518 0.667 -0.011694733 1.0515379e-38 302 250
-0.019761819 0.66299999 -0.0116246 1.0700129e-38 303 250
-0.018571306 0.662 -0.011607066 1.1989064e-38 304 250
-0.017410601 0.662 -0.011607066 1.2542238e-38 305 250
-0.016225345 0.66100001 -0.011589534 1.1525898e-38 306 250
-0.015066394 0.66100001 -0.011589534 9.1288121e-39 307 250
-0.01390744 0.66100001 -0.011589534 6.2649616e-39 308 250
-0.012748486 0.66100001 -0.011589534 6.6341043e-39 309 250
-0.011589534 0.66100001 -0.011589534 7.5535382e-39 310 250
-0.01043058 0.66100001 -0.011589534 7.4613426e-39 311 250
-0.009285653 0.662 -0.011607066 7.829779e-39 312 250
-0.0081372196 0.66299999 -0.0116246 1.0411257e-38 313 250
-0.0069852793 0.66399997 -0.011642133 1.0322674e-38 314 250
-0.0058210664 0.66399997 -0.011642133 1.0691096e-38 315 250
-0.0046708798 0.66600001 -0.011677199 1.0141889e-38 316 250
-0.0035084197 0.667 -0.011694733 1.0234444e-38 317 250
-0.0023494666 0.67000002 -0.011747333 1.0326283e-38 318 250
-0.0011747333 0.67000002 -0.011747333 1.0326283e-38 319 250
0 0.671 -0.011764866 1.0509951e-38 320 250
0.0011782399 0.67199999 -0.011782399 1.0509951e-38 321 250
0.0023669999 0.67500001 -0.011835 1.0693264e-38 322 250
0.0035505001 0.67500001 -0.011835 1.0601068e-38 323 250
0.0047410131 0.676 -0.011852534 1.0599628e-38 324 250
0.0059262668 0.676 -0.011852534 1.0599628e-38 325 250
0.0071535995 0.68000001 -0.011922667 1.0505264e-38 326 250
0.0083704125 0.68199998 -0.011957732 7.0940258e-39 327 250
0.0095802136 0.68300003 -0.011975267 5.253339e-39 328 250
0.01077774 0.68300003 -0.011975267 3.8700458e-39 329 250
0.0119928 0.68400002 -0.0119928 5.6156321e-39 330 250
0.013230653 0.68599999 -0.012027865 6.0766117e-39 331 250
0.014454478 0.68699998 -0.012045399 5.8043422e-39 332 250
0.015681813 0.68800002 -0.012062933 6.4497116e-39 333 250
0.016888106 0.68800002 -0.012062933 7.741549e-39 334 250
0.018146999 0.69 -0.012097999 8.7553408e-39 335 250
0.019356798 0.69 -0.012097999 9.8634877e-39 336 250
0.020656019 0.69300002 -0.012150601 1.041666e-38 337 250
0.021871079 0.69300002 -0.012150601 1.0142946e-38 338 250
0.02308614 0.69300002 -0.012150601 1.0327337e-38 339 250
0.024336265 0.69400001 -0.012168133 1.0235497e-38 340 250
0.025553079 0.69400001 -0.012168133 1.0235497e-38 341 250
0.026924185 0.69800001 -0.012238266 1.032769e-38 342 250
0.028228667 0.69999999 -0.012273333 1.032769e-38 343 250
0.029498078 0.70099998 -0.012290866 1.041881e-38 344 250
0.030814834 0.70300001 -0.012325933 1.041881e-38 345 250
0.032093015 0.704 -0.012343466 1.0325545e-38 346 250
0.033422034 0.70599997 -0.012378532 1.0140793e-38 347 250
0.034708988 0.70700002 -0.012396066 9.8634877e-39 348 250
0.03599944 0.708 -0.0124136 9.3103139e-39 349 250
0.0372408 0.708 -0.0124136 9.217398e-39 350 250
0.038590867 0.70999998 -0.012448666 8.9404524e-39 351 250
0.039891839 0.71100003 -0.0124662 8.9397335e-39 352 250
0.041254178 0.713 -0.012501267 8.6631452e-39 353 250
0.042563915 0.71399999 -0.012518799 8.4780323e-39 354 250
0.043815799 0.71399999 -0.012518799 8.4780323e-39 355 250
0.045383278 0.71899998 -0.012606465 8.2032376e-39 356 250
0.0467088 0.72000003 -0.012624 8.0192065e-39 357 250
0.0479712 0.72000003 -0.012624 7.0021665e-39 358 250
0.0492336 0.72000003 -0.012624 5.342285e-39 359 250
0.050496001 0.72000003 -0.012624 1.3363312e-38 360 250
0.051758397 0.72000003 -0.012624 1.6221376e-38 361 250
0.053020801 0.72000003 -0.012624 1.9080895e-38 362 250
-0.064024724 0.71600002 -0.013809253 1.7239151e-38 269 251
-0.062769331 0.71600002 -0.013809253 1.2174164e-38 270 251
-0.061513945 0.71600002 -0.013809253 1.2542588e-38 271 251
-0.060090236 0.71399999 -0.01377068 1.2636234e-38 272 251
-0.058755953 0.713 -0.013751393 1.2267093e-38 273 251
-0.057344519 0.71100003 -0.01371282 1.1896871e-38 274 251
-0.056097899 0.71100003 -0.01371282 1.1435893e-38 275 251
-0.054774132 0.70999998 -0.013693533 1.1528089e-38 276 251
-0.053303085 0.70700002 -0.013635674 1.1435893e-38 277 251
-0.051989835 0.70599997 -0.013616386 1.1253297e-38 278 251
-0.050608214 0.704 -0.013577812 1.1345493e-38 279 251
-0.049373865 0.704 -0.013577812 1.2359644e-38 280 251
-0.048071139 0.70300001 -0.013558527 1.2267449e-38 281 251
-0.046705291 0.70099998 -0.013519952 1.180719e-38 282 251
-0.04541133 0.69999999 -0.013500666 1.1899385e-38 283 251
-0.043994639 0.69700003 -0.013442807 1.2263859e-38 284 251
-0.042711195 0.69599998 -0.013423519 1.097312e-38 285 251
-0.041371655 0.69400001 -0.013384946 1.1433378e-38 286 251
-0.04009698 0.69300002 -0.01336566 1.2078747e-38 287 251
-0.038769703 0.69099998 -0.013327086 1.1345493e-38 288 251
-0.03755815 0.69099998 -0.013327086 1.0700123e-38 289 251
-0.036293998 0.69 -0.0133078 1.0513934e-38 290 251
-0.03477912 0.68400002 -0.01319208 1.0698325e-38 291 251
-0.033530746 0.68300003 -0.013172794 1.0700123e-38 292 251
-0.032285877 0.68199998 -0.013153506 1.0884514e-38 293 251
-0.030998932 0.68000001 -0.013114933 1.1252218e-38 294 251
-0.029806666 0.68000001 -0.013114933 1.2174533e-38 295 251
-0.028572321 0.67900002 -0.013095647 1.3096488e-38 296 251
-0.027341479 0.67799997 -0.013076359 1.28199e-38 297 251
-0.026075572 0.676 -0.013037786 1.2358923e-38 298 251
-0.024816679 0.67400002 -0.012999214 1.1990139e-38 299 251
-0.023529733 0.671 -0.012941353 1.0793042e-38 300 251
-0.022219993 0.667 -0.012864206 1.0055477e-38 301 251
-0.021050518 0.667 -0.012864206 1.0698691e-38 302 251
-0.019761819 0.66299999 -0.012787059 1.1251865e-38 303 251
-0.018571306 0.662 -0.012767773 1.208126e-38 304 251
-0.017410601 0.662 -0.012767773 1.2542238e-38 305 251
-0.016225345 0.66100001 -0.012748486 1.1893602e-38 306 251
-0.015066394 0.66100001 -0.012748486 9.4046801e-39 307 251
-0.01390744 0.66100001 -0.012748486 7.0925615e-39 308 251
-0.012748486 0.66100001 -0.012748486 7.3687882e-39 309 251
-0.011589534 0.66100001 -0.012748486 7.5535354e-39 310 251
-0.01044636 0.662 -0.012767773 7.5535354e-39 311 251
-0.009285653 0.662 -0.012767773 8.1060085e-39 312 251
-0.0081494926 0.66399997 -0.012806346 1.0871879e-38 313 251
-0.0069852793 0.66399997 -0.012806346 9.8656513e-39 314 251
-0.0058385995 0.66600001 -0.01284492 1.0050044e-38 315 251
-0.0046708798 0.66600001 -0.01284492 1.0325557e-38 316 251
-0.0035241998 0.67000002 -0.012922067 1.0417753e-38 317 251
-0.0023494666 0.67000002 -0.012922067 1.04174e-38 318 251
-0.0011764866 0.671 -0.012941353 1.0509954e-38 319 251
0 0.671 -0.012941353 1.0693264e-38 320 251
0.0011782399 0.67199999 -0.012960639 1.0693264e-38 321 251
0.0023669999 0.67500001 -0.0130185 1.0509951e-38 322 251
0.0035557596 0.676 -0.013037786 1.0509951e-38 323 251
0.0047410131 0.676 -0.013037786 1.0692898e-38 324 251
0.0059437994 0.67799997 -0.013076359 1.023192e-38 325 251
0.0071535995 0.68000001 -0.013114933 9.7687711e-39 326 251
0.0083704125 0.68199998 -0.013153506 5.2511852e-39 327 251
0.0095802136 0.68300003 -0.013172794 3.8718451e-39 328 251
0.01079352 0.68400002 -0.01319208 4.5172145e-39 329 251
0.012027865 0.68599999 -0.013230653 5.4370016e-39 330 251
0.013249939 0.68699998 -0.013249939 5.8061443e-39 331 251
0.014454478 0.68699998 -0.013249939 7.3705931e-39 332 251
0.015681813 0.68800002 -0.013269227 8.2003538e-39 333 251
0.016888106 0.68800002 -0.013269227 9.5851057e-39 334 251
0.018146999 0.69 -0.0133078 1.0230475e-38 335 251
0.019384852 0.69099998 -0.013327086 1.041774e-38 336 251
0.020656019 0.69300002 -0.01336566 1.041774e-38 337 251
0.021871079 0.69300002 -0.01336566 1.0143662e-38 338 251
0.023119451 0.69400001 -0.013384946 1.0328412e-38 339 251
0.024336265 0.69400001 -0.013384946 1.0511724e-38 340 251
0.025553079 0.69400001 -0.013384946 1.0511724e-38 341 251
0.026924185 0.69800001 -0.013462093 1.041881e-38 342 251
0.028268991 0.70099998 -0.013519952 1.041881e-38 343 251
0.029582238 0.70300001 -0.013558527 1.050921e-38 344 251
0.030858666 0.704 -0.013577812 1.0232623e-38 345 251
0.032093015 0.704 -0.013577812 1.0231194e-38 346 251
0.033469379 0.70700002 -0.013635674 9.7702158e-39 347 251
0.034758076 0.708 -0.013654959 9.5851057e-39 348 251
0.03599944 0.708 -0.013654959 9.3081587e-39 349 251
0.037345998 0.70999998 -0.013693533 9.0319291e-39 350 251
0.038645219 0.71100003 -0.01371282 8.8475379e-39 351 251
0.040004052 0.713 -0.013751393 8.5709496e-39 352 251
0.041312039 0.71399999 -0.01377068 8.2943641e-39 353 251
0.042563915 0.71399999 -0.01377068 8.3847632e-39 354 251
0.043999899 0.71700001 -0.013828539 8.2925676e-39 355 251
0.045383278 0.71899998 -0.013867113 8.2018041e-39 356 251
0.0467088 0.72000003 -0.0138864 8.1092498e-39 357 251
0.0479712 0.72000003 -0.0138864 6.8174193e-39 358 251
0.0492336 0.72000003 -0.0138864 5.2497335e-39 359 251
0.050636265 0.722 -0.013924973 1.3549141e-38 360 251
0.051902171 0.722 -0.013924973 1.6038783e-38 361 251
0.053388998 0.72500002 -0.013982833 1.8805388e-38 362 251
-0.064114138 0.71700001 -0.015085679 1.7423179e-38 269 252
-0.062769331 0.71600002 -0.01506464 1.217488e-38 270 252
-0.061513945 0.71600002 -0.01506464 1.2267076e-38 271 252
-0.06025856 0.71600002 -0.01506464 1.2819546e-38 272 252
-0.058838356 0.71399999 -0.015022559 1.2266374e-38 273 252
-0.057505824 0.713 -0.015001519 1.1989067e-38 274 252
-0.056097899 0.71100003 -0.014959441 1.1528089e-38 275 252
-0.054774132 0.70999998 -0.014938398 1.1528089e-38 276 252
-0.053303085 0.70700002 -0.01487528 1.1528089e-38 277 252
-0.051989835 0.70599997 -0.014854239 1.1344416e-38 278 252
-0.050751984 0.70599997 -0.014854239 1.1436612e-38 279 252
-0.049373865 0.704 -0.014812159 1.1899035e-38 280 252
-0.048139516 0.704 -0.014812159 1.1991232e-38 281 252
-0.046705291 0.70099998 -0.014749039 1.2176695e-38 282 252
-0.04541133 0.69999999 -0.014727999 1.2268891e-38 283 252
-0.04405776 0.69800001 -0.01468592 1.2268177e-38 284 252
-0.042711195 0.69599998 -0.014643839 1.0147319e-38 285 252
-0.041371655 0.69400001 -0.01460176 1.0423902e-38 286 252
-0.04009698 0.69300002 -0.014580719 1.1346218e-38 287 252
-0.038769703 0.69099998 -0.014538639 1.1437313e-38 288 252
-0.03755815 0.69099998 -0.014538639 1.0791943e-38 289 252
-0.036293998 0.69 -0.014517599 1.0514636e-38 290 252
-0.03477912 0.68400002 -0.01439136 1.106781e-38 291 252
-0.033530746 0.68300003 -0.014370319 1.0883072e-38 292 252
-0.032333218 0.68300003 -0.014370319 1.0698681e-38 293 252
-0.031090107 0.68199998 -0.01434928 1.0516098e-38 294 252
-0.029806666 0.68000001 -0.014307199 1.153061e-38 295 252
-0.028572321 0.67900002 -0.01428616 1.2361092e-38 296 252
-0.027341479 0.67799997 -0.014265119 1.263732e-38 297 252
-0.026075572 0.676 -0.014223038 1.3004664e-38 298 252
-0.024816679 0.67400002 -0.01418096 1.2819914e-38 299 252
-0.023529733 0.671 -0.01411784 1.1897584e-38 300 252
-0.022219993 0.667 -0.014033679 1.06994e-38 301 252
-0.021050518 0.667 -0.014033679 1.0789076e-38 302 252
-0.019791625 0.66399997 -0.013970559 1.1618837e-38 303 252
-0.018599359 0.66299999 -0.013949519 1.1988711e-38 304 252
-0.017410601 0.662 -0.01392848 1.263408e-38 305 252
-0.016249891 0.662 -0.01392848 1.1709937e-38 306 252
-0.015089186 0.662 -0.01392848 9.2210147e-39 307 252
-0.01390744 0.66100001 -0.01390744 7.0007316e-39 308 252
-0.012748486 0.66100001 -0.01390744 7.2776772e-39 309 252
-0.011607066 0.662 -0.01392848 7.5531823e-39 310 252
-0.01044636 0.662 -0.01392848 7.4609867e-39 311 252
-0.0092996797 0.66299999 -0.013949519 7.8305133e-39 312 252
-0.0081494926 0.66399997 -0.013970559 1.004321e-38 313 252
-0.0070063197 0.66600001 -0.014012639 1.0232286e-38 314 252
-0.0058385995 0.66600001 -0.014012639 1.0324841e-38 315 252
-0.0046778931 0.667 -0.014033679 1.0233362e-38 316 252
-0.0035136798 0.66799998 -0.014054719 1.0417753e-38 317 252
-0.0023529732 0.671 -0.01411784 1.0601068e-38 318 252
-0.0011764866 0.671 -0.01411784 1.0601068e-38 319 252
0 0.671 -0.01411784 1.0693267e-38 320 252
0.0011834999 0.67500001 -0.014202001 1.0693267e-38 321 252
0.0023705065 0.676 -0.014223038 1.0601068e-38 322 252
0.0035557596 0.676 -0.014223038 1.0785459e-38 323 252
0.0047550397 0.67799997 -0.014265119 1.1243551e-38 324 252
0.0059613334 0.68000001 -0.014307199 9.952812e-39 325 252
0.00717464 0.68199998 -0.01434928 7.5618185e-39 326 252
0.0083826864 0.68300003 -0.014370319 3.5052094e-39 327 252
0.0095942402 0.68400002 -0.01439136 4.2373668e-39 328 252
0.01079352 0.68400002 -0.01439136 5.8046925e-39 329 252
0.012045399 0.68699998 -0.014454478 6.633377e-39 330 252
0.013249939 0.68699998 -0.014454478 6.8177696e-39 331 252
0.014454478 0.68699998 -0.014454478 8.1096029e-39 332 252
0.015727401 0.69 -0.014517599 9.3081461e-39 333 252
0.0169372 0.69 -0.014517599 1.0415941e-38 334 252
0.0181733 0.69099998 -0.014538639 1.0876561e-38 335 252
0.019384852 0.69099998 -0.014538639 1.069432e-38 336 252
0.020685827 0.69400001 -0.01460176 1.0786516e-38 337 252
0.021902639 0.69400001 -0.01460176 1.0603204e-38 338 252
0.023119451 0.69400001 -0.01460176 1.0511008e-38 339 252
0.024336265 0.69400001 -0.01460176 1.0602848e-38 340 252
0.025663542 0.69700003 -0.01466488 1.0418456e-38 341 252
0.026924185 0.69800001 -0.01468592 1.0233712e-38 342 252
0.028349647 0.70300001 -0.014791119 9.8649296e-39 343 252
0.029624319 0.704 -0.014812159 1.0138648e-38 344 252
0.030858666 0.704 -0.014812159 9.8620611e-39 345 252
0.032184184 0.70599997 -0.014854239 9.4929227e-39 346 252
0.033516716 0.708 -0.01489632 9.3088916e-39 347 252
0.034758076 0.708 -0.01489632 9.0323005e-39 348 252
0.036101133 0.70999998 -0.014938398 8.8479092e-39 349 252
0.037398599 0.71100003 -0.014959441 8.3880031e-39 350 252
0.038753927 0.713 -0.015001519 8.2039719e-39 351 252
0.040004052 0.713 -0.015001519 8.2028901e-39 352 252
0.041312039 0.71399999 -0.015022559 7.9263032e-39 353 252
0.042683143 0.71600002 -0.01506464 8.1088994e-39 354 252
0.043999899 0.71700001 -0.015085679 7.9245082e-39 355 252
0.045383278 0.71899998 -0.01512776 7.9255774e-39 356 252
0.0467088 0.72000003 -0.0151488 7.9255774e-39 357 252
0.0479712 0.72000003 -0.0151488 6.8166977e-39 358 252
0.04937036 0.722 -0.015190879 5.3415662e-39 359 252
0.050636265 0.722 -0.015190879 1.3826085e-38 360 252
0.051902171 0.722 -0.015190879 1.6407563e-38 361 252
0.053388998 0.72500002 -0.015254001 1.8622075e-38 362 252
0.054660168 0.72500002 -0.015254001 1.834513e-38 363 252
-0.064382397 0.72000003 -0.0164112 1.7423179e-38 269 253
-0.062856995 0.71700001 -0.016342819 1.2358193e-38 270 253
-0.061599858 0.71700001 -0.016342819 1.2450388e-38 271 253
-0.06025856 0.71600002 -0.016320027 1.2176342e-38 272 253
-0.059003171 0.71600002 -0.016320027 1.180792e-38 273 253
-0.057586476 0.71399999 -0.016274439 1.1621729e-38 274 253
-0.056255698 0.713 -0.016251646 1.1345142e-38 275 253
-0.054774132 0.70999998 -0.016183265 1.1436609e-38 276 253
-0.053378478 0.708 -0.01613768 1.1529163e-38 277 253
-0.05206348 0.70700002 -0.016114887 1.1345493e-38 278 253
-0.050751984 0.70599997 -0.016092092 1.1345493e-38 279 253
-0.049373865 0.704 -0.016046507 1.097852e-38 280 253
-0.048139516 0.704 -0.016046507 1.1347663e-38 281 253
-0.046838548 0.70300001 -0.016023712 1.2174547e-38 282 253
-0.045476202 0.70099998 -0.015978126 1.2451134e-38 283 253
-0.044183996 0.69999999 -0.015955333 1.2083783e-38 284 253
-0.042772565 0.69700003 -0.015886955 9.7785325e-39 285 253
-0.041490879 0.69599998 -0.015864158 9.8721645e-39 286 253
-0.040154841 0.69400001 -0.015818574 1.143913e-38 287 253
-0.03888192 0.69300002 -0.015795778 1.1623874e-38 288 253
-0.03755815 0.69099998 -0.015750192 1.1623874e-38 289 253
-0.036293998 0.69 -0.015727401 1.2356755e-38 290 253
-0.03477912 0.68400002 -0.01559064 1.1987971e-38 291 253
-0.033579841 0.68400002 -0.01559064 1.134153e-38 292 253
-0.032333218 0.68300003 -0.015567848 1.069616e-38 293 253
-0.031090107 0.68199998 -0.015545053 1.0423186e-38 294 253
-0.029806666 0.68000001 -0.015499466 1.1068555e-38 295 253
-0.028572321 0.67900002 -0.015476674 1.0151638e-38 296 253
-0.027341479 0.67799997 -0.015453878 1.0428224e-38 297 253
-0.026075572 0.676 -0.015408293 1.1990514e-38 298 253
-0.024816679 0.67400002 -0.015362706 1.2912112e-38 299 253
-0.023564799 0.67199999 -0.01531712 1.3095412e-38 300 253
-0.022319933 0.67000002 -0.015271533 1.2726629e-38 301 253
-0.021050518 0.667 -0.015203152 1.2539354e-38 302 253
-0.019791625 0.66399997 -0.015134773 1.1801789e-38 303 253
-0.018599359 0.66299999 -0.015111978 1.0978508e-38 304 253
-0.017436899 0.66299999 -0.015111978 1.1439486e-38 305 253
-0.016249891 0.662 -0.015089186 1.1617378e-38 306 253
-0.015089186 0.662 -0.015089186 9.4043242e-39 307 253
-0.01392848 0.662 -0.015089186 6.6330267e-39 308 253
-0.012767773 0.662 -0.015089186 6.909615e-39 309 253
-0.011607066 0.662 -0.015089186 7.4613398e-39 310 253
-0.01044636 0.662 -0.015089186 7.3691442e-39 311 253
-0.0092996797 0.66299999 -0.015111978 6.8192326e-39 312 253
-0.0081740404 0.66600001 -0.01518036 8.5709496e-39 313 253
-0.0070063197 0.66600001 -0.01518036 9.2192155e-39 314 253
-0.0058473665 0.667 -0.015203152 1.0325204e-38 315 253
-0.0046849065 0.66799998 -0.015225946 1.0234444e-38 316 253
-0.0035136798 0.66799998 -0.015225946 1.0326639e-38 317 253
-0.0023529732 0.671 -0.015294326 1.0509598e-38 318 253
-0.0011764866 0.671 -0.015294326 1.0509598e-38 319 253
0 0.67199999 -0.01531712 1.0509954e-38 320 253
0.0011834999 0.67500001 -0.0153855 1.04174e-38 321 253
0.0023705065 0.676 -0.015408293 1.0785096e-38 322 253
0.0035557596 0.676 -0.015408293 1.0047531e-38 323 253
0.0047620535 0.67900002 -0.015476674 9.6740517e-39 324 253
0.0059613334 0.68000001 -0.015499466 6.8163473e-39 325 253
0.00717464 0.68199998 -0.015545053 5.0667743e-39 326 253
0.0083826864 0.68300003 -0.015567848 5.0667743e-39 327 253
0.0095942402 0.68400002 -0.01559064 5.9887377e-39 328 253
0.010825079 0.68599999 -0.015636226 6.5419114e-39 329 253
0.012045399 0.68699998 -0.015659019 7.8322971e-39 330 253
0.013249939 0.68699998 -0.015659019 9.0308389e-39 331 253
0.014475521 0.68800002 -0.015681813 1.041414e-38 332 253
0.015750192 0.69099998 -0.015750192 1.1151706e-38 333 253
0.016961746 0.69099998 -0.015750192 1.1155303e-38 334 253
0.0181733 0.69099998 -0.015750192 1.0878714e-38 335 253
0.01944096 0.69300002 -0.015795778 1.0512803e-38 336 253
0.020685827 0.69400001 -0.015818574 1.0420607e-38 337 253
0.021965759 0.69599998 -0.015864158 1.0603204e-38 338 253
0.023186078 0.69599998 -0.015864158 1.0511008e-38 339 253
0.024441468 0.69700003 -0.015886955 1.0508134e-38 340 253
0.025700359 0.69800001 -0.015909746 1.0323743e-38 341 253
0.027001332 0.69999999 -0.015955333 1.0138279e-38 342 253
0.028349647 0.70300001 -0.016023712 9.9535281e-39 343 253
0.029624319 0.704 -0.016046507 1.0043929e-38 344 253
0.030946331 0.70599997 -0.016092092 9.6755049e-39 345 253
0.032229774 0.70700002 -0.016114887 9.5833036e-39 346 253
0.033516716 0.708 -0.01613768 9.2148812e-39 347 253
0.034856264 0.70999998 -0.016183265 8.5716726e-39 348 253
0.036101133 0.70999998 -0.016183265 8.2028901e-39 349 253
0.037398599 0.71100003 -0.01620606 8.1085491e-39 350 253
0.038753927 0.713 -0.016251646 8.1085491e-39 351 253
0.040060159 0.71399999 -0.016274439 7.6515282e-39 352 253
0.041312039 0.71399999 -0.016274439 7.4674971e-39 353 253
0.042683143 0.71600002 -0.016320027 7.4682019e-39 354 253
0.043999899 0.71700001 -0.016342819 7.4682019e-39 355 253
0.045383278 0.71899998 -0.016388407 7.8348139e-39 356 253
0.0467088 0.72000003 -0.0164112 7.9270095e-39 357 253
0.048104454 0.722 -0.016456785 7.1865508e-39 358 253
0.04937036 0.722 -0.016456785 5.6192265e-39 359 253
0.050636265 0.722 -0.016456785 1.4193789e-38 360 253
0.051974058 0.72299999 -0.01647958 1.6867462e-38 361 253
0.053241719 0.72299999 -0.01647958 1.8529524e-38 362 253
0.054509375 0.72299999 -0.01647958 1.8252935e-38 363 253
-0.064382397 0.72000003 -0.017673599 1.7882711e-38 269 254
-0.06312 0.72000003 -0.017673599 1.2998883e-38 270 254
-0.061771683 0.71899998 -0.017649053 1.2814133e-38 271 254
-0.060342718 0.71700001 -0.017599959 1.2541885e-38 272 254
-0.059003171 0.71600002 -0.017575413 1.1988711e-38 273 254
-0.057586476 0.71399999 -0.017526319 1.1713559e-38 274 254
-0.056255698 0.713 -0.017501773 1.1528808e-38 275 254
-0.054851279 0.71100003 -0.01745268 1.1345848e-38 276 254
-0.053378478 0.708 -0.017379038 1.1345848e-38 277 254
-0.05206348 0.70700002 -0.017354494 1.1528445e-38 278 254
-0.050751984 0.70599997 -0.017329946 1.1712476e-38 279 254
-0.049373865 0.704 -0.017280852 1.1529178e-38 280 254
-0.048139516 0.704 -0.017280852 1.1805764e-38 281 254
-0.046838548 0.70300001 -0.017256306 1.208343e-38 282 254
-0.045476202 0.70099998 -0.017207211 1.2267822e-38 283 254
-0.044183996 0.69999999 -0.017182667 1.2542591e-38 284 254
-0.042833932 0.69800001 -0.017133573 1.1344048e-38 285 254
-0.041490879 0.69599998 -0.017084479 9.9657824e-39 286 254
-0.040154841 0.69400001 -0.017035386 1.1348717e-38 287 254
-0.03888192 0.69300002 -0.01701084 1.2358923e-38 288 254
-0.03755815 0.69099998 -0.016961746 1.3096488e-38 289 254
-0.036293998 0.69 -0.0169372 1.3003568e-38 290 254
-0.03498251 0.68800002 -0.016888106 1.2634787e-38 291 254
-0.033579841 0.68400002 -0.016789921 1.2080531e-38 292 254
-0.032333218 0.68300003 -0.016765373 1.0605761e-38 293 254
-0.031090107 0.68199998 -0.016740825 1.1527007e-38 294 254
-0.029806666 0.68000001 -0.016691733 1.125078e-38 295 254
-0.028530238 0.67799997 -0.016642639 1.0330266e-38 296 254
-0.027341479 0.67799997 -0.016642639 1.0238069e-38 297 254
-0.026075572 0.676 -0.016593546 1.0333507e-38 298 254
-0.0248535 0.67500001 -0.016569 1.1255465e-38 299 254
-0.023564799 0.67199999 -0.01649536 1.2085947e-38 300 254
-0.022353247 0.671 -0.016470812 1.2546925e-38 301 254
-0.021082079 0.66799998 -0.016397171 1.3186535e-38 302 254
-0.019851239 0.66600001 -0.016348081 1.2541166e-38 303 254
-0.018627413 0.66399997 -0.016298985 1.1806468e-38 304 254
-0.017436899 0.66299999 -0.016274439 1.1991218e-38 305 254
-0.016274439 0.66299999 -0.016274439 1.1618094e-38 306 254
-0.015111978 0.66299999 -0.016274439 9.2210091e-39 307 254
-0.01392848 0.662 -0.016249891 6.35716e-39 308 254
-0.012767773 0.662 -0.016249891 6.6341071e-39 309 254
-0.0116246 0.66299999 -0.016274439 7.368791e-39 310 254
-0.01046214 0.66299999 -0.016274439 7.4609867e-39 311 254
-0.0093137063 0.66399997 -0.016298985 7.1851439e-39 312 254
-0.0081740404 0.66600001 -0.016348081 8.1992972e-39 313 254
-0.0070168395 0.667 -0.016372627 8.6649627e-39 314 254
-0.0058473665 0.667 -0.016372627 1.0324485e-38 315 254
-0.0046849065 0.66799998 -0.016397171 1.060215e-38 316 254
-0.0035241998 0.67000002 -0.016446266 1.060215e-38 317 254
-0.0023529732 0.671 -0.016470812 1.0694343e-38 318 254
-0.0011782399 0.67199999 -0.01649536 1.0694343e-38 319 254
0 0.67400002 -0.016544454 1.0602144e-38 320 254
0.0011834999 0.67500001 -0.016569 1.0602144e-38 321 254
0.0023705065 0.676 -0.016593546 1.0601055e-38 322 254
0.0035662798 0.67799997 -0.016642639 8.9415342e-39 323 254
0.0047690663 0.68000001 -0.016691733 7.8308454e-39 324 254
0.005978866 0.68199998 -0.016740825 5.6181503e-39 325 254
0.0071851597 0.68300003 -0.016765373 4.1437292e-39 326 254
0.0083949603 0.68400002 -0.016789921 6.4482613e-39 327 254
0.0096222926 0.68599999 -0.016839013 7.0018134e-39 328 254
0.010840859 0.68699998 -0.01686356 7.8312139e-39 329 254
0.012045399 0.68699998 -0.01686356 8.6631424e-39 330 254
0.013249939 0.68699998 -0.01686356 1.0046077e-38 331 254
0.014517599 0.69 -0.0169372 1.1060592e-38 332 254
0.015750192 0.69099998 -0.016961746 1.1429015e-38 333 254
0.016961746 0.69099998 -0.016961746 1.0970911e-38 334 254
0.018225901 0.69300002 -0.01701084 1.0878714e-38 335 254
0.019469013 0.69400001 -0.017035386 1.0786163e-38 336 254
0.020745439 0.69599998 -0.017084479 1.0601772e-38 337 254
0.021965759 0.69599998 -0.017084479 1.0325192e-38 338 254
0.023219392 0.69700003 -0.017109027 1.0048245e-38 339 254
0.024441468 0.69700003 -0.017109027 9.954977e-39 340 254
0.025773998 0.69999999 -0.017182667 9.5865532e-39 341 254
0.027039904 0.70099998 -0.017207211 9.5851183e-39 342 254
0.028389972 0.704 -0.017280852 9.2166959e-39 343 254
0.029624319 0.704 -0.017280852 9.0312285e-39 344 254
0.030946331 0.70599997 -0.017329946 8.6620858e-39 345 254
0.03227536 0.708 -0.017379038 8.3869339e-39 346 254
0.033516716 0.708 -0.017379038 8.3869339e-39 347 254
0.034856264 0.70999998 -0.017428132 8.1092694e-39 348 254
0.036151983 0.71100003 -0.01745268 8.1092694e-39 349 254
0.037503798 0.713 -0.017501773 7.7422805e-39 350 254
0.038808275 0.71399999 -0.017526319 7.8344775e-39 351 254
0.040060159 0.71399999 -0.017526319 7.9270235e-39 352 254
0.041312039 0.71399999 -0.017526319 8.1117735e-39 353 254
0.042683143 0.71600002 -0.017575413 7.8351824e-39 354 254
0.043999899 0.71700001 -0.017599959 7.742628e-39 355 254
0.045383278 0.71899998 -0.017649053 7.7433371e-39 356 254
0.0467088 0.72000003 -0.017673599 7.7433371e-39 357 254
0.048104454 0.722 -0.017722692 6.9099653e-39 358 254
0.04937036 0.722 -0.017722692 5.5270308e-39 359 254
0.050636265 0.722 -0.017722692 1.4102672e-38 360 254
0.051974058 0.72299999 -0.017747238 1.6960378e-38 361 254
0.053241719 0.72299999 -0.017747238 1.8712836e-38 362 254
0.054509375 0.72299999 -0.017747238 1.8344412e-38 363 254
-0.064382397 0.72000003 -0.018935999 1.8067823e-38 269 255
-0.06312 0.72000003 -0.018935999 1.3276176e-38 270 255
-0.061857603 0.72000003 -0.018935999 1.2538253e-38 271 255
-0.060511041 0.71899998 -0.018909698 1.1806468e-38 272 255
-0.059085581 0.71700001 -0.018857099 1.1161098e-38 273 255
-0.057747785 0.71600002 -0.0188308 1.1436609e-38 274 255
-0.056255698 0.713 -0.018751899 1.1529163e-38 275 255
-0.054851279 0.71100003 -0.0186993 1.1621358e-38 276 255
-0.053529263 0.70999998 -0.018672999 1.1621358e-38 277 255
-0.05206348 0.70700002 -0.018594101 1.1345848e-38 278 255
-0.050751984 0.70599997 -0.018567799 1.1345848e-38 279 255
-0.04951413 0.70599997 -0.018567799 1.1712476e-38 280 255
-0.048139516 0.704 -0.018515198 1.2357845e-38 281 255
-0.046905171 0.704 -0.018515198 1.2819549e-38 282 255
-0.04560595 0.70300001 -0.018488899 1.2819549e-38 283 255
-0.044183996 0.69999999 -0.018409999 1.3094691e-38 284 255
-0.042833932 0.69800001 -0.0183574 1.272555e-38 285 255
-0.041550495 0.69700003 -0.018331099 1.1899022e-38 286 255
-0.040270556 0.69599998 -0.018304799 1.1991218e-38 287 255
-0.038938027 0.69400001 -0.0182522 1.2084137e-38 288 255
-0.037666857 0.69300002 -0.018225901 1.2268528e-38 289 255
-0.036346599 0.69099998 -0.0181733 1.2361442e-38 290 255
-0.03498251 0.68800002 -0.0180944 1.263767e-38 291 255
-0.033579841 0.68400002 -0.0179892 1.2911743e-38 292 255
-0.032333218 0.68300003 -0.017962901 1.2635155e-38 293 255
-0.031090107 0.68199998 -0.017936599 1.2634787e-38 294 255
-0.029894331 0.68199998 -0.017936599 1.1528439e-38 295 255
-0.028530238 0.67799997 -0.0178314 1.0788712e-38 296 255
-0.027341479 0.67799997 -0.0178314 1.0788712e-38 297 255
-0.026075572 0.676 -0.017778801 9.6881348e-39 298 255
-0.0248535 0.67500001 -0.0177525 9.5041036e-39 299 255
-0.023634933 0.67400002 -0.0177262 9.9690475e-39 300 255
-0.022386558 0.67199999 -0.017673599 1.1351982e-38 301 255
-0.021082079 0.66799998 -0.017568398 1.3003945e-38 302 255
-0.019851239 0.66600001 -0.017515799 1.3003945e-38 303 255
-0.018627413 0.66399997 -0.0174632 1.318796e-38 304 255
-0.0174632 0.66399997 -0.0174632 1.3095763e-38 305 255
-0.016274439 0.66299999 -0.017436899 1.1710646e-38 306 255
-0.015111978 0.66299999 -0.017436899 9.4053962e-39 307 255
-0.013949519 0.66299999 -0.017436899 6.172766e-39 308 255
-0.012787059 0.66299999 -0.017436899 6.5419086e-39 309 255
-0.0116246 0.66299999 -0.017436899 7.1858291e-39 310 255
-0.010477919 0.66399997 -0.0174632 7.1858291e-39 311 255
-0.0093137063 0.66399997 -0.0174632 7.5531851e-39 312 255
-0.0081740404 0.66600001 -0.017515799 7.6453821e-39 313 255
-0.0070168395 0.667 -0.0175421 8.1114232e-39 314 255
-0.0058561331 0.66799998 -0.017568398 1.0415954e-38 315 255
-0.0046849065 0.66799998 -0.017568398 1.0327002e-38 316 255
-0.0035241998 0.67000002 -0.017620999 1.0419198e-38 317 255
-0.0023529732 0.671 -0.0176473 1.0511751e-38 318 255
-0.0011782399 0.67199999 -0.017673599 1.0419554e-38 319 255
0 0.67500001 -0.0177525 1.0419907e-38 320 255
0.0011852533 0.676 -0.017778801 1.0050766e-38 321 255
0.0023775198 0.67799997 -0.0178314 9.7723682e-39 322 255
0.0035715401 0.67900002 -0.017857701 6.8221067e-39 323 255
0.0047690663 0.68000001 -0.017883999 4.88203e-39 324 255
0.005978866 0.68199998 -0.017936599 5.2511726e-39 325 255
0.0071851597 0.68300003 -0.017962901 6.172403e-39 326 255
0.0083949603 0.68400002 -0.0179892 7.0021637e-39 327 255
0.0096222926 0.68599999 -0.018041799 7.9252088e-39 328 255
0.010840859 0.68699998 -0.018068098 9.6769258e-39 329 255
0.012045399 0.68699998 -0.018068098 1.0600334e-38 330 255
0.013249939 0.68699998 -0.018068098 1.152193e-38 331 255
0.014517599 0.69 -0.018146999 1.1338618e-38 332 255
0.015750192 0.69099998 -0.0181733 1.1062029e-38 333 255
0.016961746 0.69099998 -0.0181733 1.0602848e-38 334 255
0.018225901 0.69300002 -0.018225901 1.0418456e-38 335 255
0.019469013 0.69400001 -0.0182522 1.0507784e-38 336 255
0.020745439 0.69599998 -0.018304799 1.0230838e-38 337 255
0.02199732 0.69700003 -0.018331099 1.0230125e-38 338 255
0.023219392 0.69700003 -0.018331099 9.9531778e-39 339 255
0.024476532 0.69800001 -0.0183574 9.5854742e-39 340 255
0.025773998 0.69999999 -0.018409999 9.4932786e-39 341 255
0.027117053 0.70300001 -0.018488899 9.2170477e-39 342 255
0.028389972 0.704 -0.018515198 8.6638753e-39 343 255
0.029708479 0.70599997 -0.018567799 8.2940166e-39 344 255
0.030946331 0.70599997 -0.018567799 8.0170695e-39 345 255
0.03227536 0.708 -0.0186204 8.2922117e-39 346 255
0.033516716 0.708 -0.0186204 8.3847661e-39 347 255
0.034856264 0.70999998 -0.018672999 7.741912e-39 348 255
0.036151983 0.71100003 -0.0186993 7.8341076e-39 349 255
0.037503798 0.713 -0.018751899 7.6515142e-39 350 255
0.038808275 0.71399999 -0.018778199 7.8359069e-39 351 255
0.040060159 0.71399999 -0.018778199 7.9273766e-39 352 255
0.041427758 0.71600002 -0.0188308 7.8351796e-39 353 255
0.042742759 0.71700001 -0.018857099 8.2003664e-39 354 255
0.044122629 0.71899998 -0.018909698 8.1081708e-39 355 255
0.045446403 0.72000003 -0.018935999 7.9255746e-39 356 255
0.046838548 0.722 -0.0189886 8.0181289e-39 357 255
0.048104454 0.722 -0.0189886 7.0007288e-39 358 255
0.04937036 0.722 -0.0189886 5.4337618e-39 359 255
0.050636265 0.722 -0.0189886 1.428671e-38 360 255
0.051974058 0.72299999 -0.019014901 1.723697e-38 361 255
0.053241719 0.72299999 -0.019014901 1.8804669e-38 362 255
-0.06312 0.72000003 -0.020198401 1.3736077e-38 270 256
-0.061857603 0.72000003 -0.020198401 1.2076554e-38 271 256
-0.060511041 0.71899998 -0.020170346 1.1251852e-38 272 256
-0.059085581 0.71700001 -0.020114239 1.088307e-38 273 256
-0.057747785 0.71600002 -0.020086186 1.1343695e-38 274 256
-0.0563346 0.71399999 -0.020030079 1.1712476e-38 275 256
-0.055005573 0.713 -0.020002026 1.1621358e-38 276 256
-0.053529263 0.70999998 -0.019917866 1.1713553e-38 277 256
-0.052137118 0.708 -0.01986176 1.1990136e-38 278 256
-0.050823875 0.70700002 -0.019833706 1.1990136e-38 279 256
-0.04951413 0.70599997 -0.019805651 1.1621361e-38 280 256
-0.048276275 0.70599997 -0.019805651 1.1989783e-38 281 256
-0.046905171 0.704 -0.019749546 1.2358575e-38 282 256
-0.04560595 0.70300001 -0.019721493 1.2726998e-38 283 256
-0.044183996 0.69999999 -0.019637333 1.3095061e-38 284 256
-0.042833932 0.69800001 -0.019581227 1.2726279e-38 285 256
-0.041610107 0.69800001 -0.019581227 1.2175979e-38 286 256
-0.040328421 0.69700003 -0.019553173 1.2175979e-38 287 256
-0.038938027 0.69400001 -0.019469013 1.2084499e-38 288 256
-0.037721213 0.69400001 -0.019469013 1.2176695e-38 289 256
-0.036346599 0.69099998 -0.019384852 1.1992304e-38 290 256
-0.035084199 0.69 -0.019356798 1.2084499e-38 291 256
-0.033727121 0.68699998 -0.019272638 1.272915e-38 292 256
-0.032333218 0.68300003 -0.019160427 1.2821346e-38 293 256
-0.031135695 0.68300003 -0.019160427 1.3003562e-38 294 256
-0.029894331 0.68199998 -0.019132372 1.2358193e-38 295 256
-0.028614398 0.68000001 -0.019076265 1.2261315e-38 296 256
-0.027381808 0.67900002 -0.019048214 1.1615946e-38 297 256
-0.026152719 0.67799997 -0.019020159 1.0054028e-38 298 256
-0.024890319 0.676 -0.018964052 9.9618322e-39 299 256
-0.023669999 0.67500001 -0.018935999 1.0515382e-38 300 256
-0.022453187 0.67400002 -0.018907947 1.1621729e-38 301 256
-0.021176759 0.671 -0.018823786 1.1806839e-38 302 256
-0.019881045 0.667 -0.018711573 1.1991232e-38 303 256
-0.018683519 0.66600001 -0.018683519 1.2820616e-38 304 256
-0.0174632 0.66399997 -0.018627413 1.3097563e-38 305 256
-0.016274439 0.66299999 -0.018599359 1.1711363e-38 306 256
-0.015111978 0.66299999 -0.018599359 9.2220811e-39 307 256
-0.013970559 0.66399997 -0.018627413 6.0816493e-39 308 256
-0.012806346 0.66399997 -0.018627413 6.4504319e-39 309 256
-0.011642133 0.66399997 -0.018627413 7.0932775e-39 310 256
-0.010477919 0.66399997 -0.018627413 7.0932775e-39 311 256
-0.0093417596 0.66600001 -0.018683519 7.2776716e-39 312 256
-0.0081863133 0.667 -0.018711573 7.2776716e-39 313 256
-0.0070273597 0.66799998 -0.018739626 8.6602613e-39 314 256
-0.0058561331 0.66799998 -0.018739626 1.0872598e-38 315 256
-0.0046989331 0.67000002 -0.018795732 1.0326639e-38 316 256
-0.0035241998 0.67000002 -0.018795732 1.0602866e-38 317 256
-0.0023564799 0.67199999 -0.018851839 1.0695419e-38 318 256
-0.0011834999 0.67500001 -0.018935999 1.0695419e-38 319 256
0 0.67500001 -0.018935999 1.0787968e-38 320 256
0.0011852533 0.676 -0.018964052 1.0142598e-38 321 256
0.0023775198 0.67799997 -0.019020159 8.6660165e-39 322 256
0.0035715401 0.67900002 -0.019048214 6.0845388e-39 323 256
0.0047690663 0.68000001 -0.019076265 5.0639045e-39 324 256
0.0059876335 0.68300003 -0.019160427 6.1702506e-39 325 256
0.0071956799 0.68400002 -0.01918848 6.6348259e-39 326 256
0.0084195063 0.68599999 -0.019244585 8.3861842e-39 327 256
0.0096363192 0.68699998 -0.019272638 9.2163134e-39 328 256
0.010840859 0.68699998 -0.019272638 1.0783999e-38 329 256
0.012045399 0.68699998 -0.019272638 1.0602851e-38 330 256
0.0133078 0.69 -0.019356798 1.0879079e-38 331 256
0.014517599 0.69 -0.019356798 1.1061311e-38 332 256
0.015750192 0.69099998 -0.019384852 1.0600334e-38 333 256
0.01701084 0.69300002 -0.01944096 1.0415951e-38 334 256
0.018225901 0.69300002 -0.01944096 1.0139724e-38 335 256
0.019469013 0.69400001 -0.019469013 9.954261e-39 336 256
0.020745439 0.69599998 -0.019525118 9.7698683e-39 337 256
0.02199732 0.69700003 -0.019553173 9.8609821e-39 338 256
0.023252707 0.69800001 -0.019581227 9.4925597e-39 339 256
0.024476532 0.69800001 -0.019581227 9.1252122e-39 340 256
0.025884461 0.70300001 -0.019721493 8.941181e-39 341 256
0.027117053 0.70300001 -0.019721493 8.5720426e-39 342 256
0.028389972 0.704 -0.019749546 8.0188688e-39 343 256
0.029708479 0.70599997 -0.019805651 7.6508122e-39 344 256
0.030990168 0.70700002 -0.019833706 7.5586151e-39 345 256
0.03227536 0.708 -0.01986176 7.2849037e-39 346 256
0.033611398 0.70999998 -0.019917866 7.2849037e-39 347 256
0.034905359 0.71100003 -0.01994592 7.1008642e-39 348 256
0.036253672 0.713 -0.020002026 7.0083098e-39 349 256
0.037503798 0.713 -0.020002026 7.3756504e-39 350 256
0.038808275 0.71399999 -0.020030079 7.467846e-39 351 256
0.040060159 0.71399999 -0.020030079 8.1092498e-39 352 256
0.041427758 0.71600002 -0.020086186 8.0170541e-39 353 256
0.042742759 0.71700001 -0.020114239 8.2007195e-39 354 256
0.044122629 0.71899998 -0.020170346 8.2007195e-39 355 256
0.045446403 0.72000003 -0.020198401 8.2021516e-39 356 256
0.046838548 0.722 -0.020254506 8.2021516e-39 357 256
0.048104454 0.722 -0.020254506 6.8166977e-39 358 256
0.049438741 0.72299999 -0.020282559 5.1571749e-39 359 256
0.050706398 0.72299999 -0.020282559 1.4195238e-38 360 256
0.051974058 0.72299999 -0.020282559 1.7329889e-38 361 256
-0.062029421 0.722 -0.021520413 1.1707773e-38 271 257
-0.060511041 0.71899998 -0.021430992 1.0239495e-38 272 257
-0.059085581 0.71700001 -0.021371379 1.0331691e-38 273 257
-0.057747785 0.71600002 -0.021341572 1.125078e-38 274 257
-0.0563346 0.71399999 -0.021281958 1.2080181e-38 275 257
-0.055005573 0.713 -0.021252153 1.2081979e-38 276 257
-0.053604662 0.71100003 -0.021192541 1.1713556e-38 277 257
-0.052284397 0.70999998 -0.021162732 1.2634787e-38 278 257
-0.050823875 0.70700002 -0.021073313 1.2819178e-38 279 257
-0.04951413 0.70599997 -0.021043506 1.2081979e-38 280 257
-0.048276275 0.70599997 -0.021043506 1.2081979e-38 281 257
-0.046905171 0.704 -0.020983893 1.2358928e-38 282 257
-0.04560595 0.70300001 -0.020954086 1.2727351e-38 283 257
-0.044183996 0.69999999 -0.020864666 1.2819549e-38 284 257
-0.042833932 0.69800001 -0.020805053 1.2727354e-38 285 257
-0.041610107 0.69800001 -0.020805053 1.2544757e-38 286 257
-0.040328421 0.69700003 -0.020775247 1.2452562e-38 287 257
-0.039050236 0.69599998 -0.020745439 1.2544038e-38 288 257
-0.037721213 0.69400001 -0.020685827 1.2544038e-38 289 257
-0.036451802 0.69300002 -0.020656019 1.1163266e-38 290 257
-0.035135046 0.69099998 -0.020596405 1.0425701e-38 291 257
-0.033727121 0.68699998 -0.020477179 1.1348011e-38 292 257
-0.032380559 0.68400002 -0.020387759 1.199338e-38 293 257
-0.031135695 0.68300003 -0.020357953 1.2634787e-38 294 257
-0.029894331 0.68199998 -0.020328145 1.2819178e-38 295 257
-0.028614398 0.68000001 -0.020268533 1.3186158e-38 296 257
-0.027381808 0.67900002 -0.020238725 1.2172366e-38 297 257
-0.026152719 0.67799997 -0.020208918 1.0789792e-38 298 257
-0.024890319 0.676 -0.020149305 1.0882347e-38 299 257
-0.023669999 0.67500001 -0.020119499 1.1341898e-38 300 257
-0.022486499 0.67500001 -0.020119499 1.1341898e-38 301 257
-0.021176759 0.671 -0.020000271 1.0148038e-38 302 257
-0.019881045 0.667 -0.019881045 1.0240592e-38 303 257
-0.018683519 0.66600001 -0.019851239 1.1807543e-38 304 257
-0.0174632 0.66399997 -0.019791625 1.27295e-38 305 257
-0.016298985 0.66399997 -0.019791625 1.1712445e-38 306 257
-0.015134773 0.66399997 -0.019791625 9.0387717e-39 307 257
-0.013970559 0.66399997 -0.019791625 6.0812962e-39 308 257
-0.012806346 0.66399997 -0.019791625 6.3578817e-39 309 257
-0.011642133 0.66399997 -0.019791625 7.0925615e-39 310 257
-0.01050948 0.66600001 -0.019851239 7.0925615e-39 311 257
-0.0093557863 0.667 -0.019881045 7.0932803e-39 312 257
-0.0081985854 0.66799998 -0.019910853 7.462423e-39 313 257
-0.0070273597 0.66799998 -0.019910853 8.7495619e-39 314 257
-0.0058736666 0.67000002 -0.019970467 1.0593473e-38 315 257
-0.0046989331 0.67000002 -0.019970467 9.9556805e-39 316 257
-0.0035294599 0.671 -0.020000271 1.0693246e-38 317 257
-0.0023564799 0.67199999 -0.020030079 1.0692911e-38 318 257
-0.0011852533 0.676 -0.020149305 1.0785106e-38 319 257
0 0.676 -0.020149305 1.1155321e-38 320 257
0.0011887599 0.67799997 -0.020208918 1.0233006e-38 321 257
0.0023810267 0.67900002 -0.020238725 7.9273766e-39 322 257
0.0035767998 0.68000001 -0.020268533 6.083464e-39 323 257
0.004783093 0.68199998 -0.020328145 6.7219839e-39 324 257
0.0059964 0.68400002 -0.020387759 7.2751577e-39 325 257
0.0072167199 0.68599999 -0.020447372 7.7400945e-39 326 257
0.0084317802 0.68699998 -0.020477179 1.0229376e-38 327 257
0.0096363192 0.68699998 -0.020477179 1.0600687e-38 328 257
0.010856641 0.68800002 -0.020506985 1.0876914e-38 329 257
0.012097999 0.69 -0.020566599 9.8670848e-39 330 257
0.0133078 0.69 -0.020566599 9.7748878e-39 331 257
0.014538639 0.69099998 -0.020596405 1.0598547e-38 332 257
0.015795778 0.69300002 -0.020656019 1.0230125e-38 333 257
0.01701084 0.69300002 -0.020656019 1.0137576e-38 334 257
0.0182522 0.69400001 -0.020685827 9.9528246e-39 335 257
0.019525118 0.69599998 -0.020745439 9.6776727e-39 336 257
0.020775247 0.69700003 -0.020775247 9.4929227e-39 337 257
0.02202888 0.69800001 -0.020805053 9.1252122e-39 338 257
0.023252707 0.69800001 -0.020805053 8.8489854e-39 339 257
0.024581732 0.70099998 -0.020894472 8.6649571e-39 340 257
0.025884461 0.70300001 -0.020954086 8.480926e-39 341 257
0.027155625 0.704 -0.020983893 8.2032685e-39 342 257
0.028470624 0.70599997 -0.021043506 8.1107141e-39 343 257
0.029750559 0.70700002 -0.021073313 7.285275e-39 344 257
0.031034 0.708 -0.021103119 7.1927207e-39 345 257
0.03227536 0.708 -0.021103119 6.8275311e-39 346 257
0.033611398 0.70999998 -0.021162732 6.5513043e-39 347 257
0.034905359 0.71100003 -0.021192541 6.8246444e-39 348 257
0.036253672 0.713 -0.021252153 6.7324488e-39 349 257
0.037556399 0.71399999 -0.021281958 7.8323097e-39 350 257
0.038916986 0.71600002 -0.021341572 7.9245054e-39 351 257
0.040172372 0.71600002 -0.021341572 8.4751456e-39 352 257
0.041427758 0.71600002 -0.021341572 8.6591767e-39 353 257
0.042742759 0.71700001 -0.021371379 8.4769365e-39 354 257
0.044122629 0.71899998 -0.021430992 8.4769365e-39 355 257
0.045446403 0.72000003 -0.021460801 8.4780141e-39 356 257
0.046838548 0.722 -0.021520413 8.385817e-39 357 257
0.048171077 0.72299999 -0.021550218 6.6323022e-39 358 257
0.049438741 0.72299999 -0.021550218 4.5118027e-39 359 257
0.050706398 0.72299999 -0.021550218 1.4287789e-38 360 257
0.052261602 0.727 -0.021669446 1.7422082e-38 361 257
-0.062029421 0.722 -0.022786319 1.0324836e-38 271 258
-0.060763516 0.722 -0.022786319 6.1918699e-39 272 258
-0.059250388 0.71899998 -0.022691639 7.4826087e-39 273 258
-0.057747785 0.71600002 -0.022596961 9.9632797e-39 274 258
-0.0563346 0.71399999 -0.022533838 1.0977433e-38 275 258
-0.055005573 0.713 -0.022502279 1.2263503e-38 276 258
-0.053604662 0.71100003 -0.022439159 1.2263503e-38 277 258
-0.052284397 0.70999998 -0.022407599 1.2910297e-38 278 258
-0.050895758 0.708 -0.022344479 1.3186884e-38 279 258
-0.04951413 0.70599997 -0.022281358 1.2176329e-38 280 258
