# .PCD v.7 - Point Cloud Data file format
FIELDS x y z rgb imX imY
SIZE 4 4 4 4 4 4
TYPE F F F F F F
COUNT 1 1 1 1 1 1
WIDTH 854
HEIGHT 1
VIEWPOINT 0 0 0 1 0 0 0
POINTS 854
DATA ascii
0.0035084197 0.667 0.021050518 1.1154784e-38 323 222
0.0046778931 0.667 0.021050518 7.4749072e-39 324 222
0.0058561331 0.66799998 0.021082079 5.3544399e-39 325 222
0.0070273597 0.66799998 0.021082079 5.8096713e-39 326 222
0.0082231332 0.67000002 0.0211452 6.086254e-39 327 222
0.0093978662 0.67000002 0.0211452 6.9113386e-39 328 222
0.0105726 0.67000002 0.0211452 7.0035328e-39 329 222
0.011764866 0.671 0.021176759 7.5545486e-39 330 222
0.012941353 0.671 0.021176759 8.2921136e-39 331 222
0.01411784 0.671 0.021176759 8.6633974e-39 332 222
0.015294326 0.671 0.021176759 9.3087668e-39 333 222
0.01649536 0.67199999 0.021208318 9.0343169e-39 334 222
0.0177262 0.67400002 0.021271439 9.2187054e-39 335 222
0.018964052 0.676 0.021334561 9.0364693e-39 336 222
0.020149305 0.676 0.021334561 9.4048875e-39 337 222
0.0214608 0.68000001 0.0214608 9.6793276e-39 338 222
0.022653066 0.68000001 0.0214608 9.2183509e-39 339 222
0.023915464 0.68199998 0.021523919 9.2151321e-39 340 222
0.02514806 0.68300003 0.02155548 9.1229365e-39 341 222
0.02638416 0.68400002 0.02158704 8.4783251e-39 342 222
0.027704418 0.68699998 0.021681719 8.4783251e-39 343 222
0.029077278 0.69099998 0.021807959 7.4681739e-39 344 222
-0.042158898 0.68699998 0.020477179 5.6375723e-39 285 223
-0.040894743 0.68599999 0.020447372 1.0418734e-38 286 223
-0.039344799 0.68000001 0.020268533 1.0971906e-38 287 223
-0.038152531 0.68000001 0.020268533 1.234902e-38 288 223
-0.036905911 0.67900002 0.020238725 1.2256824e-38 289 223
-0.0356628 0.67799997 0.020208918 1.2074215e-38 290 223
-0.034474038 0.67799997 0.020208918 1.1982021e-38 291 223
-0.033187091 0.676 0.020149305 1.2165333e-38 292 223
-0.031954501 0.67500001 0.020119499 1.2165333e-38 293 223
-0.030725412 0.67400002 0.020089693 1.1981311e-38 294 223
-0.029455997 0.67199999 0.020030079 1.2073506e-38 295 223
-0.028235679 0.671 0.020000271 1.2073509e-38 296 223
-0.027059194 0.671 0.020000271 1.1981313e-38 297 223
-0.025882706 0.671 0.020000271 1.1888763e-38 298 223
-0.024669399 0.67000002 0.019970467 1.1888763e-38 299 223
-0.023424532 0.66799998 0.019910853 1.1795846e-38 300 223
-0.022253305 0.66799998 0.019910853 1.1795846e-38 301 223
-0.021082079 0.66799998 0.019910853 1.1795843e-38 302 223
-0.019910853 0.66799998 0.019910853 1.1795843e-38 303 223
-0.018711573 0.667 0.019881045 1.1704372e-38 304 223
-0.0175421 0.667 0.019881045 1.1796568e-38 305 223
-0.016372627 0.667 0.019881045 1.1612902e-38 306 223
-0.015203152 0.667 0.019881045 1.1612902e-38 307 223
-0.014012639 0.66600001 0.019851239 1.1520707e-38 308 223
-0.01284492 0.66600001 0.019851239 1.1520707e-38 309 223
-0.011677199 0.66600001 0.019851239 1.1520707e-38 310 223
-0.01050948 0.66600001 0.019851239 1.1428152e-38 311 223
-0.0093417596 0.66600001 0.019851239 1.1428155e-38 312 223
-0.0081740404 0.66600001 0.019851239 1.1335959e-38 313 223
-0.0070063197 0.66600001 0.019851239 1.1335238e-38 314 223
-0.0058385995 0.66600001 0.019851239 1.1427433e-38 315 223
-0.0046708798 0.66600001 0.019851239 1.1611102e-38 316 223
-0.0035031599 0.66600001 0.019851239 1.1611102e-38 317 223
-0.0023354399 0.66600001 0.019851239 1.1611823e-38 318 223
-0.00116772 0.66600001 0.019851239 1.1796215e-38 319 223
0 0.667 0.019881045 1.1706166e-38 320 223
0.0011694733 0.667 0.019881045 1.1706166e-38 321 223
0.0023389466 0.667 0.019881045 1.1707591e-38 322 223
0.0035084197 0.667 0.019881045 1.1339173e-38 323 223
0.0046849065 0.66799998 0.019910853 8.3929034e-39 324 223
0.0058561331 0.66799998 0.019910853 7.1025429e-39 325 223
0.0070483997 0.67000002 0.019970467 8.2931758e-39 326 223
0.0082231332 0.67000002 0.019970467 8.2009816e-39 327 223
0.0094118929 0.671 0.020000271 7.8361605e-39 328 223
0.01058838 0.671 0.020000271 8.204943e-39 329 223
0.011764866 0.671 0.020000271 8.2063695e-39 330 223
0.012960639 0.67199999 0.020030079 8.3904007e-39 331 223
0.01413888 0.67199999 0.020030079 9.309106e-39 332 223
0.01531712 0.67199999 0.020030079 1.0046665e-38 333 223
0.016569 0.67500001 0.020119499 9.771512e-39 334 223
0.017778801 0.676 0.020149305 9.771512e-39 335 223
0.019020159 0.67799997 0.020208918 9.587841e-39 336 223
0.020208918 0.67799997 0.020208918 9.587841e-39 337 223
0.0214608 0.68000001 0.020268533 9.5860572e-39 338 223
0.022653066 0.68000001 0.020268533 9.0332421e-39 339 223
0.023915464 0.68199998 0.020328145 8.844923e-39 340 223
0.02514806 0.68300003 0.020357953 8.844923e-39 341 223
0.02638416 0.68400002 0.020387759 8.1106314e-39 342 223
0.027744746 0.68800002 0.020506985 8.1106314e-39 343 223
0.029161438 0.69300002 0.020656019 7.5600066e-39 344 223
-0.043552797 0.69 0.019356798 3.1486742e-39 284 224
-0.042158898 0.68699998 0.019272638 3.701848e-39 285 224
-0.040894743 0.68599999 0.019244585 7.0132774e-39 286 224
-0.039460517 0.68199998 0.019132372 8.9493856e-39 287 224
-0.038264744 0.68199998 0.019132372 1.2439436e-38 288 224
-0.036960267 0.68000001 0.019076265 1.2070653e-38 289 224
-0.035715401 0.67900002 0.019048214 1.2163905e-38 290 224
-0.034474038 0.67799997 0.019020159 1.207171e-38 291 224
-0.033187091 0.676 0.018964052 1.2070988e-38 292 224
-0.031954501 0.67500001 0.018935999 1.2070988e-38 293 224
-0.030771 0.67500001 0.018935999 1.1979158e-38 294 224
-0.029543666 0.67400002 0.018907947 1.2163908e-38 295 224
-0.028235679 0.671 0.018823786 1.1888763e-38 296 224
-0.027059194 0.671 0.018823786 1.1796568e-38 297 224
-0.025882706 0.671 0.018823786 1.1888044e-38 298 224
-0.024669399 0.67000002 0.018795732 1.1795849e-38 299 224
-0.023424532 0.66799998 0.018739626 1.170365e-38 300 224
-0.022253305 0.66799998 0.018739626 1.1611455e-38 301 224
-0.021082079 0.66799998 0.018739626 1.1794764e-38 302 224
-0.019910853 0.66799998 0.018739626 1.1887319e-38 303 224
-0.018739626 0.66799998 0.018739626 1.1611818e-38 304 224
-0.017568398 0.66799998 0.018739626 1.1704372e-38 305 224
-0.016372627 0.667 0.018711573 1.1520704e-38 306 224
-0.015203152 0.667 0.018711573 1.1520704e-38 307 224
-0.014012639 0.66600001 0.018683519 1.161182e-38 308 224
-0.01284492 0.66600001 0.018683519 1.161182e-38 309 224
-0.011677199 0.66600001 0.018683519 1.1611467e-38 310 224
-0.010525259 0.667 0.018711573 1.1427436e-38 311 224
-0.0093557863 0.667 0.018711573 1.1427436e-38 312 224
-0.0081740404 0.66600001 0.018683519 1.1335241e-38 313 224
-0.0070063197 0.66600001 0.018683519 1.1335591e-38 314 224
-0.0058385995 0.66600001 0.018683519 1.1243395e-38 315 224
-0.0046708798 0.66600001 0.018683519 1.1335594e-38 316 224
-0.0035031599 0.66600001 0.018683519 1.1335594e-38 317 224
-0.0023389466 0.667 0.018711573 1.1427439e-38 318 224
-0.0011694733 0.667 0.018711573 1.1795861e-38 319 224
0 0.667 0.018711573 1.143067e-38 320 224
0.0011694733 0.667 0.018711573 1.143067e-38 321 224
0.0023389466 0.667 0.018711573 1.1523923e-38 322 224
0.0035136798 0.66799998 0.018739626 1.1339531e-38 323 224
0.0046849065 0.66799998 0.018739626 9.6807527e-39 324 224
0.0058561331 0.66799998 0.018739626 8.9431989e-39 325 224
0.0070483997 0.67000002 0.018795732 9.2190641e-39 326 224
0.0082231332 0.67000002 0.018795732 9.0343169e-39 327 224
0.0094118929 0.671 0.018823786 8.5783722e-39 328 224
0.01058838 0.671 0.018823786 8.8549591e-39 329 224
0.011764866 0.671 0.018823786 9.129381e-39 330 224
0.012960639 0.67199999 0.018851839 8.7606041e-39 331 224
0.01413888 0.67199999 0.018851839 9.4945706e-39 332 224
0.015362706 0.67400002 0.018907947 9.8633475e-39 333 224
0.016593546 0.676 0.018964052 9.680394e-39 334 224
0.0178314 0.67799997 0.019020159 9.680394e-39 335 224
0.019020159 0.67799997 0.019020159 9.7700785e-39 336 224
0.020208918 0.67799997 0.019020159 9.4934944e-39 337 224
0.021429239 0.67900002 0.019048214 9.0332576e-39 338 224
0.022619752 0.67900002 0.019048214 8.5722808e-39 339 224
0.023915464 0.68199998 0.019132372 8.2931926e-39 340 224
0.025184879 0.68400002 0.01918848 8.5697781e-39 341 224
0.02638416 0.68400002 0.01918848 8.1109846e-39 342 224
0.027865725 0.69099998 0.019384852 8.2031802e-39 343 224
0.029161438 0.69300002 0.01944096 7.7440377e-39 344 224
0.0303765 0.69300002 0.01944096 7.928429e-39 345 224
-0.044827472 0.69099998 0.0181733 8.0202939e-39 283 225
-0.043552797 0.69 0.018146999 4.6162807e-39 284 225
-0.042158898 0.68699998 0.018068098 2.7723681e-39 285 225
-0.040954359 0.68699998 0.018068098 1.7707592e-39 286 225
-0.039691959 0.68599999 0.018041799 5.7351713e-39 287 225
-0.038264744 0.68199998 0.017936599 1.2528055e-38 288 225
-0.036960267 0.68000001 0.017883999 1.2067436e-38 289 225
-0.035767999 0.68000001 0.017883999 1.2162105e-38 290 225
-0.034474038 0.67799997 0.0178314 1.2162105e-38 291 225
-0.033187091 0.676 0.017778801 1.2345417e-38 292 225
-0.032001842 0.676 0.017778801 1.2161387e-38 293 225
-0.030771 0.67500001 0.0177525 1.2162105e-38 294 225
-0.029543666 0.67400002 0.0177262 1.22543e-38 295 225
-0.02827776 0.67199999 0.017673599 1.1796199e-38 296 225
-0.027059194 0.671 0.0176473 1.1796199e-38 297 225
-0.025882706 0.671 0.0176473 1.1886963e-38 298 225
-0.024706218 0.671 0.0176473 1.1886963e-38 299 225
-0.023494666 0.67000002 0.017620999 1.1795122e-38 300 225
-0.022319933 0.67000002 0.017620999 1.1795122e-38 301 225
-0.021082079 0.66799998 0.017568398 1.1611092e-38 302 225
-0.019910853 0.66799998 0.017568398 1.179548e-38 303 225
-0.018795732 0.67000002 0.017620999 1.1611809e-38 304 225
-0.017568398 0.66799998 0.017568398 1.1704004e-38 305 225
-0.016372627 0.667 0.0175421 1.1612527e-38 306 225
-0.015203152 0.667 0.0175421 1.1704722e-38 307 225
-0.014033679 0.667 0.0175421 1.1520701e-38 308 225
-0.012864206 0.667 0.0175421 1.1428505e-38 309 225
-0.011694733 0.667 0.0175421 1.1610751e-38 310 225
-0.010525259 0.667 0.0175421 1.1610751e-38 311 225
-0.0093557863 0.667 0.0175421 1.1243039e-38 312 225
-0.0081863133 0.667 0.0175421 1.1335594e-38 313 225
-0.0070168395 0.667 0.0175421 1.1243032e-38 314 225
-0.0058473665 0.667 0.0175421 1.1243032e-38 315 225
-0.0046778931 0.667 0.0175421 1.1427062e-38 316 225
-0.0035084197 0.667 0.0175421 1.1427062e-38 317 225
-0.0023424532 0.66799998 0.017568398 1.1335241e-38 318 225
-0.0011712266 0.66799998 0.017568398 1.1703663e-38 319 225
0 0.66799998 0.017568398 1.133811e-38 320 225
0.0011712266 0.66799998 0.017568398 1.1706534e-38 321 225
0.0023424532 0.66799998 0.017568398 1.1616477e-38 322 225
0.0035136798 0.66799998 0.017568398 1.1155502e-38 323 225
0.0046989331 0.67000002 0.017620999 9.771512e-39 324 225
0.0058736666 0.67000002 0.017620999 9.6793178e-39 325 225
0.0070589199 0.671 0.0176473 9.0364791e-39 326 225
0.0082354061 0.671 0.0176473 8.8520893e-39 327 225
0.0094118929 0.671 0.0176473 8.7609628e-39 328 225
0.01058838 0.671 0.0176473 8.8535172e-39 329 225
0.011764866 0.671 0.0176473 9.3116171e-39 330 225
0.012960639 0.67199999 0.017673599 9.3116171e-39 331 225
0.01413888 0.67199999 0.017673599 9.680394e-39 332 225
0.015362706 0.67400002 0.0177262 9.7725882e-39 333 225
0.016593546 0.676 0.017778801 9.7700771e-39 334 225
0.0178314 0.67799997 0.0178314 9.4016589e-39 335 225
0.019020159 0.67799997 0.0178314 9.1236525e-39 336 225
0.020208918 0.67799997 0.0178314 8.6626744e-39 337 225
0.021429239 0.67900002 0.017857701 8.1995648e-39 338 225
0.022619752 0.67900002 0.017857701 8.5687061e-39 339 225
0.023950534 0.68300003 0.017962901 8.0212776e-39 340 225
0.025295338 0.68699998 0.018068098 8.2056689e-39 341 225
0.026538454 0.68800002 0.0180944 8.2049654e-39 342 225
0.027865725 0.69099998 0.0181733 8.1127698e-39 343 225
0.029077278 0.69099998 0.0181733 7.8358676e-39 344 225
0.030288832 0.69099998 0.0181733 8.0202589e-39 345 225
-0.04617228 0.69300002 0.01701084 8.8496917e-39 282 226
-0.044827472 0.69099998 0.016961746 8.1121266e-39 283 226
-0.043552797 0.69 0.0169372 5.3527766e-39 284 226
-0.042158898 0.68699998 0.01686356 3.9698421e-39 285 226
-0.040954359 0.68699998 0.01686356 1.9075876e-41 286 226
-0.039691959 0.68599999 0.016839013 4.0774843e-39 287 226
-0.038320854 0.68300003 0.016765373 1.0873577e-38 288 226
-0.037068974 0.68199998 0.016740825 1.1334555e-38 289 226
-0.035767999 0.68000001 0.016691733 1.2070628e-38 290 226
-0.034524884 0.67900002 0.016667187 1.2162822e-38 291 226
-0.033285279 0.67799997 0.016642639 1.2069911e-38 292 226
-0.032001842 0.676 0.016593546 1.2069911e-38 293 226
-0.030771 0.67500001 0.016569 1.2162105e-38 294 226
-0.029543666 0.67400002 0.016544454 1.22543e-38 295 226
-0.02827776 0.67199999 0.01649536 1.1796199e-38 296 226
-0.027059194 0.671 0.016470812 1.1704004e-38 297 226
-0.025882706 0.671 0.016470812 1.1887316e-38 298 226
-0.024706218 0.671 0.016470812 1.1795122e-38 299 226
-0.023494666 0.67000002 0.016446266 1.1794763e-38 300 226
-0.022319933 0.67000002 0.016446266 1.1886957e-38 301 226
-0.0211452 0.67000002 0.016446266 1.1611451e-38 302 226
-0.019970467 0.67000002 0.016446266 1.179548e-38 303 226
-0.018795732 0.67000002 0.016446266 1.1612527e-38 304 226
-0.017620999 0.67000002 0.016446266 1.1704721e-38 305 226
-0.016397171 0.66799998 0.016397171 1.1704721e-38 306 226
-0.015225946 0.66799998 0.016397171 1.1704721e-38 307 226
-0.014033679 0.667 0.016372627 1.1612171e-38 308 226
-0.012864206 0.667 0.016372627 1.1612171e-38 309 226
-0.011694733 0.667 0.016372627 1.1427787e-38 310 226
-0.010525259 0.667 0.016372627 1.1335591e-38 311 226
-0.0093557863 0.667 0.016372627 1.1427062e-38 312 226
-0.0081863133 0.667 0.016372627 1.1243032e-38 313 226
-0.0070168395 0.667 0.016372627 1.1243032e-38 314 226
-0.0058473665 0.667 0.016372627 1.1243032e-38 315 226
-0.0046849065 0.66799998 0.016397171 1.1243395e-38 316 226
-0.0035136798 0.66799998 0.016397171 1.1335591e-38 317 226
-0.0023494666 0.67000002 0.016446266 1.1152294e-38 318 226
-0.0011747333 0.67000002 0.016446266 1.1428521e-38 319 226
0 0.67000002 0.016446266 1.1154445e-38 320 226
0.0011747333 0.67000002 0.016446266 1.1522869e-38 321 226
0.0023494666 0.67000002 0.016446266 1.1706875e-38 322 226
0.0035241998 0.67000002 0.016446266 1.1522126e-38 323 226
0.0046989331 0.67000002 0.016446266 9.680394e-39 324 226
0.0058824331 0.671 0.016470812 9.5881998e-39 325 226
0.0070589199 0.671 0.016470812 9.5871264e-39 326 226
0.0082354061 0.671 0.016470812 9.3108996e-39 327 226
0.0094259195 0.67199999 0.01649536 9.2197816e-39 328 226
0.010604159 0.67199999 0.01649536 9.2197816e-39 329 226
0.011782399 0.67199999 0.01649536 8.8531571e-39 330 226
0.012960639 0.67199999 0.01649536 8.7609628e-39 331 226
0.01418096 0.67400002 0.016544454 8.7609656e-39 332 226
0.0153855 0.67500001 0.016569 8.7609656e-39 333 226
0.016593546 0.676 0.016593546 8.7577623e-39 334 226
0.0178314 0.67799997 0.016642639 8.3889812e-39 335 226
0.019020159 0.67799997 0.016642639 8.476879e-39 336 226
0.020208918 0.67799997 0.016642639 8.476879e-39 337 226
0.021429239 0.67900002 0.016667187 8.0187595e-39 338 226
0.022619752 0.67900002 0.016667187 8.5715746e-39 339 226
0.023950534 0.68300003 0.016765373 8.9406906e-39 340 226
0.025295338 0.68699998 0.01686356 8.9406906e-39 341 226
0.026538454 0.68800002 0.016888106 8.6634255e-39 342 226
0.027865725 0.69099998 0.016961746 8.4786755e-39 343 226
0.029077278 0.69099998 0.016961746 7.8355173e-39 344 226
0.030288832 0.69099998 0.016961746 7.9277129e-39 345 226
-0.047660861 0.69700003 0.015886955 8.574897e-39 281 227
-0.04617228 0.69300002 0.015795778 8.7585848e-39 282 227
-0.044957221 0.69300002 0.015795778 8.1132154e-39 283 227
-0.043552797 0.69 0.015727401 5.3534982e-39 284 227
-0.042220265 0.68800002 0.015681813 4.4315433e-39 285 227
-0.040954359 0.68699998 0.015659019 1.3055225e-39 286 227
-0.039749816 0.68699998 0.015659019 3.2416307e-39 287 227
-0.038320854 0.68300003 0.015567848 8.66811e-39 288 227
-0.037068974 0.68199998 0.015545053 1.0143241e-38 289 227
-0.035767999 0.68000001 0.015499466 1.2162464e-38 290 227
-0.034524884 0.67900002 0.015476674 1.2070269e-38 291 227
-0.033285279 0.67799997 0.015453878 1.2070628e-38 292 227
-0.032001842 0.676 0.015408293 1.2070628e-38 293 227
-0.030771 0.67500001 0.0153855 1.2070269e-38 294 227
-0.0295875 0.67500001 0.0153855 1.2162464e-38 295 227
-0.02836192 0.67400002 0.015362706 1.197951e-38 296 227
-0.027099518 0.67199999 0.01531712 1.197951e-38 297 227
-0.025882706 0.671 0.015294326 1.1795843e-38 298 227
-0.024706218 0.671 0.015294326 1.1795843e-38 299 227
-0.023494666 0.67000002 0.015271533 1.1795122e-38 300 227
-0.022319933 0.67000002 0.015271533 1.1795122e-38 301 227
-0.0211452 0.67000002 0.015271533 1.1611451e-38 302 227
-0.019970467 0.67000002 0.015271533 1.179548e-38 303 227
-0.018795732 0.67000002 0.015271533 1.1612885e-38 304 227
-0.017620999 0.67000002 0.015271533 1.170508e-38 305 227
-0.016397171 0.66799998 0.015225946 1.170508e-38 306 227
-0.015225946 0.66799998 0.015225946 1.170508e-38 307 227
-0.014054719 0.66799998 0.015225946 1.1612527e-38 308 227
-0.012864206 0.667 0.015203152 1.1428497e-38 309 227
-0.011694733 0.667 0.015203152 1.142814e-38 310 227
-0.010525259 0.667 0.015203152 1.142814e-38 311 227
-0.0093557863 0.667 0.015203152 1.1335591e-38 312 227
-0.0081863133 0.667 0.015203152 1.1243395e-38 313 227
-0.0070168395 0.667 0.015203152 1.1243391e-38 314 227
-0.0058561331 0.66799998 0.015225946 1.1243391e-38 315 227
-0.0046849065 0.66799998 0.015225946 1.1243391e-38 316 227
-0.0035241998 0.67000002 0.015271533 1.1335588e-38 317 227
-0.0023494666 0.67000002 0.015271533 1.1060079e-38 318 227
-0.0011747333 0.67000002 0.015271533 1.1428861e-38 319 227
0 0.67000002 0.015271533 1.1338814e-38 320 227
0.0011747333 0.67000002 0.015271533 1.1523561e-38 321 227
0.0023529732 0.671 0.015294326 1.1524637e-38 322 227
0.0035294599 0.671 0.015294326 1.133989e-38 323 227
0.0047059464 0.671 0.015294326 9.9576941e-39 324 227
0.0058824331 0.671 0.015294326 9.8654999e-39 325 227
0.0070589199 0.671 0.015294326 9.589276e-39 326 227
0.00824768 0.67199999 0.01531712 9.3123345e-39 327 227
0.0094259195 0.67199999 0.01531712 9.0343169e-39 328 227
0.010604159 0.67199999 0.01531712 8.9421227e-39 329 227
0.011817466 0.67400002 0.015362706 8.941764e-39 330 227
0.012999214 0.67400002 0.015362706 8.7577342e-39 331 227
0.01418096 0.67400002 0.015362706 8.6644764e-39 332 227
0.015408293 0.676 0.015408293 8.1113027e-39 333 227
0.016642639 0.67799997 0.015453878 8.1988446e-39 334 227
0.0178314 0.67799997 0.015453878 8.1066489e-39 335 227
0.019048214 0.67900002 0.015476674 8.4783125e-39 336 227
0.020238725 0.67900002 0.015476674 1.0321865e-38 337 227
0.021429239 0.67900002 0.015476674 1.0693852e-38 338 227
0.022753006 0.68300003 0.015567848 9.5875061e-39 339 227
0.0239856 0.68400002 0.01559064 9.3080298e-39 340 227
0.025295338 0.68699998 0.015659019 9.2158355e-39 341 227
0.026615599 0.69 0.015727401 8.4786755e-39 342 227
0.027946379 0.69300002 0.015795778 8.4786755e-39 343 227
0.029161438 0.69300002 0.015795778 7.8358704e-39 344 227
0.0303765 0.69300002 0.015795778 8.0202617e-39 345 227
-0.047660861 0.69700003 0.01466488 8.8507608e-39 281 228
-0.046238903 0.69400001 0.01460176 8.9415314e-39 282 228
-0.044957221 0.69300002 0.014580719 8.3879974e-39 283 228
-0.043615919 0.69099998 0.014538639 5.4456925e-39 284 228
-0.042342998 0.69 0.014517599 4.3397036e-39 285 228
-0.041133199 0.69 0.014517599 2.3171773e-39 286 228
-0.039749816 0.68699998 0.014454478 3.0547424e-39 287 228
-0.038320854 0.68300003 0.014370319 8.2060795e-39 288 228
-0.037068974 0.68199998 0.01434928 1.0602807e-38 289 228
-0.035767999 0.68000001 0.014307199 1.2531964e-38 290 228
-0.034524884 0.67900002 0.01428616 1.2255375e-38 291 228
-0.033285279 0.67799997 0.014265119 1.2256451e-38 292 228
-0.032001842 0.676 0.014223038 1.2256451e-38 293 228
-0.030771 0.67500001 0.014202001 1.2255375e-38 294 228
-0.0295875 0.67500001 0.014202001 1.2255375e-38 295 228
-0.02836192 0.67400002 0.01418096 1.1796556e-38 296 228
-0.027099518 0.67199999 0.01413888 1.1889109e-38 297 228
-0.025921278 0.67199999 0.01413888 1.1796556e-38 298 228
-0.024706218 0.671 0.01411784 1.1796556e-38 299 228
-0.023529733 0.671 0.01411784 1.1704362e-38 300 228
-0.022353247 0.671 0.01411784 1.1704362e-38 301 228
-0.0211452 0.67000002 0.014096799 1.1612168e-38 302 228
-0.019970467 0.67000002 0.014096799 1.1704362e-38 303 228
-0.018823786 0.671 0.01411784 1.1612885e-38 304 228
-0.017620999 0.67000002 0.014096799 1.170508e-38 305 228
-0.016446266 0.67000002 0.014096799 1.1704721e-38 306 228
-0.015225946 0.66799998 0.014054719 1.1796915e-38 307 228
-0.014054719 0.66799998 0.014054719 1.1521409e-38 308 228
-0.012883492 0.66799998 0.014054719 1.1429214e-38 309 228
-0.011712266 0.66799998 0.014054719 1.1612527e-38 310 228
-0.01054104 0.66799998 0.014054719 1.1335944e-38 311 228
-0.0093978662 0.67000002 0.014096799 1.1335944e-38 312 228
-0.0082231332 0.67000002 0.014096799 1.1335944e-38 313 228
-0.0070483997 0.67000002 0.014096799 1.1335944e-38 314 228
-0.0058736666 0.67000002 0.014096799 1.1335944e-38 315 228
-0.0046989331 0.67000002 0.014096799 1.1244826e-38 316 228
-0.0035294599 0.671 0.01411784 1.133702e-38 317 228
-0.0023529732 0.671 0.01411784 1.1245902e-38 318 228
-0.0011764866 0.671 0.01411784 1.1429932e-38 319 228
0 0.671 0.01411784 1.133989e-38 320 228
0.0011764866 0.671 0.01411784 1.1432084e-38 321 228
0.0023529732 0.671 0.01411784 1.1432084e-38 322 228
0.0035294599 0.671 0.01411784 1.1063666e-38 323 228
0.0047059464 0.671 0.01411784 1.0416154e-38 324 228
0.0058824331 0.671 0.01411784 9.7707946e-39 325 228
0.0070694401 0.67199999 0.01413888 9.0343169e-39 326 228
0.00824768 0.67199999 0.01413888 8.7577342e-39 327 228
0.0094259195 0.67199999 0.01413888 8.2045899e-39 328 228
0.010604159 0.67199999 0.01413888 7.928003e-39 329 228
0.011817466 0.67400002 0.01418096 7.5603177e-39 330 228
0.012999214 0.67400002 0.01418096 7.4677633e-39 331 228
0.014202001 0.67500001 0.014202001 7.557445e-39 332 228
0.015408293 0.676 0.014223038 7.6496407e-39 333 228
0.016642639 0.67799997 0.014265119 8.2049654e-39 334 228
0.0178314 0.67799997 0.014265119 8.6659436e-39 335 228
0.019048214 0.67900002 0.01428616 9.8637385e-39 336 228
0.020238725 0.67900002 0.01428616 9.8637385e-39 337 228
0.0214608 0.68000001 0.014307199 9.9551858e-39 338 228
0.022753006 0.68300003 0.014370319 9.4023764e-39 339 228
0.0239856 0.68400002 0.01439136 9.490277e-39 340 228
0.02533216 0.68800002 0.014475521 9.305527e-39 341 228
0.026615599 0.69 0.014517599 8.6612871e-39 342 228
0.027865725 0.69099998 0.014538639 8.6612871e-39 343 228
0.029161438 0.69300002 0.014580719 7.9287849e-39 344 228
0.0303765 0.69300002 0.014580719 8.1131776e-39 345 228
-0.047660861 0.69700003 0.013442807 8.8504049e-39 281 229
-0.046238903 0.69400001 0.013384946 8.8504105e-39 282 229
-0.044957221 0.69300002 0.01336566 8.2972367e-39 283 229
-0.043742158 0.69300002 0.01336566 5.6304397e-39 284 229
-0.042404365 0.69099998 0.013327086 4.4318965e-39 285 229
-0.041192811 0.69099998 0.013327086 1.306268e-39 286 229
-0.0399234 0.69 0.0133078 1.9516374e-39 287 229
-0.038545277 0.68699998 0.013249939 7.3781265e-39 288 229
-0.037068974 0.68199998 0.013153506 1.0604974e-38 289 229
-0.035767999 0.68000001 0.013114933 1.2718148e-38 290 229
-0.034575731 0.68000001 0.013114933 1.2164976e-38 291 229
-0.033285279 0.67799997 0.013076359 1.2073857e-38 292 229
-0.032001842 0.676 0.013037786 1.2166051e-38 293 229
-0.030771 0.67500001 0.0130185 1.2073498e-38 294 229
-0.0295875 0.67500001 0.0130185 1.2073498e-38 295 229
-0.02836192 0.67400002 0.012999214 1.1889827e-38 296 229
-0.027180174 0.67400002 0.012999214 1.1889827e-38 297 229
-0.025921278 0.67199999 0.012960639 1.1797274e-38 298 229
-0.024706218 0.671 0.012941353 1.1797274e-38 299 229
-0.023529733 0.671 0.012941353 1.170508e-38 300 229
-0.022353247 0.671 0.012941353 1.170508e-38 301 229
-0.0211452 0.67000002 0.012922067 1.170508e-38 302 229
-0.019970467 0.67000002 0.012922067 1.170508e-38 303 229
-0.018823786 0.671 0.012941353 1.1521767e-38 304 229
-0.0176473 0.671 0.012941353 1.1613962e-38 305 229
-0.016446266 0.67000002 0.012922067 1.1613962e-38 306 229
-0.015271533 0.67000002 0.012922067 1.1706156e-38 307 229
-0.014054719 0.66799998 0.012883492 1.1522126e-38 308 229
-0.012883492 0.66799998 0.012883492 1.1429932e-38 309 229
-0.011712266 0.66799998 0.012883492 1.1521409e-38 310 229
-0.0105726 0.67000002 0.012922067 1.1429214e-38 311 229
-0.0093978662 0.67000002 0.012922067 1.1612527e-38 312 229
-0.0082231332 0.67000002 0.012922067 1.1704722e-38 313 229
-0.0070483997 0.67000002 0.012922067 1.1428856e-38 314 229
-0.0058824331 0.671 0.012941353 1.1521051e-38 315 229
-0.0047059464 0.671 0.012941353 1.1246978e-38 316 229
-0.0035294599 0.671 0.012941353 1.1339173e-38 317 229
-0.0023529732 0.671 0.012941353 1.115586e-38 318 229
-0.0011764866 0.671 0.012941353 1.1340249e-38 319 229
0 0.671 0.012941353 1.1432443e-38 320 229
0.0011764866 0.671 0.012941353 1.1432443e-38 321 229
0.0023529732 0.671 0.012941353 1.170795e-38 322 229
0.0035294599 0.671 0.012941353 1.1246978e-38 323 229
0.0047059464 0.671 0.012941353 1.032109e-38 324 229
0.0058824331 0.671 0.012941353 9.3073123e-39 325 229
0.0070694401 0.67199999 0.012960639 8.7530721e-39 326 229
0.00824768 0.67199999 0.012960639 8.5686823e-39 327 229
0.0094259195 0.67199999 0.012960639 7.7403874e-39 328 229
0.01063572 0.67400002 0.012999214 7.6481917e-39 329 229
0.011835 0.67500001 0.0130185 7.6481973e-39 330 229
0.0130185 0.67500001 0.0130185 7.740393e-39 331 229
0.014202001 0.67500001 0.0130185 7.6496169e-39 332 229
0.015408293 0.676 0.013037786 8.3871819e-39 333 229
0.016642639 0.67799997 0.013076359 1.0142127e-38 334 229
0.0178314 0.67799997 0.013076359 1.0326159e-38 335 229
0.019048214 0.67900002 0.013095647 1.0325427e-38 336 229
0.020238725 0.67900002 0.013095647 9.5878621e-39 337 229
0.021523919 0.68199998 0.013153506 9.58606e-39 338 229
0.022753006 0.68300003 0.013172794 9.1250818e-39 339 229
0.0239856 0.68400002 0.01319208 9.0296786e-39 340 229
0.025295338 0.68699998 0.013249939 8.937483e-39 341 229
0.026615599 0.69 0.0133078 8.4769e-39 342 229
0.027865725 0.69099998 0.013327086 8.7534855e-39 343 229
0.029161438 0.69300002 0.01336566 8.020626e-39 344 229
-0.047660861 0.69700003 0.012220734 8.8507608e-39 281 230
-0.046238903 0.69400001 0.012168133 8.7582093e-39 282 230
-0.044957221 0.69300002 0.012150601 8.2050355e-39 283 230
-0.043742158 0.69300002 0.012150601 6.3662026e-39 284 230
-0.042404365 0.69099998 0.012115533 4.3378988e-39 285 230
-0.041192811 0.69099998 0.012115533 6.6234754e-40 286 230
-0.0399234 0.69 0.012097999 1.1233243e-39 287 230
-0.038545277 0.68699998 0.012045399 5.6303794e-39 288 230
-0.037123326 0.68300003 0.011975267 9.871377e-39 289 230
-0.035873197 0.68199998 0.011957732 1.262668e-38 290 230
-0.034575731 0.68000001 0.011922667 1.2257896e-38 291 230
-0.033285279 0.67799997 0.011887599 1.1983456e-38 292 230
-0.032001842 0.676 0.011852534 1.207565e-38 293 230
-0.030816587 0.676 0.011852534 1.1983456e-38 294 230
-0.0295875 0.67500001 0.011835 1.1983456e-38 295 230
-0.028404001 0.67500001 0.011835 1.1983456e-38 296 230
-0.027180174 0.67400002 0.011817466 1.1983456e-38 297 230
-0.025998428 0.67400002 0.011817466 1.1890903e-38 298 230
-0.024743039 0.67199999 0.011782399 1.1890903e-38 299 230
-0.023564799 0.67199999 0.011782399 1.1706873e-38 300 230
-0.022353247 0.671 0.011764866 1.1706873e-38 301 230
-0.021176759 0.671 0.011764866 1.1707232e-38 302 230
-0.020000271 0.671 0.011764866 1.1615038e-38 303 230
-0.018823786 0.671 0.011764866 1.1615038e-38 304 230
-0.0176473 0.671 0.011764866 1.1707232e-38 305 230
-0.016470812 0.671 0.011764866 1.1707232e-38 306 230
-0.015271533 0.67000002 0.011747333 1.1799426e-38 307 230
-0.014096799 0.67000002 0.011747333 1.1707232e-38 308 230
-0.012922067 0.67000002 0.011747333 1.1707232e-38 309 230
-0.011747333 0.67000002 0.011747333 1.1707232e-38 310 230
-0.0105726 0.67000002 0.011747333 1.1615038e-38 311 230
-0.0093978662 0.67000002 0.011747333 1.1706515e-38 312 230
-0.0082231332 0.67000002 0.011747333 1.1706515e-38 313 230
-0.0070483997 0.67000002 0.011747333 1.1431726e-38 314 230
-0.0058824331 0.671 0.011764866 1.152392e-38 315 230
-0.0047059464 0.671 0.011764866 1.1524279e-38 316 230
-0.0035294599 0.671 0.011764866 1.1524279e-38 317 230
-0.0023529732 0.671 0.011764866 1.1432802e-38 318 230
-0.0011764866 0.671 0.011764866 1.1524996e-38 319 230
0 0.671 0.011764866 1.1524996e-38 320 230
0.0011764866 0.671 0.011764866 1.1524996e-38 321 230
0.0023529732 0.671 0.011764866 1.170795e-38 322 230
0.0035294599 0.671 0.011764866 1.1154784e-38 323 230
0.0047129598 0.67199999 0.011782399 9.3098234e-39 324 230
0.0058911997 0.67199999 0.011782399 8.6644638e-39 325 230
0.0070694401 0.67199999 0.011782399 8.4775769e-39 326 230
0.00824768 0.67199999 0.011782399 8.2013501e-39 327 230
0.0094539737 0.67400002 0.011817466 7.3755551e-39 328 230
0.01063572 0.67400002 0.011817466 7.3755551e-39 329 230
0.011835 0.67500001 0.011835 7.4677479e-39 330 230
0.0130185 0.67500001 0.011835 7.7443334e-39 331 230
0.014223038 0.676 0.011852534 7.6546391e-39 332 230
0.015453878 0.67799997 0.011887599 8.023423e-39 333 230
0.016642639 0.67799997 0.011887599 9.1279559e-39 334 230
0.017857701 0.67900002 0.011905133 9.4041827e-39 335 230
0.019048214 0.67900002 0.011905133 9.8619238e-39 336 230
0.020238725 0.67900002 0.011905133 9.4931427e-39 337 230
0.021523919 0.68199998 0.011957732 9.0329016e-39 338 230
0.022753006 0.68300003 0.011975267 8.5719249e-39 339 230
0.0239856 0.68400002 0.0119928 8.5690718e-39 340 230
0.025295338 0.68699998 0.012045399 8.5690718e-39 341 230
0.026615599 0.69 0.012097999 8.4776189e-39 342 230
0.027865725 0.69099998 0.012115533 8.6623689e-39 343 230
0.029161438 0.69300002 0.012150601 8.1128245e-39 344 230
-0.047660861 0.69700003 0.01099866 8.7585652e-39 281 231
-0.046372157 0.69599998 0.010982879 8.7578464e-39 282 231
-0.045022093 0.69400001 0.01095132 8.5730964e-39 283 231
-0.043742158 0.69300002 0.010935539 7.652966e-39 284 231
-0.042527102 0.69300002 0.010935539 6.3622271e-39 285 231
-0.041192811 0.69099998 0.01090398 3.0511452e-39 286 231
-0.0399234 0.69 0.010888199 2.4057758e-39 287 231
-0.038601387 0.68800002 0.010856641 4.1566969e-39 288 231
-0.037123326 0.68300003 0.01077774 9.0427051e-39 289 231
-0.035873197 0.68199998 0.010761959 1.1707266e-38 290 231
-0.034575731 0.68000001 0.0107304 1.161507e-38 291 231
-0.033334374 0.67900002 0.010714619 1.1616843e-38 292 231
-0.032001842 0.676 0.01066728 1.1524647e-38 293 231
-0.030816587 0.676 0.01066728 1.1617549e-38 294 231
-0.0295875 0.67500001 0.0106515 1.1525355e-38 295 231
-0.028404001 0.67500001 0.0106515 1.1800861e-38 296 231
-0.027220501 0.67500001 0.0106515 1.1800861e-38 297 231
-0.025998428 0.67400002 0.01063572 1.1800861e-38 298 231
-0.024816679 0.67400002 0.01063572 1.1800861e-38 299 231
-0.023634933 0.67400002 0.01063572 1.1708667e-38 300 231
-0.022386558 0.67199999 0.010604159 1.1708667e-38 301 231
-0.021176759 0.671 0.01058838 1.1800503e-38 302 231
-0.020000271 0.671 0.01058838 1.1800503e-38 303 231
-0.018851839 0.67199999 0.010604159 1.1524996e-38 304 231
-0.017673599 0.67199999 0.010604159 1.161719e-38 305 231
-0.016470812 0.671 0.01058838 1.161719e-38 306 231
-0.015294326 0.671 0.01058838 1.1709384e-38 307 231
-0.01411784 0.671 0.01058838 1.1709384e-38 308 231
-0.012941353 0.671 0.01058838 1.161719e-38 309 231
-0.011764866 0.671 0.01058838 1.1617549e-38 310 231
-0.01058838 0.671 0.01058838 1.1617549e-38 311 231
-0.0094118929 0.671 0.01058838 1.1617549e-38 312 231
-0.0082354061 0.671 0.01058838 1.1524996e-38 313 231
-0.0070589199 0.671 0.01058838 1.161719e-38 314 231
-0.0058824331 0.671 0.01058838 1.1524996e-38 315 231
-0.0047059464 0.671 0.01058838 1.161719e-38 316 231
-0.0035294599 0.671 0.01058838 1.161719e-38 317 231
-0.0023529732 0.671 0.01058838 1.1617549e-38 318 231
-0.0011782399 0.67199999 0.010604159 1.1617549e-38 319 231
0 0.67199999 0.010604159 1.1800861e-38 320 231
0.0011764866 0.671 0.01058838 1.1800861e-38 321 231
0.0023529732 0.671 0.01058838 1.1799426e-38 322 231
0.00353472 0.67199999 0.010604159 1.1246261e-38 323 231
0.0047129598 0.67199999 0.010604159 9.0343169e-39 324 231
0.0058911997 0.67199999 0.010604159 8.5737045e-39 325 231
0.0070694401 0.67199999 0.010604159 8.7562993e-39 326 231
0.0082722269 0.67400002 0.01063572 8.4800754e-39 327 231
0.0094539737 0.67400002 0.01063572 8.2052863e-39 328 231
0.0106515 0.67500001 0.0106515 8.2052863e-39 329 231
0.011835 0.67500001 0.0106515 8.1134508e-39 330 231
0.013037786 0.676 0.01066728 8.2056451e-39 331 231
0.014223038 0.676 0.01066728 8.2077975e-39 332 231
0.015453878 0.67799997 0.010698839 8.6684141e-39 333 231
0.016667187 0.67900002 0.010714619 8.9432087e-39 334 231
0.017857701 0.67900002 0.010714619 9.0354043e-39 335 231
0.019048214 0.67900002 0.010714619 9.1243784e-39 336 231
0.020268533 0.68000001 0.0107304 8.9399871e-39 337 231
0.021523919 0.68199998 0.010761959 8.5715746e-39 338 231
0.022786319 0.68400002 0.01079352 8.3871819e-39 339 231
0.0239856 0.68400002 0.01079352 8.2946331e-39 340 231
0.02533216 0.68800002 0.010856641 8.3868302e-39 341 231
0.026615599 0.69 0.010888199 8.4786909e-39 342 231
0.027865725 0.69099998 0.01090398 8.6634409e-39 343 231
0.029203519 0.69400001 0.01095132 8.2050201e-39 344 231
-0.047660861 0.69700003 0.0097765867 8.7585624e-39 281 232
-0.046438783 0.69700003 0.0097765867 8.850042e-39 282 232
-0.045151837 0.69599998 0.0097625591 8.7578464e-39 283 232
-0.043805279 0.69400001 0.0097345067 8.2082851e-39 284 232
-0.042527102 0.69300002 0.0097204801 8.7614589e-39 285 232
-0.041312039 0.69300002 0.0097204801 7.4660692e-39 286 232
-0.0399234 0.69 0.0096783992 4.0544721e-39 287 232
-0.038601387 0.68800002 0.0096503468 1.6735105e-39 288 232
-0.037177678 0.68400002 0.0095942402 7.1126925e-39 289 232
-0.035873197 0.68199998 0.009566186 1.1060817e-38 290 232
-0.034575731 0.68000001 0.0095381327 1.1245209e-38 291 232
-0.033334374 0.67900002 0.009524107 1.1613969e-38 292 232
-0.032143861 0.67900002 0.009524107 1.179872e-38 293 232
-0.030816587 0.676 0.0094820261 1.1616474e-38 294 232
-0.0295875 0.67500001 0.0094679995 1.170867e-38 295 232
-0.028404001 0.67500001 0.0094679995 1.1984891e-38 296 232
-0.027220501 0.67500001 0.0094679995 1.2077085e-38 297 232
-0.026037 0.67500001 0.0094679995 1.1710102e-38 298 232
-0.0248535 0.67500001 0.0094679995 1.1617908e-38 299 232
-0.023634933 0.67400002 0.0094539737 1.1617908e-38 300 232
-0.022453187 0.67400002 0.0094539737 1.1617908e-38 301 232
-0.021271439 0.67400002 0.0094539737 1.1617549e-38 302 232
-0.020089693 0.67400002 0.0094539737 1.1617549e-38 303 232
-0.018907947 0.67400002 0.0094539737 1.1434237e-38 304 232
-0.017673599 0.67199999 0.0094259195 1.1526431e-38 305 232
-0.01649536 0.67199999 0.0094259195 1.1618625e-38 306 232
-0.01531712 0.67199999 0.0094259195 1.1618625e-38 307 232
-0.01411784 0.671 0.0094118929 1.1618984e-38 308 232
-0.012941353 0.671 0.0094118929 1.1618984e-38 309 232
-0.011764866 0.671 0.0094118929 1.1618984e-38 310 232
-0.01058838 0.671 0.0094118929 1.1618984e-38 311 232
-0.0094118929 0.671 0.0094118929 1.1710102e-38 312 232
-0.0082354061 0.671 0.0094118929 1.1710102e-38 313 232
-0.0070589199 0.671 0.0094118929 1.1710102e-38 314 232
-0.0058824331 0.671 0.0094118929 1.1617549e-38 315 232
-0.0047059464 0.671 0.0094118929 1.152679e-38 316 232
-0.0035294599 0.671 0.0094118929 1.1434595e-38 317 232
-0.0023564799 0.67199999 0.0094259195 1.1710102e-38 318 232
-0.0011782399 0.67199999 0.0094259195 1.1617908e-38 319 232
0 0.67199999 0.0094259195 1.1709384e-38 320 232
0.0011782399 0.67199999 0.0094259195 1.161719e-38 321 232
0.0023564799 0.67199999 0.0094259195 1.1800144e-38 322 232
0.00353472 0.67199999 0.0094259195 1.1339173e-38 323 232
0.0047129598 0.67199999 0.0094259195 9.2212165e-39 324 232
0.0058911997 0.67199999 0.0094259195 8.3914685e-39 325 232
0.0070694401 0.67199999 0.0094259195 9.0343169e-39 326 232
0.0082722269 0.67400002 0.0094539737 8.9421227e-39 327 232
0.0094539737 0.67400002 0.0094539737 8.66554e-39 328 232
0.0106515 0.67500001 0.0094679995 8.5733458e-39 329 232
0.011852534 0.676 0.0094820261 8.481869e-39 330 232
0.013037786 0.676 0.0094820261 8.6662575e-39 331 232
0.014265119 0.67799997 0.0095100794 8.6684099e-39 332 232
0.015476674 0.67900002 0.009524107 8.8531571e-39 333 232
0.016667187 0.67900002 0.009524107 9.1257937e-39 334 232
0.017857701 0.67900002 0.009524107 8.6644638e-39 335 232
0.019132372 0.68199998 0.009566186 8.6633974e-39 336 232
0.020328145 0.68199998 0.009566186 8.2946149e-39 337 232
0.02158704 0.68400002 0.0095942402 8.1098761e-39 338 232
0.022852944 0.68599999 0.0096222926 8.386463e-39 339 232
0.024090799 0.68699998 0.0096363192 8.0212748e-39 340 232
0.025405798 0.69 0.0096783992 8.1134705e-39 341 232
0.02673132 0.69300002 0.0097204801 8.6637884e-39 342 232
0.027986705 0.69400001 0.0097345067 8.755984e-39 343 232
-0.047660861 0.69700003 0.0085545136 8.8500392e-39 281 233
-0.046438783 0.69700003 0.0085545136 8.8500392e-39 282 233
-0.045151837 0.69599998 0.0085422397 9.1266247e-39 283 233
-0.043805279 0.69400001 0.0085176928 8.8529104e-39 284 233
-0.042527102 0.69300002 0.0085054198 9.1291372e-39 285 233
-0.041312039 0.69300002 0.0085054198 9.9581874e-39 286 233
-0.0399234 0.69 0.0084686 6.6391447e-39 287 233
-0.038601387 0.68800002 0.0084440531 3.9722636e-39 288 233
-0.037177678 0.68400002 0.0083949603 8.1210669e-39 289 233
-0.035873197 0.68199998 0.0083704125 1.087608e-38 290 233
-0.034677424 0.68199998 0.0083704125 1.1060111e-38 291 233
-0.033383466 0.68000001 0.0083458666 1.0510893e-38 292 233
-0.032191198 0.68000001 0.0083458666 1.078712e-38 293 233
-0.030953348 0.67900002 0.0083335936 1.0236449e-38 294 233
-0.029631332 0.676 0.0082967728 1.0605231e-38 295 233
-0.028446076 0.676 0.0082967728 1.0790689e-38 296 233
-0.027260827 0.676 0.0082967728 1.0883243e-38 297 233
-0.026037 0.67500001 0.0082844999 1.0975439e-38 298 233
-0.0248535 0.67500001 0.0082844999 1.0883243e-38 299 233
-0.023669999 0.67500001 0.0082844999 1.1342404e-38 300 233
-0.022486499 0.67500001 0.0082844999 1.1526795e-38 301 233
-0.021303 0.67500001 0.0082844999 1.1434595e-38 302 233
-0.020119499 0.67500001 0.0082844999 1.152679e-38 303 233
-0.018907947 0.67400002 0.0082722269 1.1618984e-38 304 233
-0.0177262 0.67400002 0.0082722269 1.1618984e-38 305 233
-0.01649536 0.67199999 0.00824768 1.1619343e-38 306 233
-0.01531712 0.67199999 0.00824768 1.1527148e-38 307 233
-0.01413888 0.67199999 0.00824768 1.1619343e-38 308 233
-0.012941353 0.671 0.0082354061 1.1527148e-38 309 233
-0.011764866 0.671 0.0082354061 1.1802296e-38 310 233
-0.01058838 0.671 0.0082354061 1.1802296e-38 311 233
-0.0094118929 0.671 0.0082354061 1.1710102e-38 312 233
-0.0082354061 0.671 0.0082354061 1.1802296e-38 313 233
-0.0070589199 0.671 0.0082354061 1.1710102e-38 314 233
-0.0058824331 0.671 0.0082354061 1.1710102e-38 315 233
-0.0047059464 0.671 0.0082354061 1.1526431e-38 316 233
-0.0035294599 0.671 0.0082354061 1.1434237e-38 317 233
-0.0023564799 0.67199999 0.00824768 1.1617908e-38 318 233
-0.0011782399 0.67199999 0.00824768 1.1617908e-38 319 233
0 0.67199999 0.00824768 1.1709384e-38 320 233
0.0011782399 0.67199999 0.00824768 1.161719e-38 321 233
0.0023564799 0.67199999 0.00824768 1.1891979e-38 322 233
0.00353472 0.67199999 0.00824768 1.124662e-38 323 233
0.0047129598 0.67199999 0.00824768 8.6719972e-39 324 233
0.0058911997 0.67199999 0.00824768 8.1188318e-39 325 233
0.0070904801 0.67400002 0.0082722269 8.3921887e-39 326 233
0.0082722269 0.67400002 0.0082722269 8.2074387e-39 327 233
0.0094679995 0.67500001 0.0082844999 8.1141739e-39 328 233
0.01066728 0.676 0.0082967728 8.1141739e-39 329 233
0.011852534 0.676 0.0082967728 8.2974918e-39 330 233
0.013076359 0.67799997 0.0083213197 8.481883e-39 331 233
0.014265119 0.67799997 0.0083213197 8.8506459e-39 332 233
0.015499466 0.68000001 0.0083458666 8.9428402e-39 333 233
0.016691733 0.68000001 0.0083458666 9.4013002e-39 334 233
0.017936599 0.68199998 0.0083704125 8.940329e-39 335 233
0.019132372 0.68199998 0.0083704125 8.480804e-39 336 233
0.020357953 0.68300003 0.0083826864 8.1120215e-39 337 233
0.02158704 0.68400002 0.0083949603 8.1120383e-39 338 233
0.022886258 0.68699998 0.0084317802 8.388984e-39 339 233
0.024125867 0.68800002 0.0084440531 8.663773e-39 340 233
0.025442619 0.69099998 0.008480873 8.9399997e-39 341 233
0.02673132 0.69300002 0.0085054198 8.9392963e-39 342 233
0.027986705 0.69400001 0.0085176928 9.1240477e-39 343 233
-0.047660861 0.69700003 0.00733244 8.8507608e-39 281 234
-0.046438783 0.69700003 0.00733244 8.8504049e-39 282 234
-0.045151837 0.69599998 0.0073219193 8.9429593e-39 283 234
-0.043931518 0.69599998 0.0073219193 9.0351689e-39 284 234
-0.042527102 0.69300002 0.0072903596 9.1273646e-39 285 234
-0.041312039 0.69300002 0.0072903596 1.0418106e-38 286 234
-0.039981257 0.69099998 0.0072693196 1.0049324e-38 287 234
-0.038601387 0.68800002 0.0072377604 9.58973e-39 288 234
-0.037340738 0.68699998 0.0072272392 9.129112e-39 289 234
-0.035925802 0.68300003 0.0071851597 1.0874281e-38 290 234
-0.034677424 0.68199998 0.00717464 1.0782085e-38 291 234
-0.033383466 0.68000001 0.0071535995 1.0507641e-38 292 234
-0.032191198 0.68000001 0.0071535995 1.0599836e-38 293 234
-0.030953348 0.67900002 0.0071430802 9.6832779e-39 294 234
-0.029718997 0.67799997 0.0071325595 9.959506e-39 295 234
-0.028446076 0.676 0.0071115191 9.6843443e-39 296 234
-0.027260827 0.676 0.0071115191 9.7769e-39 297 234
-0.026075572 0.676 0.0071115191 1.078888e-38 298 234
-0.024890319 0.676 0.0071115191 1.0881076e-38 299 234
-0.023705067 0.676 0.0071115191 1.1342048e-38 300 234
-0.022486499 0.67500001 0.0071010003 1.1342048e-38 301 234
-0.021303 0.67500001 0.0071010003 1.1526431e-38 302 234
-0.020119499 0.67500001 0.0071010003 1.1618625e-38 303 234
-0.018935999 0.67500001 0.0071010003 1.1526431e-38 304 234
-0.0177525 0.67500001 0.0071010003 1.1802655e-38 305 234
-0.016544454 0.67400002 0.0070904801 1.1618992e-38 306 234
-0.015362706 0.67400002 0.0070904801 1.1711188e-38 307 234
-0.01413888 0.67199999 0.0070694401 1.1710835e-38 308 234
-0.012960639 0.67199999 0.0070694401 1.1710835e-38 309 234
-0.011782399 0.67199999 0.0070694401 1.1710835e-38 310 234
-0.010604159 0.67199999 0.0070694401 1.1618639e-38 311 234
-0.0094259195 0.67199999 0.0070694401 1.1527148e-38 312 234
-0.00824768 0.67199999 0.0070694401 1.1527148e-38 313 234
-0.0070694401 0.67199999 0.0070694401 1.1526431e-38 314 234
-0.0058911997 0.67199999 0.0070694401 1.1526431e-38 315 234
-0.0047129598 0.67199999 0.0070694401 1.1801937e-38 316 234
-0.00353472 0.67199999 0.0070694401 1.1801937e-38 317 234
-0.0023564799 0.67199999 0.0070694401 1.180194e-38 318 234
-0.0011782399 0.67199999 0.0070694401 1.1709386e-38 319 234
0 0.67199999 0.0070694401 1.180122e-38 320 234
0.0011782399 0.67199999 0.0070694401 1.1616832e-38 321 234
0.0023564799 0.67199999 0.0070694401 1.1892338e-38 322 234
0.00353472 0.67199999 0.0070694401 1.1154784e-38 323 234
0.0047269869 0.67400002 0.0070904801 8.0266376e-39 324 234
0.0059087332 0.67400002 0.0070904801 6.4596945e-39 325 234
0.0070904801 0.67400002 0.0070904801 7.6539146e-39 326 234
0.0082844999 0.67500001 0.0071010003 7.6539146e-39 327 234
0.0094679995 0.67500001 0.0071010003 7.6514189e-39 328 234
0.01066728 0.676 0.0071115191 7.4666689e-39 329 234
0.011887599 0.67799997 0.0071325595 7.8347284e-39 330 234
0.013095647 0.67900002 0.0071430802 8.664489e-39 331 234
0.01428616 0.67900002 0.0071430802 9.3098234e-39 332 234
0.015499466 0.68000001 0.0071535995 9.5864103e-39 333 234
0.016691733 0.68000001 0.0071535995 9.9555418e-39 334 234
0.017936599 0.68199998 0.00717464 1.0693108e-38 335 234
0.019160427 0.68300003 0.0071851597 1.0232148e-38 336 234
0.020357953 0.68300003 0.0071851597 1.041654e-38 337 234
0.021650158 0.68599999 0.0072167199 1.0691698e-38 338 234
0.022886258 0.68699998 0.0072272392 1.0138883e-38 339 234
0.024195999 0.69 0.0072587994 9.4005967e-39 340 234
0.02551626 0.69300002 0.0072903596 9.3083997e-39 341 234
0.026769891 0.69400001 0.0073008798 8.9410829e-39 342 234
0.028067358 0.69599998 0.0073219193 8.8488873e-39 343 234
-0.045216713 0.69700003 0.0061103669 9.1259156e-39 283 235
-0.043805279 0.69400001 0.0060840664 8.3912471e-39 284 235
-0.042527102 0.69300002 0.0060753003 8.7600296e-39 285 235
-0.041312039 0.69300002 0.0060753003 1.0969855e-38 286 235
-0.039981257 0.69099998 0.0060577663 1.0047897e-38 287 235
-0.038601387 0.68800002 0.0060314666 6.6520675e-39 288 235
-0.037340738 0.68699998 0.0060226996 6.1910894e-39 289 235
-0.035978399 0.68400002 0.0059964 1.0871423e-38 290 235
-0.034728274 0.68300003 0.0059876335 1.0871423e-38 291 235
-0.033383466 0.68000001 0.0059613334 1.0138881e-38 292 235
-0.032191198 0.68000001 0.0059613334 1.0138881e-38 293 235
-0.030953348 0.67900002 0.0059525664 9.8637357e-39 294 235
-0.029718997 0.67799997 0.0059437994 9.9559313e-39 295 235
-0.028530238 0.67799997 0.0059437994 9.7726191e-39 296 235
-0.027341479 0.67799997 0.0059437994 1.0049205e-38 297 235
-0.026152719 0.67799997 0.0059437994 9.7762064e-39 298 235
-0.024890319 0.676 0.0059262668 9.9609564e-39 299 235
-0.023705067 0.676 0.0059262668 1.0697775e-38 300 235
-0.022519812 0.676 0.0059262668 1.0882525e-38 301 235
-0.021334561 0.676 0.0059262668 1.1434595e-38 302 235
-0.020149305 0.676 0.0059262668 1.1434595e-38 303 235
-0.018935999 0.67500001 0.0059174998 1.1618625e-38 304 235
-0.0177525 0.67500001 0.0059174998 1.1802658e-38 305 235
-0.016544454 0.67400002 0.0059087332 1.1618995e-38 306 235
-0.015362706 0.67400002 0.0059087332 1.1711191e-38 307 235
-0.01418096 0.67400002 0.0059087332 1.1710835e-38 308 235
-0.012960639 0.67199999 0.0058911997 1.1710835e-38 309 235
-0.011782399 0.67199999 0.0058911997 1.1618639e-38 310 235
-0.010604159 0.67199999 0.0058911997 1.1618639e-38 311 235
-0.0094259195 0.67199999 0.0058911997 1.1618625e-38 312 235
-0.00824768 0.67199999 0.0058911997 1.1618625e-38 313 235
-0.0070694401 0.67199999 0.0058911997 1.1801937e-38 314 235
-0.0058911997 0.67199999 0.0058911997 1.1801937e-38 315 235
-0.0047129598 0.67199999 0.0058911997 1.180194e-38 316 235
-0.00353472 0.67199999 0.0058911997 1.1709386e-38 317 235
-0.0023564799 0.67199999 0.0058911997 1.1709386e-38 318 235
-0.0011782399 0.67199999 0.0058911997 1.1709386e-38 319 235
0 0.67199999 0.0058911997 1.1616832e-38 320 235
0.0011782399 0.67199999 0.0058911997 1.1616832e-38 321 235
0.0023564799 0.67199999 0.0058911997 1.1799785e-38 322 235
0.00354524 0.67400002 0.0059087332 1.1430649e-38 323 235
0.0047269869 0.67400002 0.0059087332 9.5885585e-39 324 235
0.0059087332 0.67400002 0.0059087332 8.9431989e-39 325 235
0.0071010003 0.67500001 0.0059174998 8.5740633e-39 326 235
0.0082967728 0.676 0.0059262668 8.481869e-39 327 235
0.0094820261 0.676 0.0059262668 8.3893343e-39 328 235
0.010698839 0.67799997 0.0059437994 8.9425081e-39 329 235
0.011887599 0.67799997 0.0059437994 9.0350666e-39 330 235
0.013095647 0.67900002 0.0059525664 9.127621e-39 331 235
0.01428616 0.67900002 0.0059525664 9.4963657e-39 332 235
0.015499466 0.68000001 0.0059613334 9.4963657e-39 333 235
0.016740825 0.68199998 0.005978866 1.0233201e-38 334 235
0.017936599 0.68199998 0.005978866 1.0325395e-38 335 235
0.019160427 0.68300003 0.0059876335 1.0508707e-38 336 235
0.020387759 0.68400002 0.0059964 1.0508707e-38 337 235
0.021681719 0.68699998 0.0060226996 1.0508348e-38 338 235
0.022919573 0.68800002 0.0060314666 9.955183e-39 339 235
0.024231065 0.69099998 0.0060577663 9.7690093e-39 340 235
0.02551626 0.69300002 0.0060753003 9.5842593e-39 341 235
0.026769891 0.69400001 0.0060840664 9.3073627e-39 342 235
0.028067358 0.69599998 0.0061015999 9.1229729e-39 343 235
0.029371841 0.69800001 0.006119133 8.6645521e-39 344 235
-0.043805279 0.69400001 0.0048672534 7.9302731e-39 284 236
-0.042527102 0.69300002 0.00486024 8.1143042e-39 285 236
-0.041312039 0.69300002 0.00486024 1.0876235e-38 286 236
-0.039981257 0.69099998 0.0048462129 7.7412239e-39 287 236
-0.038601387 0.68800002 0.0048251734 8.5239724e-40 288 236
-0.037340738 0.68699998 0.0048181596 3.7104618e-39 289 236
-0.035978399 0.68400002 0.0047971201 1.0778509e-38 290 236
-0.034728274 0.68300003 0.0047901068 1.0778509e-38 291 236
-0.03348165 0.68199998 0.004783093 1.0046668e-38 292 236
-0.032191198 0.68000001 0.0047690663 1.0046668e-38 293 236
