# .PCD v.7 - Point Cloud Data file format
FIELDS x y z rgb imX imY
SIZE 4 4 4 4 4 4
TYPE F F F F F F
COUNT 1 1 1 1 1 1
WIDTH 840
HEIGHT 1
VIEWPOINT 0 0 0 1 0 0 0
POINTS 840
DATA ascii
-0.0071325595 0.67799997 0.0178314 9.5721325e-39 314 225
-0.0059437994 0.67799997 0.0178314 9.4799369e-39 315 225
-0.0047620535 0.67900002 0.017857701 9.2966274e-39 316 225
-0.0035767998 0.68000001 0.017883999 9.1118774e-39 317 225
-0.0023915465 0.68199998 0.017936599 1.0393983e-38 318 225
-0.0011957732 0.68199998 0.017936599 9.9330061e-39 319 225
0 0.68199998 0.017936599 1.1123639e-38 320 225
0.0011957732 0.68199998 0.017936599 1.0754856e-38 321 225
0.0023915465 0.68199998 0.017936599 1.0754503e-38 322 225
0.00358732 0.68199998 0.017936599 1.0754503e-38 323 225
0.0047901068 0.68300003 0.017962901 1.120937e-38 324 225
0.0059964 0.68400002 0.0179892 1.2039131e-38 325 225
0.0071956799 0.68400002 0.0179892 1.1587138e-38 326 225
0.0083949603 0.68400002 0.0179892 1.2232507e-38 327 225
0.0096222926 0.68599999 0.018041799 1.2600917e-38 328 225
0.010825079 0.68599999 0.018041799 1.2508722e-38 329 225
0.012027865 0.68599999 0.018041799 1.1588175e-38 330 225
0.013230653 0.68599999 0.018041799 1.0389633e-38 331 225
0.014454478 0.68699998 0.018068098 1.26167e-38 332 225
-0.042588469 0.69400001 0.017035386 1.5861634e-38 285 226
-0.041312039 0.69300002 0.01701084 1.6871122e-38 286 226
-0.039981257 0.69099998 0.016961746 1.8530285e-38 287 226
-0.038713597 0.69 0.0169372 1.7797038e-38 288 226
-0.037340738 0.68699998 0.01686356 1.5399952e-38 289 226
-0.036136195 0.68699998 0.01686356 1.3270804e-38 290 226
-0.03477912 0.68400002 0.016789921 7.1855334e-39 291 226
-0.03348165 0.68199998 0.016740825 5.3365888e-39 292 226
-0.032285877 0.68199998 0.016740825 4.2298811e-39 293 226
-0.031090107 0.68199998 0.016740825 7.7142307e-39 294 226
-0.029894331 0.68199998 0.016740825 7.806069e-39 295 226
-0.028614398 0.68000001 0.016691733 8.9080908e-39 296 226
-0.027422134 0.68000001 0.016691733 1.0011929e-38 297 226
-0.026229866 0.68000001 0.016691733 1.0199907e-38 298 226
-0.025037598 0.68000001 0.016691733 1.139845e-38 299 226
-0.023845334 0.68000001 0.016691733 1.1218355e-38 300 226
-0.022653066 0.68000001 0.016691733 1.1679334e-38 301 226
-0.0214608 0.68000001 0.016691733 1.1131548e-38 302 226
-0.020238725 0.67900002 0.016667187 1.1315941e-38 303 226
-0.019048214 0.67900002 0.016667187 1.1591454e-38 304 226
-0.017857701 0.67900002 0.016667187 1.1591454e-38 305 226
-0.016667187 0.67900002 0.016667187 1.168365e-38 306 226
-0.015476674 0.67900002 0.016667187 1.1775845e-38 307 226
-0.01428616 0.67900002 0.016667187 1.1498902e-38 308 226
-0.013095647 0.67900002 0.016667187 1.0853533e-38 309 226
-0.011905133 0.67900002 0.016667187 1.1219074e-38 310 226
-0.010714619 0.67900002 0.016667187 1.1126879e-38 311 226
-0.009524107 0.67900002 0.016667187 1.1309106e-38 312 226
-0.0083335936 0.67900002 0.016667187 1.1954476e-38 313 226
-0.0071325595 0.67799997 0.016642639 1.149674e-38 314 226
-0.0059437994 0.67799997 0.016642639 1.1588936e-38 315 226
-0.0047690663 0.68000001 0.016691733 1.1313788e-38 316 226
-0.0035767998 0.68000001 0.016691733 1.0945366e-38 317 226
-0.0023915465 0.68199998 0.016740825 1.1495639e-38 318 226
-0.0011957732 0.68199998 0.016740825 1.0942825e-38 319 226
0 0.68199998 0.016740825 1.1581005e-38 320 226
0.0011957732 0.68199998 0.016740825 1.1027831e-38 321 226
0.0023915465 0.68199998 0.016740825 1.1117528e-38 322 226
0.00358732 0.68199998 0.016740825 1.1025332e-38 323 226
0.0047901068 0.68300003 0.016765373 1.1298699e-38 324 226
0.0059964 0.68400002 0.016789921 1.3327003e-38 325 226
0.0071956799 0.68400002 0.016789921 1.3243808e-38 326 226
0.0084195063 0.68599999 0.016839013 1.3889177e-38 327 226
0.0096363192 0.68699998 0.01686356 1.3615076e-38 328 226
0.010840859 0.68699998 0.01686356 1.269276e-38 329 226
0.012045399 0.68699998 0.01686356 1.1863314e-38 330 226
0.013249939 0.68699998 0.01686356 1.1402336e-38 331 226
0.014517599 0.69 0.0169372 1.3358582e-38 332 226
0.015795778 0.69300002 0.01701084 1.6032256e-38 333 226
0.017182667 0.69999999 0.017182667 1.5198902e-38 334 226
0.018409999 0.69999999 0.017182667 1.436914e-38 335 226
0.019665385 0.70099998 0.017207211 1.3720901e-38 336 226
-0.043994639 0.69700003 0.015886955 1.7980704e-38 284 227
-0.042588469 0.69400001 0.015818574 1.7335334e-38 285 227
-0.041312039 0.69300002 0.015795778 1.6781813e-38 286 227
-0.039981257 0.69099998 0.015750192 1.475315e-38 287 227
-0.038713597 0.69 0.015727401 1.2926138e-38 288 227
-0.037395094 0.68800002 0.015681813 1.477005e-38 289 227
-0.036136195 0.68699998 0.015659019 1.7706991e-38 290 227
-0.03477912 0.68400002 0.01559064 1.6324057e-38 291 227
-0.03348165 0.68199998 0.015545053 1.5497543e-38 292 227
-0.032285877 0.68199998 0.015545053 1.4944369e-38 293 227
-0.031090107 0.68199998 0.015545053 1.5114358e-38 294 227
-0.029894331 0.68199998 0.015545053 1.1887511e-38 295 227
-0.028614398 0.68000001 0.015499466 1.1223432e-38 296 227
-0.027422134 0.68000001 0.015499466 9.0107373e-39 297 227
-0.026229866 0.68000001 0.015499466 9.7357032e-39 298 227
-0.025111238 0.68199998 0.015545053 9.9200959e-39 299 227
-0.023915464 0.68199998 0.015545053 1.0387191e-38 300 227
-0.022719691 0.68199998 0.015545053 1.0663779e-38 301 227
-0.0214608 0.68000001 0.015499466 1.1214079e-38 302 227
-0.020268533 0.68000001 0.015499466 1.1490664e-38 303 227
-0.019048214 0.67900002 0.015476674 1.1493535e-38 304 227
-0.017857701 0.67900002 0.015476674 1.1677927e-38 305 227
-0.016667187 0.67900002 0.015476674 1.1312015e-38 306 227
-0.015476674 0.67900002 0.015476674 1.1312015e-38 307 227
-0.01428616 0.67900002 0.015476674 1.2134213e-38 308 227
-0.013095647 0.67900002 0.015476674 1.2042018e-38 309 227
-0.011905133 0.67900002 0.015476674 1.1583548e-38 310 227
-0.010714619 0.67900002 0.015476674 1.1399157e-38 311 227
-0.009524107 0.67900002 0.015476674 1.286745e-38 312 227
-0.0083335936 0.67900002 0.015476674 1.3328428e-38 313 227
-0.0071430802 0.67900002 0.015476674 1.2409361e-38 314 227
-0.0059525664 0.67900002 0.015476674 1.2501558e-38 315 227
-0.0047690663 0.68000001 0.015499466 1.1677205e-38 316 227
-0.0035767998 0.68000001 0.015499466 1.1861595e-38 317 227
-0.0023915465 0.68199998 0.015545053 1.1585378e-38 318 227
-0.0011957732 0.68199998 0.015545053 1.2138552e-38 319 227
0 0.68199998 0.015545053 1.251093e-38 320 227
0.0011957732 0.68199998 0.015545053 1.2049953e-38 321 227
0.0023915465 0.68199998 0.015545053 1.1949472e-38 322 227
0.00358732 0.68199998 0.015545053 1.2779232e-38 323 227
0.0047901068 0.68300003 0.015567848 1.371414e-38 324 227
0.0059964 0.68400002 0.01559064 1.518927e-38 325 227
0.0071956799 0.68400002 0.01559064 1.555374e-38 326 227
0.0084195063 0.68599999 0.015636226 1.4170806e-38 327 227
0.0096363192 0.68699998 0.015659019 1.3708003e-38 328 227
0.010840859 0.68699998 0.015659019 1.2141038e-38 329 227
0.012062933 0.68800002 0.015681813 1.1955886e-38 330 227
0.013269227 0.68800002 0.015681813 1.1678938e-38 331 227
0.014517599 0.69 0.015727401 1.4556419e-38 332 227
0.015795778 0.69300002 0.015795778 1.6492528e-38 333 227
0.017109027 0.69700003 0.015886955 1.5106356e-38 334 227
0.0183574 0.69800001 0.015909746 1.436879e-38 335 227
0.019637333 0.69999999 0.015955333 1.3906014e-38 336 227
0.020864666 0.69999999 0.015955333 1.5657731e-38 337 227
-0.043994639 0.69700003 0.01466488 1.6785761e-38 284 228
-0.042772565 0.69700003 0.01466488 1.7246739e-38 285 228
-0.041371655 0.69400001 0.01460176 1.7154189e-38 286 228
-0.039981257 0.69099998 0.014538639 1.6140038e-38 287 228
-0.038713597 0.69 0.014517599 1.5312426e-38 288 228
-0.037395094 0.68800002 0.014475521 1.6879391e-38 289 228
-0.036136195 0.68699998 0.014454478 1.8257659e-38 290 228
-0.03477912 0.68400002 0.01439136 1.7336063e-38 291 228
-0.03348165 0.68199998 0.01434928 1.5593366e-38 292 228
-0.032285877 0.68199998 0.01434928 1.5685562e-38 293 228
-0.031090107 0.68199998 0.01434928 1.5592625e-38 294 228
-0.029894331 0.68199998 0.01434928 1.4486277e-38 295 228
-0.02869856 0.68199998 0.01434928 1.4110638e-38 296 228
-0.027422134 0.68000001 0.014307199 1.3280878e-38 297 228
-0.026229866 0.68000001 0.014307199 1.445999e-38 298 228
-0.025111238 0.68199998 0.01434928 1.0310827e-38 299 228
-0.023915464 0.68199998 0.01434928 6.2646561e-39 300 228
-0.022719691 0.68199998 0.01434928 8.6617411e-39 301 228
-0.0214608 0.68000001 0.014307199 1.2879729e-38 302 228
-0.020268533 0.68000001 0.014307199 1.2695338e-38 303 228
-0.019076265 0.68000001 0.014307199 1.3703726e-38 304 228
-0.017883999 0.68000001 0.014307199 1.3703726e-38 305 228
-0.016691733 0.68000001 0.014307199 1.3155581e-38 306 228
-0.015499466 0.68000001 0.014307199 1.3155581e-38 307 228
-0.014307199 0.68000001 0.014307199 1.3430342e-38 308 228
-0.013114933 0.68000001 0.014307199 1.2416548e-38 309 228
-0.011922667 0.68000001 0.014307199 1.3329129e-38 310 228
-0.0107304 0.68000001 0.014307199 1.2314977e-38 311 228
-0.0095381327 0.68000001 0.014307199 1.2590504e-38 312 228
-0.0083458666 0.68000001 0.014307199 1.4711362e-38 313 228
-0.0071535995 0.68000001 0.014307199 1.3247048e-38 314 228
-0.0059613334 0.68000001 0.014307199 1.3247048e-38 315 228
-0.0047690663 0.68000001 0.014307199 1.3327724e-38 316 228
-0.00358732 0.68199998 0.01434928 1.2221377e-38 317 228
-0.0023915465 0.68199998 0.01434928 1.2603479e-38 318 228
-0.0011957732 0.68199998 0.01434928 1.3986415e-38 319 228
0 0.68199998 0.01434928 1.3898194e-38 320 228
0.0011957732 0.68199998 0.01434928 1.3990749e-38 321 228
0.0023915465 0.68199998 0.01434928 1.315378e-38 322 228
0.00358732 0.68199998 0.01434928 1.3245976e-38 323 228
0.0047901068 0.68300003 0.014370319 1.3717739e-38 324 228
0.0059964 0.68400002 0.01439136 1.4455305e-38 325 228
0.0072167199 0.68599999 0.01443344 1.51882e-38 326 228
0.0084195063 0.68599999 0.01443344 1.3805266e-38 327 228
0.0096363192 0.68699998 0.014454478 1.3616533e-38 328 228
0.010856641 0.68800002 0.014475521 1.2141403e-38 329 228
0.012062933 0.68800002 0.014475521 1.1863334e-38 330 228
0.013269227 0.68800002 0.014475521 1.1217965e-38 331 228
0.014517599 0.69 0.014517599 1.2802906e-38 332 228
0.015795778 0.69300002 0.014580719 1.6029753e-38 333 228
0.017109027 0.69700003 0.01466488 1.4830847e-38 334 228
0.0183574 0.69800001 0.01468592 1.4553901e-38 335 228
0.019637333 0.69999999 0.014727999 1.4093279e-38 336 228
0.020864666 0.69999999 0.014727999 1.5199268e-38 337 228
-0.042711195 0.69599998 0.013423519 1.6049991e-38 285 229
-0.041490879 0.69599998 0.013423519 1.6513152e-38 286 229
-0.04009698 0.69300002 0.01336566 1.697449e-38 287 229
-0.038769703 0.69099998 0.013327086 1.8440985e-38 288 229
-0.037395094 0.68800002 0.013269227 1.834879e-38 289 229
-0.036136195 0.68699998 0.013249939 1.7338594e-38 290 229
-0.03477912 0.68400002 0.01319208 1.6785779e-38 291 229
-0.033530746 0.68300003 0.013172794 1.3109123e-38 292 229
-0.032333218 0.68300003 0.013172794 1.1265211e-38 293 229
-0.031090107 0.68199998 0.013153506 1.191669e-38 294 229
-0.029894331 0.68199998 0.013153506 1.2378028e-38 295 229
-0.02869856 0.68199998 0.013153506 1.5592625e-38 296 229
-0.027422134 0.68000001 0.013114933 1.7436536e-38 297 229
-0.026229866 0.68000001 0.013114933 1.8719714e-38 298 229
-0.025111238 0.68199998 0.013153506 1.374151e-38 299 229
-0.023915464 0.68199998 0.013153506 7.4786809e-39 300 229
-0.022719691 0.68199998 0.013153506 1.1350897e-38 301 229
-0.0214608 0.68000001 0.013114933 1.6581954e-38 302 229
-0.020268533 0.68000001 0.013114933 1.667415e-38 303 229
-0.019076265 0.68000001 0.013114933 1.7592862e-38 304 229
-0.017883999 0.68000001 0.013114933 1.7869449e-38 305 229
-0.016691733 0.68000001 0.013114933 1.7042916e-38 306 229
-0.015499466 0.68000001 0.013114933 1.6397546e-38 307 229
-0.014307199 0.68000001 0.013114933 1.6764521e-38 308 229
-0.013114933 0.68000001 0.013114933 1.5658532e-38 309 229
-0.011957732 0.68199998 0.013153506 1.5649487e-38 310 229
-0.010761959 0.68199998 0.013153506 1.1039705e-38 311 229
-0.009566186 0.68199998 0.013153506 1.1949441e-38 312 229
-0.0083458666 0.68000001 0.013114933 1.8310938e-38 313 229
-0.0071535995 0.68000001 0.013114933 1.5474864e-38 314 229
-0.0059613334 0.68000001 0.013114933 1.5567061e-38 315 229
-0.004783093 0.68199998 0.013153506 1.5086622e-38 316 229
-0.00358732 0.68199998 0.013153506 1.1399157e-38 317 229
-0.0023915465 0.68199998 0.013153506 1.40829e-38 318 229
-0.0011957732 0.68199998 0.013153506 1.5650585e-38 319 229
0 0.68199998 0.013153506 1.4454601e-38 320 229
0.0011957732 0.68199998 0.013153506 1.4177655e-38 321 229
0.0023915465 0.68199998 0.013153506 1.3717036e-38 322 229
0.0035925799 0.68300003 0.013172794 1.408546e-38 323 229
0.0047901068 0.68300003 0.013172794 1.3810302e-38 324 229
0.0060139326 0.68599999 0.013230653 1.3810302e-38 325 229
0.0072167199 0.68599999 0.013230653 1.4639333e-38 326 229
0.0084317802 0.68699998 0.013249939 1.3348594e-38 327 229
0.0096363192 0.68699998 0.013249939 1.3432495e-38 328 229
0.010856641 0.68800002 0.013269227 1.2049561e-38 329 229
0.012062933 0.68800002 0.013269227 1.2139198e-38 330 229
0.0133078 0.69 0.0133078 1.1125046e-38 331 229
0.014538639 0.69099998 0.013327086 1.2523432e-38 332 229
0.015818574 0.69400001 0.013384946 1.5750279e-38 333 229
0.017109027 0.69700003 0.013442807 1.4921239e-38 334 229
0.0183574 0.69800001 0.013462093 1.4921239e-38 335 229
0.019637333 0.69999999 0.013500666 1.4092923e-38 336 229
0.020864666 0.69999999 0.013500666 1.5199271e-38 337 229
-0.04405776 0.69800001 0.012238266 1.4940047e-38 284 230
-0.042711195 0.69599998 0.0122032 1.4663459e-38 285 230
-0.041490879 0.69599998 0.0122032 1.3477536e-38 286 230
-0.04009698 0.69300002 0.012150601 1.550584e-38 287 230
-0.038769703 0.69099998 0.012115533 1.7980742e-38 288 230
-0.037395094 0.68800002 0.012062933 1.7427928e-38 289 230
-0.036136195 0.68699998 0.012045399 1.651208e-38 290 230
-0.034880809 0.68599999 0.012027865 1.6604276e-38 291 230
-0.033579841 0.68400002 0.0119928 1.4855435e-38 292 230
-0.032333218 0.68300003 0.011975267 1.328775e-38 293 230
-0.031090107 0.68199998 0.011957732 1.3845245e-38 294 230
-0.029894331 0.68199998 0.011957732 1.439806e-38 295 230
-0.02869856 0.68199998 0.011957732 1.6051458e-38 296 230
-0.027502786 0.68199998 0.011957732 1.6235489e-38 297 230
-0.026307013 0.68199998 0.011957732 1.5963928e-38 298 230
-0.025111238 0.68199998 0.011957732 1.2368297e-38 299 230
-0.023915464 0.68199998 0.011957732 9.7580484e-39 300 230
-0.022719691 0.68199998 0.011957732 1.4460384e-38 301 230
-0.021523919 0.68199998 0.011957732 1.5111156e-38 302 230
-0.020328145 0.68199998 0.011957732 1.5387743e-38 303 230
-0.019076265 0.68000001 0.011922667 1.6124582e-38 304 230
-0.017883999 0.68000001 0.011922667 1.6401529e-38 305 230
-0.016691733 0.68000001 0.011922667 1.6028055e-38 306 230
-0.015499466 0.68000001 0.011922667 1.5567076e-38 307 230
-0.014307199 0.68000001 0.011922667 1.5751824e-38 308 230
-0.013114933 0.68000001 0.011922667 1.5935855e-38 309 230
-0.011957732 0.68199998 0.011957732 1.5475192e-38 310 230
-0.010761959 0.68199998 0.011957732 1.1879564e-38 311 230
-0.009566186 0.68199998 0.011957732 1.297476e-38 312 230
-0.0083704125 0.68199998 0.011957732 1.6939172e-38 313 230
-0.00717464 0.68199998 0.011957732 1.4740186e-38 314 230
-0.005978866 0.68199998 0.011957732 1.4832381e-38 315 230
-0.004783093 0.68199998 0.011957732 1.4182665e-38 316 230
-0.00358732 0.68199998 0.011957732 1.2338392e-38 317 230
-0.0023915465 0.68199998 0.011957732 1.4915911e-38 318 230
-0.0011957732 0.68199998 0.011957732 1.4823716e-38 319 230
0 0.68300003 0.011975267 1.4179456e-38 320 230
0.0011975267 0.68300003 0.011975267 1.3902869e-38 321 230
0.0023950534 0.68300003 0.011975267 1.4085463e-38 322 230
0.0035925799 0.68300003 0.011975267 1.4177658e-38 323 230
0.0047901068 0.68300003 0.011975267 1.362699e-38 324 230
0.0060139326 0.68599999 0.012027865 1.3811021e-38 325 230
0.0072167199 0.68599999 0.012027865 1.5009194e-38 326 230
0.0084317802 0.68699998 0.012045399 1.3257479e-38 327 230
0.0096363192 0.68699998 0.012045399 1.3522893e-38 328 230
0.010856641 0.68800002 0.012062933 1.2139959e-38 329 230
0.012097999 0.69 0.012097999 1.204521e-38 330 230
0.0133078 0.69 0.012097999 1.1860819e-38 331 230
0.014580719 0.69300002 0.012150601 1.4553901e-38 332 230
0.015864158 0.69599998 0.0122032 1.6121227e-38 333 230
0.017133573 0.69800001 0.012238266 1.4648246e-38 334 230
0.0183574 0.69800001 0.012238266 1.4371658e-38 335 230
0.019637333 0.69999999 0.012273333 1.3818137e-38 336 230
0.020864666 0.69999999 0.012273333 1.5016321e-38 337 230
-0.04405776 0.69800001 0.01101444 1.6412652e-38 284 231
-0.042772565 0.69700003 0.01099866 1.4661294e-38 285 231
-0.041490879 0.69599998 0.010982879 1.1817276e-38 286 231
-0.04009698 0.69300002 0.010935539 1.366083e-38 287 231
-0.038769703 0.69099998 0.01090398 1.6047154e-38 288 231
-0.037503798 0.69 0.010888199 1.6047154e-38 289 231
-0.036136195 0.68699998 0.010840859 1.5500455e-38 290 231
-0.034931656 0.68699998 0.010840859 1.6329855e-38 291 231
-0.033579841 0.68400002 0.01079352 1.5868158e-38 292 231
-0.032380559 0.68400002 0.01079352 1.5683767e-38 293 231
-0.031135695 0.68300003 0.01077774 1.6423127e-38 294 231
-0.029894331 0.68199998 0.010761959 1.7436905e-38 295 231
-0.02869856 0.68199998 0.010761959 1.7895006e-38 296 231
-0.027502786 0.68199998 0.010761959 1.7065254e-38 297 231
-0.026307013 0.68199998 0.010761959 1.6239792e-38 298 231
-0.02514806 0.68300003 0.01077774 1.2736e-38 299 231
-0.023915464 0.68199998 0.010761959 9.2077458e-39 300 231
-0.022719691 0.68199998 0.010761959 1.3264712e-38 301 231
-0.021523919 0.68199998 0.010761959 1.4189555e-38 302 231
-0.020328145 0.68199998 0.010761959 1.4189555e-38 303 231
-0.019132372 0.68199998 0.010761959 1.4465418e-38 304 231
-0.017936599 0.68199998 0.010761959 1.4373221e-38 305 231
-0.016740825 0.68199998 0.010761959 1.4368533e-38 306 231
-0.015545053 0.68199998 0.010761959 1.4184142e-38 307 231
-0.01434928 0.68199998 0.010761959 1.4460732e-38 308 231
-0.013153506 0.68199998 0.010761959 1.5106101e-38 309 231
-0.011957732 0.68199998 0.010761959 1.5014606e-38 310 231
-0.010761959 0.68199998 0.010761959 1.3723867e-38 311 231
-0.009566186 0.68199998 0.010761959 1.4827697e-38 312 231
-0.0083704125 0.68199998 0.010761959 1.5841489e-38 313 231
-0.00717464 0.68199998 0.010761959 1.4005146e-38 314 231
-0.005978866 0.68199998 0.010761959 1.391295e-38 315 231
-0.004783093 0.68199998 0.010761959 1.4369956e-38 316 231
-0.00358732 0.68199998 0.010761959 1.4001533e-38 317 231
-0.0023915465 0.68199998 0.010761959 1.5561665e-38 318 231
-0.0011957732 0.68199998 0.010761959 1.4455319e-38 319 231
0 0.68300003 0.01077774 1.4087979e-38 320 231
0.0011975267 0.68300003 0.01077774 1.3811753e-38 321 231
0.0023950534 0.68300003 0.01077774 1.4178009e-38 322 231
0.0035925799 0.68300003 0.01077774 1.4270204e-38 323 231
0.0047971201 0.68400002 0.01079352 1.3993969e-38 324 231
0.0060139326 0.68599999 0.010825079 1.4270557e-38 325 231
0.0072272392 0.68699998 0.010840859 1.5284705e-38 326 231
0.0084317802 0.68699998 0.010840859 1.3348597e-38 327 231
0.0096503468 0.68800002 0.010856641 1.3707653e-38 328 231
0.010888199 0.69 0.010888199 1.2140687e-38 329 231
0.012097999 0.69 0.010888199 1.1860478e-38 330 231
0.0133078 0.69 0.010888199 1.2505848e-38 331 231
0.01460176 0.69400001 0.01095132 1.4647917e-38 332 231
0.015886955 0.69700003 0.01099866 1.5846102e-38 333 231
0.017182667 0.69999999 0.011045999 1.4466019e-38 334 231
0.018409999 0.69999999 0.011045999 1.4097595e-38 335 231
0.019637333 0.69999999 0.011045999 1.3819583e-38 336 231
0.020864666 0.69999999 0.011045999 1.5018126e-38 337 231
-0.04405776 0.69800001 0.0097906133 1.7518281e-38 284 232
-0.042772565 0.69700003 0.0097765867 1.7702672e-38 285 232
-0.041490879 0.69599998 0.0097625591 1.5400674e-38 286 232
-0.04009698 0.69300002 0.0097204801 1.3741154e-38 287 232
-0.038769703 0.69099998 0.0096924258 1.3008289e-38 288 232
-0.037503798 0.69 0.0096783992 1.3285236e-38 289 232
-0.0361888 0.68800002 0.0096503468 1.2829295e-38 290 232
-0.034931656 0.68699998 0.0096363192 1.4120034e-38 291 232
-0.033727121 0.68699998 0.0096363192 1.5685567e-38 292 232
-0.032475237 0.68599999 0.0096222926 1.5777765e-38 293 232
-0.03118128 0.68400002 0.0095942402 1.5778844e-38 294 232
-0.029938167 0.68300003 0.0095802136 1.6885533e-38 295 232
-0.02869856 0.68199998 0.009566186 1.8265218e-38 296 232
-0.027502786 0.68199998 0.009566186 1.8542159e-38 297 232
-0.026307013 0.68199998 0.009566186 1.9366526e-38 298 232
-0.02514806 0.68300003 0.0095802136 1.4479806e-38 299 232
-0.023950534 0.68300003 0.0095802136 8.9329596e-39 300 232
-0.022719691 0.68199998 0.009566186 1.2989567e-38 301 232
-0.021523919 0.68199998 0.009566186 1.4373944e-38 302 232
-0.020328145 0.68199998 0.009566186 1.4005161e-38 303 232
-0.019132372 0.68199998 0.009566186 1.4463972e-38 304 232
-0.017936599 0.68199998 0.009566186 1.4463972e-38 305 232
-0.016740825 0.68199998 0.009566186 1.464655e-38 306 232
-0.015545053 0.68199998 0.009566186 1.464655e-38 307 232
-0.01434928 0.68199998 0.009566186 1.4647268e-38 308 232
-0.013153506 0.68199998 0.009566186 1.4555073e-38 309 232
-0.011957732 0.68199998 0.009566186 1.4644385e-38 310 232
-0.010761959 0.68199998 0.009566186 1.3537677e-38 311 232
-0.009566186 0.68199998 0.009566186 1.4457485e-38 312 232
-0.0083704125 0.68199998 0.009566186 1.4826628e-38 313 232
-0.00717464 0.68199998 0.009566186 1.409519e-38 314 232
-0.005978866 0.68199998 0.009566186 1.4371776e-38 315 232
-0.004783093 0.68199998 0.009566186 1.4464319e-38 316 232
-0.0035925799 0.68300003 0.0095802136 1.3726754e-38 317 232
-0.0023950534 0.68300003 0.0095802136 1.4086542e-38 318 232
-0.0011975267 0.68300003 0.0095802136 1.3809596e-38 319 232
0 0.68300003 0.0095802136 1.4270923e-38 320 232
0.0011975267 0.68300003 0.0095802136 1.454787e-38 321 232
0.0023950534 0.68300003 0.0095802136 1.4454951e-38 322 232
0.00359784 0.68400002 0.0095942402 1.4178364e-38 323 232
0.0048111463 0.68599999 0.0096222926 1.4545352e-38 324 232
0.0060226996 0.68699998 0.0096363192 1.5282917e-38 325 232
0.0072272392 0.68699998 0.0096363192 1.5377981e-38 326 232
0.0084317802 0.68699998 0.0096363192 1.2612112e-38 327 232
0.0096503468 0.68800002 0.0096503468 1.3706931e-38 328 232
0.010888199 0.69 0.0096783992 1.2508747e-38 329 232
0.012097999 0.69 0.0096783992 1.2138494e-38 330 232
0.013327086 0.69099998 0.0096924258 1.1861907e-38 331 232
0.01466488 0.69700003 0.0097765867 1.2802554e-38 332 232
0.015955333 0.69999999 0.0098186666 1.5291835e-38 333 232
0.017207211 0.70099998 0.0098326923 1.4744406e-38 334 232
0.018488899 0.70300001 0.0098607466 1.4099037e-38 335 232
0.019665385 0.70099998 0.0098326923 1.3544794e-38 336 232
0.020894472 0.70099998 0.0098326923 1.4650781e-38 337 232
-0.04405776 0.69800001 0.0085667865 1.6507e-38 284 233
-0.042772565 0.69700003 0.0085545136 1.7613346e-38 285 233
-0.041490879 0.69599998 0.0085422397 1.7057324e-38 286 233
-0.04009698 0.69300002 0.0085054198 1.5305608e-38 287 233
-0.038769703 0.69099998 0.008480873 1.2365059e-38 288 233
-0.037503798 0.69 0.0084686 1.2365059e-38 289 233
-0.0361888 0.68800002 0.0084440531 1.2179957e-38 290 233
-0.034931656 0.68699998 0.0084317802 1.1995566e-38 291 233
-0.033727121 0.68699998 0.0084317802 1.3657977e-38 292 233
-0.032475237 0.68599999 0.0084195063 1.5040913e-38 293 233
-0.03118128 0.68400002 0.0083949603 1.4948719e-38 294 233
-0.029982001 0.68400002 0.0083949603 1.5317502e-38 295 233
-0.028740639 0.68300003 0.0083826864 1.6149055e-38 296 233
-0.027543113 0.68300003 0.0083826864 1.7532328e-38 297 233
-0.026345588 0.68300003 0.0083826864 1.8911295e-38 298 233
-0.02514806 0.68300003 0.0083826864 1.3563968e-38 299 233
-0.023950534 0.68300003 0.0083826864 9.2081144e-39 300 233
-0.022753006 0.68300003 0.0083826864 1.2711908e-38 301 233
-0.02155548 0.68300003 0.0083826864 1.4465065e-38 302 233
-0.020328145 0.68199998 0.0083704125 1.4188476e-38 303 233
-0.019132372 0.68199998 0.0083704125 1.4463253e-38 304 233
-0.017936599 0.68199998 0.0083704125 1.4463253e-38 305 233
-0.016740825 0.68199998 0.0083704125 1.4556152e-38 306 233
-0.015545053 0.68199998 0.0083704125 1.4740183e-38 307 233
-0.01434928 0.68199998 0.0083704125 1.5105726e-38 308 233
-0.013153506 0.68199998 0.0083704125 1.4552552e-38 309 233
-0.011957732 0.68199998 0.0083704125 1.4732627e-38 310 233
-0.010761959 0.68199998 0.0083704125 1.445604e-38 311 233
-0.009566186 0.68199998 0.0083704125 1.4640081e-38 312 233
-0.0083704125 0.68199998 0.0083704125 1.4640081e-38 313 233
-0.0071851597 0.68300003 0.0083826864 1.4275985e-38 314 233
-0.0059876335 0.68300003 0.0083826864 1.5013908e-38 315 233
-0.0047901068 0.68300003 0.0083826864 1.4737313e-38 316 233
-0.0035925799 0.68300003 0.0083826864 1.3999747e-38 317 233
-0.0023950534 0.68300003 0.0083826864 1.4728664e-38 318 233
-0.0011975267 0.68300003 0.0083826864 1.4544273e-38 319 233
0 0.68300003 0.0083826864 1.4272711e-38 320 233
0.00119928 0.68400002 0.0083949603 1.4087961e-38 321 233
0.0023985601 0.68400002 0.0083949603 1.3621616e-38 322 233
0.00360836 0.68599999 0.0084195063 1.3713813e-38 323 233
0.0048181596 0.68699998 0.0084317802 1.4819084e-38 324 233
0.0060226996 0.68699998 0.0084317802 1.5280063e-38 325 233
0.0072272392 0.68699998 0.0084317802 1.5740979e-38 326 233
0.0084440531 0.68800002 0.0084440531 1.3343894e-38 327 233
0.0096503468 0.68800002 0.0084440531 1.361398e-38 328 233
0.010888199 0.69 0.0084686 1.3060807e-38 329 233
0.012097999 0.69 0.0084686 1.2138479e-38 330 233
0.01336566 0.69300002 0.0085054198 1.1123967e-38 331 233
0.01466488 0.69700003 0.0085545136 1.3629772e-38 332 233
0.015955333 0.69999999 0.0085913334 1.5842825e-38 333 233
0.017207211 0.70099998 0.0086036054 1.4651122e-38 334 233
0.018488899 0.70300001 0.0086281532 1.4097948e-38 335 233
0.019721493 0.70300001 0.0086281532 1.3635185e-38 336 233
-0.042833932 0.69800001 0.0073429602 1.5865952e-38 285 234
-0.041550495 0.69700003 0.00733244 1.7795969e-38 286 234
-0.040154841 0.69400001 0.0073008798 1.8901957e-38 287 234
-0.038769703 0.69099998 0.0072693196 1.7063802e-38 288 234
-0.037503798 0.69 0.0072587994 1.6510987e-38 289 234
-0.0361888 0.68800002 0.0072377604 1.7246754e-38 290 234
-0.034931656 0.68699998 0.0072272392 1.6785776e-38 291 234
-0.033727121 0.68699998 0.0072272392 1.3932403e-38 292 234
-0.032475237 0.68599999 0.0072167199 1.2825695e-38 293 234
-0.031272452 0.68599999 0.0072167199 1.1443491e-38 294 234
-0.029982001 0.68400002 0.0071956799 1.1074348e-38 295 234
-0.02878272 0.68400002 0.0071956799 9.334143e-39 296 234
-0.027583439 0.68400002 0.0071956799 1.1638675e-38 297 234
-0.02638416 0.68400002 0.0071956799 1.6144372e-38 298 234
-0.025184879 0.68400002 0.0071956799 1.3470699e-38 299 234
-0.0239856 0.68400002 0.0071956799 9.7634392e-39 300 234
-0.022753006 0.68300003 0.0071851597 1.1607352e-38 301 234
-0.02155548 0.68300003 0.0071851597 1.4646562e-38 302 234
-0.020357953 0.68300003 0.0071851597 1.4278138e-38 303 234
-0.019160427 0.68300003 0.0071851597 1.4554357e-38 304 234
-0.017962901 0.68300003 0.0071851597 1.4369605e-38 305 234
-0.016765373 0.68300003 0.0071851597 1.4736946e-38 306 234
-0.015567848 0.68300003 0.0071851597 1.464475e-38 307 234
-0.014370319 0.68300003 0.0071851597 1.5103207e-38 308 234
-0.013172794 0.68300003 0.0071851597 1.5011012e-38 309 234
-0.011975267 0.68300003 0.0071851597 1.4644382e-38 310 234
-0.01077774 0.68300003 0.0071851597 1.4920608e-38 311 234
-0.0095802136 0.68300003 0.0071851597 1.4640434e-38 312 234
-0.0083826864 0.68300003 0.0071851597 1.3902869e-38 313 234
-0.0071851597 0.68300003 0.0071851597 1.4181627e-38 314 234
-0.0059876335 0.68300003 0.0071851597 1.4919192e-38 315 234
-0.0047901068 0.68300003 0.0071851597 1.4826993e-38 316 234
-0.0035925799 0.68300003 0.0071851597 1.4550048e-38 317 234
-0.0023985601 0.68400002 0.0071956799 1.5465157e-38 318 234
-0.00119928 0.68400002 0.0071956799 1.518857e-38 319 234
0 0.68599999 0.0072167199 1.473298e-38 320 234
0.0012027866 0.68599999 0.0072167199 1.3626634e-38 321 234
0.0024055731 0.68599999 0.0072167199 1.2693896e-38 322 234
0.0036136196 0.68699998 0.0072272392 1.2509505e-38 323 234
0.0048181596 0.68699998 0.0072272392 1.3606848e-38 324 234
0.0060226996 0.68699998 0.0072272392 1.1855132e-38 325 234
0.0072377604 0.68800002 0.0072377604 1.2955342e-38 326 234
0.0084440531 0.68800002 0.0072377604 1.3140093e-38 327 234
0.0096503468 0.68800002 0.0072377604 1.3422789e-38 328 234
0.01090398 0.69099998 0.0072693196 1.3422789e-38 329 234
0.012115533 0.69099998 0.0072693196 1.2229621e-38 330 234
0.013384946 0.69400001 0.0073008798 1.2505848e-38 331 234
0.01468592 0.69800001 0.0073429602 1.547551e-38 332 234
0.015978126 0.70099998 0.0073745195 1.6397108e-38 333 234
0.017256306 0.70300001 0.0073955595 1.4375627e-38 334 234
0.018515198 0.704 0.0074060797 1.391465e-38 335 234
0.019749546 0.704 0.0074060797 1.363699e-38 336 234
-0.038769703 0.69099998 0.0060577663 1.8170154e-38 288 235
-0.037503798 0.69 0.0060489997 1.8170154e-38 289 235
-0.0361888 0.68800002 0.0060314666 1.8815872e-38 290 235
-0.034931656 0.68699998 0.0060226996 1.9276484e-38 291 235
-0.033727121 0.68699998 0.0060226996 1.7435111e-38 292 235
-0.032522578 0.68699998 0.0060226996 1.5499003e-38 293 235
-0.031272452 0.68599999 0.0060139326 1.3753047e-38 294 235
-0.030069664 0.68599999 0.0060139326 1.329207e-38 295 235
-0.02878272 0.68400002 0.0059964 1.1454994e-38 296 235
-0.027583439 0.68400002 0.0059964 1.1454994e-38 297 235
-0.02638416 0.68400002 0.0059964 1.6323003e-38 298 235
-0.025258519 0.68599999 0.0060139326 1.447909e-38 299 235
-0.0239856 0.68400002 0.0059964 9.674112e-39 300 235
-0.022786319 0.68400002 0.0059964 1.078082e-38 301 235
-0.02158704 0.68400002 0.0059964 1.4647268e-38 302 235
-0.020357953 0.68300003 0.0059876335 1.4555073e-38 303 235
-0.019160427 0.68300003 0.0059876335 1.4552552e-38 304 235
-0.017962901 0.68300003 0.0059876335 1.3814987e-38 305 235
-0.016765373 0.68300003 0.0059876335 1.4826625e-38 306 235
-0.015567848 0.68300003 0.0059876335 1.4826625e-38 307 235
-0.014370319 0.68300003 0.0059876335 1.5377634e-38 308 235
-0.013172794 0.68300003 0.0059876335 1.565386e-38 309 235
-0.011975267 0.68300003 0.0059876335 1.5195753e-38 310 235
-0.01077774 0.68300003 0.0059876335 1.5103558e-38 311 235
-0.0095802136 0.68300003 0.0059876335 1.5008494e-38 312 235
-0.0083826864 0.68300003 0.0059876335 1.4455321e-38 313 235
-0.0071851597 0.68300003 0.0059876335 1.4365292e-38 314 235
-0.0059876335 0.68300003 0.0059876335 1.5102857e-38 315 235
-0.0047901068 0.68300003 0.0059876335 1.4827344e-38 316 235
-0.0035925799 0.68300003 0.0059876335 1.4827344e-38 317 235
-0.0023985601 0.68400002 0.0059964 1.5192884e-38 318 235
-0.0012027866 0.68599999 0.0060139326 1.4916295e-38 319 235
0 0.68599999 0.0060139326 1.5745693e-38 320 235
0.0012027866 0.68599999 0.0060139326 1.3993617e-38 321 235
0.0024090798 0.68699998 0.0060226996 1.2777084e-38 322 235
0.0036136196 0.68699998 0.0060226996 1.1762932e-38 323 235
0.0048181596 0.68699998 0.0060226996 1.2584399e-38 324 235
0.0060226996 0.68699998 0.0060226996 1.2307812e-38 325 235
0.0072377604 0.68800002 0.0060314666 1.2678737e-38 326 235
0.0084440531 0.68800002 0.0060314666 1.3508856e-38 327 235
0.0096783992 0.69 0.0060489997 1.305615e-38 328 235
0.01090398 0.69099998 0.0060577663 1.3333097e-38 329 235
0.012150601 0.69300002 0.0060753003 1.2321816e-38 330 235
0.013423519 0.69599998 0.0061015999 1.269024e-38 331 235
0.014791119 0.70300001 0.0061629666 1.4829792e-38 332 235
0.016023712 0.70300001 0.0061629666 1.6028333e-38 333 235
0.017280852 0.704 0.0061717331 1.4833728e-38 334 235
0.018567799 0.70599997 0.0061892662 1.4280554e-38 335 235
0.019805651 0.70599997 0.0061892662 1.3820302e-38 336 235
0.021073313 0.70700002 0.0061980332 1.5664214e-38 337 235
-0.038769703 0.69099998 0.0048462129 1.6879771e-38 288 236
-0.03755815 0.69099998 0.0048462129 1.8815872e-38 289 236
-0.0361888 0.68800002 0.0048251734 1.9277202e-38 290 236
-0.03498251 0.68800002 0.0048251734 1.9369396e-38 291 236
-0.033727121 0.68699998 0.0048181596 1.9093531e-38 292 236
-0.032522578 0.68699998 0.0048181596 1.9093531e-38 293 236
-0.031318039 0.68699998 0.0048181596 1.8636147e-38 294 236
-0.030113498 0.68699998 0.0048181596 1.8820536e-38 295 236
-0.02886688 0.68599999 0.0048111463 1.8175893e-38 296 236
-0.027664091 0.68599999 0.0048111463 1.7346504e-38 297 236
-0.026461305 0.68599999 0.0048111463 1.7346504e-38 298 236
-0.025258519 0.68599999 0.0048111463 1.3289902e-38 299 236
-0.024055731 0.68599999 0.0048111463 9.4897277e-39 300 236
-0.022786319 0.68400002 0.0047971201 1.0596074e-38 301 236
-0.02158704 0.68400002 0.0047971201 1.4461082e-38 302 236
-0.020387759 0.68400002 0.0047971201 1.4461082e-38 303 236
-0.019160427 0.68300003 0.0047901068 1.4917744e-38 304 236
-0.017962901 0.68300003 0.0047901068 1.4732993e-38 305 236
-0.016765373 0.68300003 0.0047901068 1.5194684e-38 306 236
-0.015567848 0.68300003 0.0047901068 1.5747858e-38 307 236
-0.014370319 0.68300003 0.0047901068 1.5288675e-38 308 236
-0.013172794 0.68300003 0.0047901068 1.5380871e-38 309 236
-0.011975267 0.68300003 0.0047901068 1.5287955e-38 310 236
-0.01077774 0.68300003 0.0047901068 1.4734782e-38 311 236
-0.0095802136 0.68300003 0.0047901068 1.4362768e-38 312 236
-0.0083826864 0.68300003 0.0047901068 1.4639715e-38 313 236
-0.0071851597 0.68300003 0.0047901068 1.510321e-38 314 236
-0.0059876335 0.68300003 0.0047901068 1.5656025e-38 315 236
-0.0047901068 0.68300003 0.0047901068 1.5196119e-38 316 236
-0.00359784 0.68400002 0.0047971201 1.4550751e-38 317 236
-0.0023985601 0.68400002 0.0047971201 1.5285432e-38 318 236
-0.0012027866 0.68599999 0.0048111463 1.5562018e-38 319 236
0 0.68599999 0.0048111463 1.5744245e-38 320 236
0.0012045399 0.68699998 0.0048181596 1.3623386e-38 321 236
0.0024090798 0.68699998 0.0048181596 1.3049355e-38 322 236
0.0036136196 0.68699998 0.0048181596 1.2403986e-38 323 236
0.0048181596 0.68699998 0.0048181596 1.2954629e-38 324 236
0.0060226996 0.68699998 0.0048181596 1.3230857e-38 325 236
0.0072377604 0.68800002 0.0048251734 1.2957848e-38 326 236
0.0084686 0.69 0.0048391996 1.3418824e-38 327 236
0.0096924258 0.69099998 0.0048462129 1.2873558e-38 328 236
0.010935539 0.69300002 0.00486024 1.3057949e-38 329 236
0.012168133 0.69400001 0.0048672534 1.2506551e-38 330 236
0.013462093 0.69800001 0.0048953067 1.1584955e-38 331 236
0.014791119 0.70300001 0.0049303733 1.4547415e-38 332 236
0.016046507 0.704 0.0049373866 1.6299132e-38 333 236
0.017280852 0.704 0.0049373866 1.5016306e-38 334 236
0.018567799 0.70599997 0.0049514128 1.4739718e-38 335 236
0.019833706 0.70700002 0.0049584266 1.4003617e-38 336 236
0.021073313 0.70700002 0.0049584266 1.566314e-38 337 236
-0.03888192 0.69300002 0.0036451798 1.7245316e-38 288 237
-0.03755815 0.69099998 0.0036346598 1.6968369e-38 289 237
-0.036293998 0.69 0.0036293997 1.6051105e-38 290 237
-0.03498251 0.68800002 0.0036188802 1.6419887e-38 291 237
-0.033776212 0.68800002 0.0036188802 1.6607515e-38 292 237
-0.032569919 0.68800002 0.0036188802 1.6884098e-38 293 237
-0.031318039 0.68699998 0.0036136196 1.7068487e-38 294 237
-0.030113498 0.68699998 0.0036136196 1.7252516e-38 295 237
-0.028908957 0.68699998 0.0036136196 1.6886609e-38 296 237
-0.027664091 0.68599999 0.00360836 1.7624163e-38 297 237
-0.026461305 0.68599999 0.00360836 1.8177687e-38 298 237
-0.025258519 0.68599999 0.00360836 1.3199154e-38 299 237
-0.024090799 0.68699998 0.0036136196 1.0042899e-38 300 237
-0.022852944 0.68599999 0.00360836 1.1333636e-38 301 237
-0.02158704 0.68400002 0.00359784 1.5564909e-38 302 237
-0.020387759 0.68400002 0.00359784 1.5472713e-38 303 237
-0.01918848 0.68400002 0.00359784 1.528725e-38 304 237
-0.017962901 0.68300003 0.0035925799 1.5195053e-38 305 237
-0.016765373 0.68300003 0.0035925799 1.5289401e-38 306 237
-0.015567848 0.68300003 0.0035925799 1.5565628e-38 307 237
-0.014370319 0.68300003 0.0035925799 1.519577e-38 308 237
-0.013172794 0.68300003 0.0035925799 1.5287966e-38 309 237
-0.011975267 0.68300003 0.0035925799 1.5195773e-38 310 237
-0.01077774 0.68300003 0.0035925799 1.4550404e-38 311 237
-0.0095802136 0.68300003 0.0035925799 1.4086544e-38 312 237
-0.0083826864 0.68300003 0.0035925799 1.399399e-38 313 237
-0.0071851597 0.68300003 0.0035925799 1.4636841e-38 314 237
-0.0059876335 0.68300003 0.0035925799 1.4360254e-38 315 237
-0.0047971201 0.68400002 0.00359784 1.4260856e-38 316 237
-0.00359784 0.68400002 0.00359784 1.3430735e-38 317 237
-0.0023985601 0.68400002 0.00359784 1.4349086e-38 318 237
-0.0012045399 0.68699998 0.0036136196 1.3795912e-38 319 237
0 0.68699998 0.0036136196 1.3698675e-38 320 237
0.0012045399 0.68699998 0.0036136196 1.3422088e-38 321 237
0.0024090798 0.68699998 0.0036136196 1.2863876e-38 322 237
0.0036136196 0.68699998 0.0036136196 1.3047908e-38 323 237
0.0048251734 0.68800002 0.0036188802 1.2864227e-38 324 237
0.0060314666 0.68800002 0.0036188802 1.2864227e-38 325 237
0.0072587994 0.69 0.0036293997 1.2682337e-38 326 237
0.008480873 0.69099998 0.0036346598 1.3235509e-38 327 237
0.0097204801 0.69300002 0.0036451798 1.2872119e-38 328 237
0.01095132 0.69400001 0.0036504399 1.3240543e-38 329 237
0.012220734 0.69700003 0.00366622 1.2690579e-38 330 237
0.013462093 0.69800001 0.0036714801 1.1860819e-38 331 237
0.014791119 0.70300001 0.0036977797 1.547045e-38 332 237
0.016046507 0.704 0.0037030398 1.7221807e-38 333 237
0.017329946 0.70599997 0.0037135598 1.5386884e-38 334 237
0.018594101 0.70700002 0.0037188199 1.437273e-38 335 237
0.019833706 0.70700002 0.0037188199 1.427804e-38 336 237
0.021073313 0.70700002 0.0037188199 1.5937201e-38 337 237
0.022344479 0.708 0.00372408 1.4382856e-38 338 237
-0.038938027 0.69400001 0.0024336267 1.8721167e-38 288 238
-0.037666857 0.69300002 0.00243012 1.61397e-38 289 238
-0.036346599 0.69099998 0.0024231065 1.3930955e-38 290 238
-0.035084199 0.69 0.0024195998 1.4299737e-38 291 238
-0.0338744 0.69 0.0024195998 1.4025322e-38 292 238
-0.032569919 0.68800002 0.0024125867 1.4117517e-38 293 238
-0.031318039 0.68699998 0.0024090798 1.4486319e-38 294 238
-0.030113498 0.68699998 0.0024090798 1.4855101e-38 295 238
-0.028908957 0.68699998 0.0024090798 1.5410067e-38 296 238
-0.027704418 0.68699998 0.0024090798 1.6608592e-38 297 238
-0.026499879 0.68699998 0.0024090798 1.6704732e-38 298 238
-0.025295338 0.68699998 0.0024090798 1.2556305e-38 299 238
-0.024090799 0.68699998 0.0024090798 1.0781188e-38 300 238
-0.022886258 0.68699998 0.0024090798 1.1426558e-38 301 238
-0.021681719 0.68699998 0.0024090798 1.6487591e-38 302 238
-0.020447372 0.68599999 0.0024055731 1.6763818e-38 303 238
-0.019244585 0.68599999 0.0024055731 1.6120247e-38 304 238
-0.0179892 0.68400002 0.0023985601 1.6120247e-38 305 238
-0.016789921 0.68400002 0.0023985601 1.5569948e-38 306 238
-0.01559064 0.68400002 0.0023985601 1.5201524e-38 307 238
-0.014370319 0.68300003 0.0023950534 1.5197568e-38 308 238
-0.013172794 0.68300003 0.0023950534 1.5382318e-38 309 238
-0.011975267 0.68300003 0.0023950534 1.5474884e-38 310 238
-0.01077774 0.68300003 0.0023950534 1.5106101e-38 311 238
-0.0095802136 0.68300003 0.0023950534 1.4369237e-38 312 238
-0.0083826864 0.68300003 0.0023950534 1.114239e-38 313 238
-0.0071956799 0.68400002 0.0023985601 1.2963984e-38 314 238
-0.0059964 0.68400002 0.0023985601 1.2871429e-38 315 238
-0.0048181596 0.68699998 0.0024090798 1.3142257e-38 316 238
-0.0036136196 0.68699998 0.0024090798 1.2957866e-38 317 238
-0.0024055731 0.68599999 0.0024055731 1.3140091e-38 318 238
-0.0012027866 0.68599999 0.0024055731 1.2586917e-38 319 238
0 0.68699998 0.0024090798 1.2677666e-38 320 238
0.0012062934 0.68800002 0.0024125867 1.3138644e-38 321 238
0.0024090798 0.68699998 0.0024090798 1.3048611e-38 322 238
0.0036136196 0.68699998 0.0024090798 1.3140807e-38 323 238
0.0048251734 0.68800002 0.0024125867 1.3047891e-38 324 238
0.0060314666 0.68800002 0.0024125867 1.3047891e-38 325 238
0.0072693196 0.69099998 0.0024231065 1.2681984e-38 326 238
0.008480873 0.69099998 0.0024231065 1.3235156e-38 327 238
0.0097204801 0.69300002 0.00243012 1.2871766e-38 328 238
0.010982879 0.69599998 0.0024406398 1.3240548e-38 329 238
0.012220734 0.69700003 0.0024441467 1.2690229e-38 330 238
0.013500666 0.69999999 0.0024546667 1.3150848e-38 331 238
0.014791119 0.70300001 0.0024651866 1.6302747e-38 332 238
0.016046507 0.704 0.0024686933 1.7685681e-38 333 238
0.017329946 0.70599997 0.0024757064 1.612158e-38 334 238
0.018594101 0.70700002 0.0024792133 1.4830841e-38 335 238
0.019833706 0.70700002 0.0024792133 1.4093642e-38 336 238
0.021103119 0.708 0.00248272 1.5661328e-38 337 238
0.022344479 0.708 0.00248272 1.4658717e-38 338 238
-0.040386278 0.69800001 0.0012238267 1.6975209e-38 287 239
-0.038938027 0.69400001 0.0012168133 1.7714205e-38 288 239
-0.037666857 0.69300002 0.00121506 1.7529458e-38 289 239
-0.036451802 0.69300002 0.00121506 1.660066e-38 290 239
-0.035135046 0.69099998 0.0012115532 1.5494671e-38 291 239
-0.0338744 0.69 0.0012097999 1.4934677e-38 292 239
-0.032664597 0.69 0.0012097999 1.4381504e-38 293 239
-0.031363625 0.68800002 0.0012062934 1.2458366e-38 294 239
-0.030157333 0.68800002 0.0012062934 1.3103735e-38 295 239
-0.028908957 0.68699998 0.0012045399 1.3747305e-38 296 239
-0.027704418 0.68699998 0.0012045399 1.365511e-38 297 239
-0.026499879 0.68699998 0.0012045399 1.320671e-38 298 239
-0.025295338 0.68699998 0.0012045399 1.1362797e-38 299 239
-0.024125867 0.68800002 0.0012062934 1.1333636e-38 300 239
-0.022886258 0.68699998 0.0012045399 9.3975293e-39 301 239
-0.021681719 0.68699998 0.0012045399 1.4093376e-38 302 239
-0.020477179 0.68699998 0.0012045399 1.5015331e-38 303 239
-0.019272638 0.68699998 0.0012045399 1.4647271e-38 304 239
-0.018068098 0.68699998 0.0012045399 1.5200086e-38 305 239
-0.01686356 0.68699998 0.0012045399 1.6118801e-38 306 239
-0.015636226 0.68599999 0.0012027866 1.5473432e-38 307 239
-0.01443344 0.68599999 0.0012027866 1.5745337e-38 308 239
-0.013230653 0.68599999 0.0012027866 1.6298511e-38 309 239
-0.0119928 0.68400002 0.00119928 1.5565628e-38 310 239
-0.01079352 0.68400002 0.00119928 1.5565628e-38 311 239
-0.0095942402 0.68400002 0.00119928 1.4732968e-38 312 239
-0.0083949603 0.68400002 0.00119928 9.9384361e-39 313 239
-0.0072272392 0.68699998 0.0012045399 1.2867453e-38 314 239
-0.0060226996 0.68699998 0.0012045399 1.3512822e-38 315 239
-0.0048181596 0.68699998 0.0012045399 1.3696134e-38 316 239
-0.0036136196 0.68699998 0.0012045399 1.3696134e-38 317 239
-0.0024055731 0.68599999 0.0012027866 1.3511737e-38 318 239
-0.0012027866 0.68599999 0.0012027866 1.3235509e-38 319 239
0 0.68699998 0.0012045399 1.2960715e-38 320 239
0.0012062934 0.68800002 0.0012062934 1.2684128e-38 321 239
0.0024090798 0.68699998 0.0012045399 1.2958917e-38 322 239
0.0036136196 0.68699998 0.0012045399 1.268269e-38 323 239
0.0048251734 0.68800002 0.0012062934 1.2864929e-38 324 239
0.0060489997 0.69 0.0012097999 1.2864929e-38 325 239
0.0072693196 0.69099998 0.0012115532 1.2866368e-38 326 239
0.0085054198 0.69300002 0.00121506 1.3143314e-38 327 239
0.0097345067 0.69400001 0.0012168133 1.2962882e-38 328 239
0.010982879 0.69599998 0.0012203199 1.3239829e-38 329 239
0.0122032 0.69599998 0.0012203199 1.2690932e-38 330 239
0.013442807 0.69700003 0.0012220733 1.2690932e-38 331 239
0.014749039 0.70099998 0.0012290865 1.5932857e-38 332 239
0.016046507 0.704 0.0012343467 1.7592019e-38 333 239
0.017280852 0.704 0.0012343467 1.6305245e-38 334 239
0.018567799 0.70599997 0.0012378532 1.5383289e-38 335 239
0.019833706 0.70700002 0.0012396066 1.381958e-38 336 239
0.021103119 0.708 0.00124136 1.4925926e-38 337 239
0.022344479 0.708 0.00124136 1.4015866e-38 338 239
-0.042956665 0.69999999 -0 1.8532792e-38 285 240
-0.041729331 0.69999999 -0 1.7157084e-38 286 240
-0.040386278 0.69800001 -0 1.6880137e-38 287 240
-0.039106347 0.69700003 -0 1.7897158e-38 288 240
-0.037721213 0.69400001 -0 1.9003489e-38 289 240
-0.036451802 0.69300002 -0 1.9089944e-38 290 240
-0.035236739 0.69300002 -0 1.7891402e-38 291 240
-0.033923492 0.69099998 -0 1.5867061e-38 292 240
-0.032664597 0.69 -0 1.4761072e-38 293 240
-0.031363625 0.68800002 -0 1.4114999e-38 294 240
-0.030157333 0.68800002 -0 1.3653661e-38 295 240
-0.028908957 0.68699998 -0 1.2551634e-38 296 240
-0.027704418 0.68699998 -0 1.365798e-38 297 240
-0.026499879 0.68699998 -0 1.6052177e-38 298 240
-0.025295338 0.68699998 -0 1.4208264e-38 299 240
-0.024125867 0.68800002 -0 1.1792797e-38 300 240
-0.022919573 0.68800002 -0 8.2893628e-39 301 240
-0.021681719 0.68699998 -0 1.3978859e-38 302 240
-0.020477179 0.68699998 -0 1.4347281e-38 303 240
-0.019272638 0.68699998 -0 1.2885473e-38 304 240
-0.018068098 0.68699998 -0 1.3715235e-38 305 240
-0.01686356 0.68699998 -0 1.4268039e-38 306 240
-0.015659019 0.68699998 -0 1.4636463e-38 307 240
-0.014454478 0.68699998 -0 1.4358068e-38 308 240
-0.013249939 0.68699998 -0 1.45421e-38 309 240
-0.012045399 0.68699998 -0 1.4361308e-38 310 240
-0.010840859 0.68699998 -0 1.390033e-38 311 240
-0.0096363192 0.68699998 -0 1.4170779e-38 312 240
-0.0084317802 0.68699998 -0 1.1589302e-38 313 240
-0.0072272392 0.68699998 -0 1.3696485e-38 314 240
-0.0060226996 0.68699998 -0 1.3973073e-38 315 240
-0.0048181596 0.68699998 -0 1.3789399e-38 316 240
-0.0036188802 0.68800002 -0 1.3605368e-38 317 240
-0.0024125867 0.68800002 -0 1.3604639e-38 318 240
-0.0012062934 0.68800002 -0 1.3512444e-38 319 240
0 0.68800002 -0 1.3512076e-38 320 240
0.0012062934 0.68800002 -0 1.3143295e-38 321 240
0.0024125867 0.68800002 -0 1.3417008e-38 322 240
0.0036188802 0.68800002 -0 1.3232616e-38 323 240
0.0048391996 0.69 -0 1.3047878e-38 324 240
0.0060577663 0.69099998 -0 1.3324106e-38 325 240
0.0072903596 0.69300002 -0 1.2681631e-38 326 240
0.0085054198 0.69300002 -0 1.3142607e-38 327 240
0.0097345067 0.69400001 -0 1.2687743e-38 328 240
0.010982879 0.69599998 -0 1.3333112e-38 329 240
0.0122032 0.69599998 -0 1.2508336e-38 330 240
0.013442807 0.69700003 -0 1.2046999e-38 331 240
0.014749039 0.70099998 -0 1.5470055e-38 332 240
0.016046507 0.704 -0 1.7406163e-38 333 240
0.017280852 0.704 -0 1.5938596e-38 334 240
0.018567799 0.70599997 -0 1.5293226e-38 335 240
0.019805651 0.70599997 -0 1.3728106e-38 336 240
0.021043506 0.70599997 -0 1.4926649e-38 337 240
0.022344479 0.708 -0 1.548273e-38 338 240
-0.042956665 0.69999999 -0.0012273333 1.853351e-38 285 241
-0.041729331 0.69999999 -0.0012273333 1.752154e-38 286 241
-0.040386278 0.69800001 -0.0012238267 1.770629e-38 287 241
-0.039106347 0.69700003 -0.0012220733 1.8170154e-38 288 241
-0.037721213 0.69400001 -0.0012168133 1.918429e-38 289 241
-0.036504399 0.69400001 -0.0012168133 1.9737097e-38 290 241
-0.035236739 0.69300002 -0.00121506 1.9921844e-38 291 241
-0.034021679 0.69300002 -0.00121506 1.8819818e-38 292 241
-0.032711938 0.69099998 -0.0012115532 1.8358488e-38 293 241
-0.031454802 0.69 -0.0012097999 1.8447095e-38 294 241
-0.030157333 0.68800002 -0.0012062934 1.6879789e-38 295 241
-0.028908957 0.68699998 -0.0012045399 1.4946199e-38 296 241
-0.027704418 0.68699998 -0.0012045399 1.6513883e-38 297 241
-0.026499879 0.68699998 -0.0012045399 1.8446019e-38 298 241
-0.025295338 0.68699998 -0.0012045399 1.5311372e-38 299 241
-0.024125867 0.68800002 -0.0012062934 1.188715e-38 300 241
-0.022919573 0.68800002 -0.0012062934 9.7662922e-39 301 241
-0.021713281 0.68800002 -0.0012062934 1.5278595e-38 302 241
-0.020506985 0.68800002 -0.0012062934 1.4633226e-38 303 241
-0.019300694 0.68800002 -0.0012062934 1.380456e-38 304 241
-0.0180944 0.68800002 -0.0012062934 1.4173342e-38 305 241
-0.01686356 0.68699998 -0.0012045399 1.4349452e-38 306 241
-0.015659019 0.68699998 -0.0012045399 1.3796278e-38 307 241
-0.014454478 0.68699998 -0.0012045399 1.3701549e-38 308 241
-0.013249939 0.68699998 -0.0012045399 1.3516799e-38 309 241
-0.012045399 0.68699998 -0.0012045399 1.3527562e-38 310 241
-0.010840859 0.68699998 -0.0012045399 1.168365e-38 311 241
-0.0096363192 0.68699998 -0.0012045399 1.259049e-38 312 241
-0.0084317802 0.68699998 -0.0012045399 1.323586e-38 313 241
-0.0072272392 0.68699998 -0.0012045399 1.3328072e-38 314 241
-0.0060226996 0.68699998 -0.0012045399 1.3420268e-38 315 241
-0.0048251734 0.68800002 -0.0012062934 1.3512469e-38 316 241
-0.0036188802 0.68800002 -0.0012062934 1.3327719e-38 317 241
