# .PCD v.7 - Point Cloud Data file format
FIELDS x y z rgb imX imY
SIZE 4 4 4 4 4 4
TYPE F F F F F F
COUNT 1 1 1 1 1 1
WIDTH 840
HEIGHT 1
VIEWPOINT 0 0 0 1 0 0 0
POINTS 840
DATA ascii
-0.027502786 0.68199998 0.015545053 3.7796677e-39 297 227
-0.026307013 0.68199998 0.015545053 6.1739052e-39 298 227
-0.025111238 0.68199998 0.015545053 6.5426878e-39 299 227
-0.023915464 0.68199998 0.015545053 6.1703347e-39 300 227
-0.022719691 0.68199998 0.015545053 5.063627e-39 301 227
-0.021523919 0.68199998 0.015545053 2.0315829e-39 302 227
-0.020328145 0.68199998 0.015545053 1.2018208e-39 303 227
-0.019132372 0.68199998 0.015545053 1.9354076e-39 304 227
-0.017962901 0.68300003 0.015567848 1.9354076e-39 305 227
-0.016740825 0.68199998 0.015545053 1.7524555e-39 306 227
-0.015545053 0.68199998 0.015545053 2.2134336e-39 307 227
-0.01434928 0.68199998 0.015545053 1.8457273e-39 308 227
-0.013153506 0.68199998 0.015545053 1.6616948e-39 309 227
-0.011975267 0.68300003 0.015567848 1.7524456e-39 310 227
-0.010761959 0.68199998 0.015545053 1.5676957e-39 311 227
-0.009566186 0.68199998 0.015545053 1.6584479e-39 312 227
-0.0083704125 0.68199998 0.015545053 1.6584479e-39 313 227
-0.00717464 0.68199998 0.015545053 1.6577263e-39 314 227
-0.0059876335 0.68300003 0.015567848 1.6577263e-39 315 227
-0.0047901068 0.68300003 0.015567848 1.5662467e-39 316 227
-0.0035925799 0.68300003 0.015567848 1.6584423e-39 317 227
-0.0023985601 0.68400002 0.01559064 1.0177449e-39 318 227
-0.00119928 0.68400002 0.01559064 9.2554923e-40 319 227
0 0.68400002 0.01559064 1.1081426e-39 320 227
0.00119928 0.68400002 0.01559064 9.2375136e-40 321 227
0.0023985601 0.68400002 0.01559064 1.1052714e-39 322 227
0.00360836 0.68599999 0.015636226 1.1974684e-39 323 227
0.0048181596 0.68699998 0.015659019 1.2896668e-39 324 227
0.0060314666 0.68800002 0.015681813 1.5662523e-39 325 227
0.0072377604 0.68800002 0.015681813 1.5687704e-39 326 227
0.0084440531 0.68800002 0.015681813 1.6609661e-39 327 227
0.0096503468 0.68800002 0.015681813 1.5684173e-39 328 227
0.010888199 0.69 0.015727401 1.3843862e-39 329 227
0.012097999 0.69 0.015727401 1.5673453e-39 330 227
0.0133078 0.69 0.015727401 1.9361264e-39 331 227
0.014538639 0.69099998 0.015750192 1.4776664e-39 332 227
0.015955333 0.69999999 0.015955333 1.4776664e-39 333 227
0.017182667 0.69999999 0.015955333 1.8453573e-39 334 227
0.018409999 0.69999999 0.015955333 1.937553e-39 335 227
0.019637333 0.69999999 0.015955333 3.2228814e-39 336 227
-0.044827472 0.69099998 0.014538639 3.9589947e-39 283 228
-0.043552797 0.69 0.014517599 3.2239576e-39 284 228
-0.042342998 0.69 0.014517599 3.1317619e-39 285 228
-0.041133199 0.69 0.014517599 3.0395663e-39 286 228
-0.039807681 0.68800002 0.014475521 3.0395663e-39 287 228
-0.038545277 0.68699998 0.014454478 3.1306857e-39 288 228
-0.037340738 0.68699998 0.014454478 2.9466532e-39 289 228
-0.036136195 0.68699998 0.014454478 2.3945654e-39 290 228
-0.034880809 0.68599999 0.01443344 2.1183387e-39 291 228
-0.033579841 0.68400002 0.01439136 1.7509967e-39 292 228
-0.032380559 0.68400002 0.01439136 1.7509967e-39 293 228
-0.031135695 0.68300003 0.014370319 1.7509967e-39 294 228
-0.029938167 0.68300003 0.014370319 1.8431937e-39 295 228
-0.02869856 0.68199998 0.01434928 1.9350362e-39 296 228
-0.027502786 0.68199998 0.01434928 3.0413824e-39 297 228
-0.026307013 0.68199998 0.01434928 4.5176251e-39 298 228
-0.025111238 0.68199998 0.01434928 5.2551901e-39 299 228
-0.023915464 0.68199998 0.01434928 5.4388962e-39 300 228
-0.022719691 0.68199998 0.01434928 5.2545049e-39 301 228
-0.02155548 0.68300003 0.014370319 3.0446614e-39 302 228
-0.020328145 0.68199998 0.01434928 1.3851415e-39 303 228
-0.019132372 0.68199998 0.01434928 1.6595438e-39 304 228
-0.017936599 0.68199998 0.01434928 1.6595438e-39 305 228
-0.016691733 0.68000001 0.014307199 1.4765944e-39 306 228
-0.015499466 0.68000001 0.014307199 1.6613444e-39 307 228
-0.01434928 0.68199998 0.01434928 1.8457301e-39 308 228
-0.013153506 0.68199998 0.01434928 1.6613388e-39 309 228
-0.011975267 0.68300003 0.014370319 1.935402e-39 310 228
-0.010761959 0.68199998 0.01434928 1.8432063e-39 311 228
-0.009566186 0.68199998 0.01434928 1.7513638e-39 312 228
-0.0083704125 0.68199998 0.01434928 1.5673313e-39 313 228
-0.00717464 0.68199998 0.01434928 1.8410413e-39 314 228
-0.0059876335 0.68300003 0.014370319 1.7488457e-39 315 228
-0.0047901068 0.68300003 0.014370319 1.3829373e-39 316 228
-0.00359784 0.68400002 0.01439136 1.4751329e-39 317 228
-0.0023985601 0.68400002 0.01439136 1.2925367e-39 318 228
-0.00119928 0.68400002 0.01439136 1.2003411e-39 319 228
0 0.68400002 0.01439136 1.3832904e-39 320 228
0.00119928 0.68400002 0.01439136 1.290736e-39 321 228
0.0024055731 0.68599999 0.01443344 1.29002e-39 322 228
0.00360836 0.68599999 0.01443344 1.4740511e-39 323 228
0.0048181596 0.68699998 0.014454478 1.3829373e-39 324 228
0.0060314666 0.68800002 0.014475521 1.5673285e-39 325 228
0.0072377604 0.68800002 0.014475521 1.6602444e-39 326 228
0.0084440531 0.68800002 0.014475521 2.0290255e-39 327 228
0.0096503468 0.68800002 0.014475521 1.9357551e-39 328 228
0.010888199 0.69 0.014517599 1.8435595e-39 329 228
0.012097999 0.69 0.014517599 1.4769476e-39 330 228
0.013327086 0.69099998 0.014538639 1.5691432e-39 331 228
0.014538639 0.69099998 0.014538639 2.0283193e-39 332 228
0.015955333 0.69999999 0.014727999 2.0283193e-39 333 228
0.017182667 0.69999999 0.014727999 2.3038145e-39 334 228
0.018409999 0.69999999 0.014727999 2.3960102e-39 335 228
-0.044827472 0.69099998 0.013327086 3.775688e-39 283 229
-0.043552797 0.69 0.0133078 3.4983921e-39 284 229
-0.042342998 0.69 0.0133078 3.4983921e-39 285 229
-0.041133199 0.69 0.0133078 3.1317647e-39 286 229
-0.039807681 0.68800002 0.013269227 3.1317647e-39 287 229
-0.038545277 0.68699998 0.013249939 2.9480923e-39 288 229
-0.037340738 0.68699998 0.013249939 2.6715055e-39 289 229
-0.036083598 0.68599999 0.013230653 2.3945654e-39 290 229
-0.034880809 0.68599999 0.013230653 2.1183387e-39 291 229
-0.03348165 0.68199998 0.013153506 1.7509967e-39 292 229
-0.032285877 0.68199998 0.013153506 1.6584423e-39 293 229
-0.031090107 0.68199998 0.013153506 1.7509967e-39 294 229
-0.029894331 0.68199998 0.013153506 1.7509967e-39 295 229
-0.02869856 0.68199998 0.013153506 2.1190674e-39 296 229
-0.027502786 0.68199998 0.013153506 2.8569911e-39 297 229
-0.026307013 0.68199998 0.013153506 2.3074313e-39 298 229
-0.025111238 0.68199998 0.013153506 2.6758537e-39 299 229
-0.023915464 0.68199998 0.013153506 3.4130684e-39 300 229
-0.022719691 0.68199998 0.013153506 3.5978198e-39 301 229
-0.02155548 0.68300003 0.013172794 2.5811427e-39 302 229
-0.020357953 0.68300003 0.013172794 1.6591878e-39 303 229
-0.019132372 0.68199998 0.013153506 1.7499415e-39 304 229
-0.017936599 0.68199998 0.013153506 1.7499415e-39 305 229
-0.016691733 0.68000001 0.013114933 1.6595438e-39 306 229
-0.015499466 0.68000001 0.013114933 1.9357705e-39 307 229
-0.01434928 0.68199998 0.013153506 2.0279661e-39 308 229
-0.013153506 0.68199998 0.013153506 2.0279661e-39 309 229
-0.011975267 0.68300003 0.013172794 2.0286752e-39 310 229
-0.010761959 0.68199998 0.013153506 1.9361208e-39 311 229
-0.009566186 0.68199998 0.013153506 1.9368299e-39 312 229
-0.0083826864 0.68300003 0.013172794 1.6602444e-39 313 229
-0.0071851597 0.68300003 0.013172794 1.9332342e-39 314 229
-0.0059876335 0.68300003 0.013172794 1.7488429e-39 315 229
-0.0047971201 0.68400002 0.01319208 1.2903857e-39 316 229
-0.00359784 0.68400002 0.01319208 1.4751357e-39 317 229
-0.0023985601 0.68400002 0.01319208 1.3836561e-39 318 229
-0.0012045399 0.68699998 0.013249939 1.3836561e-39 319 229
0 0.68699998 0.013249939 1.4751301e-39 320 229
0.0012027866 0.68599999 0.013230653 1.2907388e-39 321 229
0.0024055731 0.68599999 0.013230653 1.1985432e-39 322 229
0.00360836 0.68599999 0.013230653 1.2907388e-39 323 229
0.0048181596 0.68699998 0.013249939 1.3825813e-39 324 229
0.0060226996 0.68699998 0.013249939 1.5673313e-39 325 229
0.0072272392 0.68699998 0.013249939 1.5684145e-39 326 229
0.0084440531 0.68800002 0.013269227 1.7531645e-39 327 229
0.0096503468 0.68800002 0.013269227 1.9364768e-39 328 229
0.010888199 0.69 0.0133078 1.7524456e-39 329 229
0.012115533 0.69099998 0.013327086 1.6606129e-39 330 229
0.013327086 0.69099998 0.013327086 1.7528086e-39 331 229
0.014643839 0.69599998 0.013423519 2.1201492e-39 332 229
0.015864158 0.69599998 0.013423519 2.1201492e-39 333 229
-0.0447626 0.69 0.012097999 3.9590003e-39 283 230
-0.043552797 0.69 0.012097999 3.3150798e-39 284 230
-0.042342998 0.69 0.012097999 3.3150798e-39 285 230
-0.041013971 0.68800002 0.012062933 2.9480923e-39 286 230
-0.039807681 0.68800002 0.012062933 2.9480923e-39 287 230
-0.038545277 0.68699998 0.012045399 2.7637025e-39 288 230
-0.037286382 0.68599999 0.012027865 2.5793098e-39 289 230
-0.036083598 0.68599999 0.012027865 2.3023698e-39 290 230
-0.034880809 0.68599999 0.012027865 2.1183387e-39 291 230
-0.03348165 0.68199998 0.011957732 1.9343062e-39 292 230
-0.032285877 0.68199998 0.011957732 1.750275e-39 293 230
-0.031090107 0.68199998 0.011957732 1.750275e-39 294 230
-0.029894331 0.68199998 0.011957732 2.0265032e-39 295 230
-0.02869856 0.68199998 0.011957732 2.3038117e-39 296 230
-0.027502786 0.68199998 0.011957732 2.8569855e-39 297 230
-0.026307013 0.68199998 0.011957732 2.8598596e-39 298 230
-0.025111238 0.68199998 0.011957732 3.2286421e-39 299 230
-0.023915464 0.68199998 0.011957732 3.9672833e-39 300 230
-0.022719691 0.68199998 0.011957732 3.5063052e-39 301 230
-0.02155548 0.68300003 0.011975267 2.3952913e-39 302 230
-0.020357953 0.68300003 0.011975267 2.0265088e-39 303 230
-0.019160427 0.68300003 0.011975267 1.6573759e-39 304 230
-0.017936599 0.68199998 0.011957732 1.6573759e-39 305 230
-0.016740825 0.68199998 0.011957732 1.5669824e-39 306 230
-0.015545053 0.68199998 0.011957732 1.9354048e-39 307 230
-0.01434928 0.68199998 0.011957732 2.0286752e-39 308 230
-0.013153506 0.68199998 0.011957732 2.2130679e-39 309 230
-0.011975267 0.68300003 0.011975267 2.02975e-39 310 230
-0.01077774 0.68300003 0.011975267 2.02975e-39 311 230
-0.0095802136 0.68300003 0.011975267 2.1212212e-39 312 230
-0.0083826864 0.68300003 0.011975267 1.6602444e-39 313 230
-0.0071851597 0.68300003 0.011975267 1.6577263e-39 314 230
-0.0059876335 0.68300003 0.011975267 1.6577263e-39 315 230
-0.0047901068 0.68300003 0.011975267 1.3829373e-39 316 230
-0.0035925799 0.68300003 0.011975267 1.4751329e-39 317 230
-0.0024055731 0.68599999 0.012027865 1.2925395e-39 318 230
-0.0012027866 0.68599999 0.012027865 1.2925395e-39 319 230
0 0.68599999 0.012027865 1.5673257e-39 320 230
0.0012027866 0.68599999 0.012027865 1.3829344e-39 321 230
0.0024055731 0.68599999 0.012027865 1.3829344e-39 322 230
0.00360836 0.68599999 0.012027865 1.3829344e-39 323 230
0.0048181596 0.68699998 0.012045399 1.2907416e-39 324 230
0.0060226996 0.68699998 0.012045399 1.4751329e-39 325 230
0.0072272392 0.68699998 0.012045399 1.5680516e-39 326 230
0.0084440531 0.68800002 0.012062933 1.6602472e-39 327 230
0.0096503468 0.68800002 0.012062933 1.8435595e-39 328 230
0.01090398 0.69099998 0.012115533 1.9357551e-39 329 230
0.012115533 0.69099998 0.012115533 1.9357551e-39 330 230
0.01336566 0.69300002 0.012150601 2.0279507e-39 331 230
0.014643839 0.69599998 0.0122032 2.2126951e-39 332 230
0.015864158 0.69599998 0.0122032 2.2126951e-39 333 230
-0.0447626 0.69 0.010888199 3.407623e-39 283 231
-0.043552797 0.69 0.010888199 3.039216e-39 284 231
-0.042342998 0.69 0.010888199 3.039216e-39 285 231
-0.041013971 0.68800002 0.010856641 2.7637053e-39 286 231
-0.039807681 0.68800002 0.010856641 2.7637053e-39 287 231
-0.038545277 0.68699998 0.010840859 2.7626221e-39 288 231
-0.037286382 0.68599999 0.010825079 2.6704265e-39 289 231
-0.036083598 0.68599999 0.010825079 2.4863953e-39 290 231
-0.034880809 0.68599999 0.010825079 2.3941997e-39 291 231
-0.033530746 0.68300003 0.01077774 2.3020041e-39 292 231
-0.032333218 0.68300003 0.01077774 2.3020041e-39 293 231
-0.031135695 0.68300003 0.01077774 2.026492e-39 294 231
-0.029894331 0.68199998 0.010761959 2.3027201e-39 295 231
-0.02869856 0.68199998 0.010761959 2.6715055e-39 296 231
-0.027502786 0.68199998 0.010761959 3.4090719e-39 297 231
-0.026345588 0.68300003 0.01077774 3.5041402e-39 298 231
-0.02514806 0.68300003 0.01077774 4.3335421e-39 299 231
-0.023915464 0.68199998 0.010761959 5.0707596e-39 300 231
-0.022719691 0.68199998 0.010761959 3.7800208e-39 301 231
-0.02155548 0.68300003 0.01077774 2.1201492e-39 302 231
-0.020357953 0.68300003 0.01077774 1.5669768e-39 303 231
-0.019160427 0.68300003 0.01077774 1.3829373e-39 304 231
-0.017962901 0.68300003 0.01077774 1.3829373e-39 305 231
-0.016765373 0.68300003 0.01077774 1.9339558e-39 306 231
-0.015567848 0.68300003 0.01077774 2.2109029e-39 307 231
-0.014370319 0.68300003 0.01077774 1.937553e-39 308 231
-0.013172794 0.68300003 0.01077774 2.02975e-39 309 231
-0.011975267 0.68300003 0.01077774 2.2141399e-39 310 231
-0.01077774 0.68300003 0.01077774 2.02975e-39 311 231
-0.0095802136 0.68300003 0.01077774 1.9364768e-39 312 231
-0.0083826864 0.68300003 0.01077774 1.4755e-39 313 231
-0.0071851597 0.68300003 0.01077774 1.658092e-39 314 231
-0.0059876335 0.68300003 0.01077774 1.4737008e-39 315 231
-0.0047901068 0.68300003 0.01077774 1.3825813e-39 316 231
-0.0035925799 0.68300003 0.01077774 1.4751357e-39 317 231
-0.0024055731 0.68599999 0.010825079 1.5680488e-39 318 231
-0.0012027866 0.68599999 0.010825079 1.5680488e-39 319 231
0 0.68599999 0.010825079 2.0265032e-39 320 231
0.0012027866 0.68599999 0.010825079 1.9343062e-39 321 231
0.0024055731 0.68599999 0.010825079 1.4754804e-39 322 231
0.00360836 0.68599999 0.010825079 1.4754804e-39 323 231
0.0048181596 0.68699998 0.010840859 1.3832904e-39 324 231
0.0060226996 0.68699998 0.010840859 1.3832904e-39 325 231
0.0072272392 0.68699998 0.010840859 1.3833002e-39 326 231
0.0084440531 0.68800002 0.010856641 1.4754958e-39 327 231
0.0096503468 0.68800002 0.010856641 1.751361e-39 328 231
0.01090398 0.69099998 0.01090398 1.936111e-39 329 231
0.012115533 0.69099998 0.01090398 2.2116161e-39 330 231
0.01336566 0.69300002 0.010935539 2.3038117e-39 331 231
0.014643839 0.69599998 0.010982879 2.6722257e-39 332 231
0.015864158 0.69599998 0.010982879 2.7644214e-39 333 231
0.017109027 0.69700003 0.01099866 2.9484427e-39 334 231
-0.0447626 0.69 0.0096783992 3.2232345e-39 283 232
-0.043552797 0.69 0.0096783992 3.1303298e-39 284 232
-0.042342998 0.69 0.0096783992 2.8541017e-39 285 232
-0.041013971 0.68800002 0.0096503468 2.8540989e-39 286 232
-0.039807681 0.68800002 0.0096503468 2.7619032e-39 287 232
-0.038545277 0.68699998 0.0096363192 2.5793098e-39 288 232
-0.037286382 0.68599999 0.0096222926 2.4871142e-39 289 232
-0.036083598 0.68599999 0.0096222926 2.2116063e-39 290 232
-0.034880809 0.68599999 0.0096222926 2.3038019e-39 291 232
-0.033530746 0.68300003 0.0095802136 2.4867583e-39 292 232
-0.032333218 0.68300003 0.0095802136 2.4867583e-39 293 232
-0.031135695 0.68300003 0.0095802136 2.2112504e-39 294 232
-0.029894331 0.68199998 0.009566186 2.3956416e-39 295 232
-0.02869856 0.68199998 0.009566186 3.2246764e-39 296 232
-0.027502786 0.68199998 0.009566186 4.0547972e-39 297 232
-0.026345588 0.68300003 0.0095802136 4.332103e-39 298 232
-0.02514806 0.68300003 0.0095802136 5.3462549e-39 299 232
-0.023915464 0.68199998 0.009566186 6.5379864e-39 300 232
-0.022719691 0.68199998 0.009566186 3.4951705e-39 301 232
-0.02158704 0.68400002 0.0095942402 1.2904011e-39 302 232
-0.020387759 0.68400002 0.0095942402 1.3825967e-39 303 232
-0.01918848 0.68400002 0.0095942402 1.4737036e-39 304 232
-0.017962901 0.68300003 0.0095802136 1.5658992e-39 305 232
-0.016765373 0.68300003 0.0095802136 1.7499275e-39 306 232
-0.015567848 0.68300003 0.0095802136 2.3949382e-39 307 232
-0.014370319 0.68300003 0.0095802136 2.120868e-39 308 232
-0.013172794 0.68300003 0.0095802136 2.3978151e-39 309 232
-0.011957732 0.68199998 0.009566186 2.0297528e-39 310 232
-0.010761959 0.68199998 0.009566186 1.7531645e-39 311 232
-0.009566186 0.68199998 0.009566186 2.0258025e-39 312 232
-0.0083704125 0.68199998 0.009566186 1.6573788e-39 313 232
-0.0071851597 0.68300003 0.0095802136 1.2903885e-39 314 232
-0.0059876335 0.68300003 0.0095802136 1.2903885e-39 315 232
-0.0047901068 0.68300003 0.0095802136 1.2903857e-39 316 232
-0.00359784 0.68400002 0.0095942402 1.5673313e-39 317 232
-0.0023985601 0.68400002 0.0095942402 1.7513638e-39 318 232
-0.00119928 0.68400002 0.0095942402 1.8435595e-39 319 232
0 0.68599999 0.0096222926 2.1187044e-39 320 232
0.0012027866 0.68599999 0.0096222926 2.1187044e-39 321 232
0.0024055731 0.68599999 0.0096222926 1.5684019e-39 322 232
0.0036136196 0.68699998 0.0096363192 1.4762049e-39 323 232
0.0048181596 0.68699998 0.0096363192 1.5662467e-39 324 232
0.0060226996 0.68699998 0.0096363192 1.5662467e-39 325 232
0.0072272392 0.68699998 0.0096363192 1.5662467e-39 326 232
0.0084440531 0.68800002 0.0096503468 1.6584423e-39 327 232
0.0096503468 0.68800002 0.0096503468 2.0261389e-39 328 232
0.01090398 0.69099998 0.0096924258 2.302367e-39 329 232
0.012150601 0.69300002 0.0097204801 2.3956416e-39 330 232
0.01336566 0.69300002 0.0097204801 2.6722285e-39 331 232
0.01466488 0.69700003 0.0097765867 2.9480895e-39 332 232
0.015886955 0.69700003 0.0097765867 2.9480895e-39 333 232
0.017109027 0.69700003 0.0097765867 3.0395635e-39 334 232
-0.043552797 0.69 0.0084686 2.5793126e-39 284 233
-0.042342998 0.69 0.0084686 2.3945626e-39 285 233
-0.041133199 0.69 0.0084686 2.4860422e-39 286 233
-0.039807681 0.68800002 0.0084440531 2.4860422e-39 287 233
-0.038545277 0.68699998 0.0084317802 2.6704265e-39 288 233
-0.037286382 0.68599999 0.0084195063 2.6704265e-39 289 233
-0.036083598 0.68599999 0.0084195063 2.3963507e-39 290 233
-0.03477912 0.68400002 0.0083949603 2.3963507e-39 291 233
-0.033530746 0.68300003 0.0083826864 2.3967164e-39 292 233
-0.032333218 0.68300003 0.0083826864 2.3045208e-39 293 233
-0.031135695 0.68300003 0.0083826864 2.4889163e-39 294 233
-0.029894331 0.68199998 0.0083704125 2.5811119e-39 295 233
-0.02869856 0.68199998 0.0083704125 3.1346486e-39 296 233
-0.027502786 0.68199998 0.0083704125 3.780018e-39 297 233
-0.026345588 0.68300003 0.0083826864 3.3219293e-39 298 233
-0.02514806 0.68300003 0.0083826864 4.0594944e-39 299 233
-0.023950534 0.68300003 0.0083826864 5.5259953e-39 300 233
-0.022753006 0.68300003 0.0083826864 2.4835409e-39 301 233
-0.02158704 0.68400002 0.0083949603 1.1059944e-39 302 233
-0.020387759 0.68400002 0.0083949603 1.3825813e-39 303 233
-0.01918848 0.68400002 0.0083949603 1.5662523e-39 304 233
-0.0179892 0.68400002 0.0083949603 1.5662523e-39 305 233
-0.016765373 0.68300003 0.0083826864 1.935039e-39 306 233
-0.015567848 0.68300003 0.0083826864 2.3956571e-39 307 233
-0.014370319 0.68300003 0.0083826864 2.0326255e-39 308 233
-0.013172794 0.68300003 0.0083826864 1.7556798e-39 309 233
-0.011957732 0.68199998 0.0083704125 2.2112686e-39 310 233
-0.010761959 0.68199998 0.0083704125 1.8424875e-39 311 233
-0.009566186 0.68199998 0.0083704125 1.93396e-39 312 233
-0.0083704125 0.68199998 0.0083704125 1.6573731e-39 313 233
-0.0071851597 0.68300003 0.0083826864 1.4740539e-39 314 233
-0.0059876335 0.68300003 0.0083826864 1.4740539e-39 315 233
-0.0047901068 0.68300003 0.0083826864 1.5662523e-39 316 233
-0.00359784 0.68400002 0.0083949603 1.7506436e-39 317 233
-0.0023985601 0.68400002 0.0083949603 1.7510079e-39 318 233
-0.00119928 0.68400002 0.0083949603 1.8435623e-39 319 233
0 0.68599999 0.0084195063 2.3020167e-39 320 233
0.0012027866 0.68599999 0.0084195063 2.3020167e-39 321 233
0.0024055731 0.68599999 0.0084195063 1.8431937e-39 322 233
0.0036136196 0.68699998 0.0084317802 1.7509967e-39 323 233
0.0048181596 0.68699998 0.0084317802 1.6580794e-39 324 233
0.0060226996 0.68699998 0.0084317802 1.6580794e-39 325 233
0.0072272392 0.68699998 0.0084317802 1.6580822e-39 326 233
0.0084440531 0.68800002 0.0084440531 1.7502778e-39 327 233
0.0096503468 0.68800002 0.0084440531 2.026506e-39 328 233
0.010888199 0.69 0.0084686 2.2108973e-39 329 233
0.012150601 0.69300002 0.0085054198 2.5793126e-39 330 233
0.013384946 0.69400001 0.0085176928 2.7637053e-39 331 233
0.01468592 0.69800001 0.0085667865 3.1306857e-39 332 233
0.015909746 0.69800001 0.0085667865 3.1306857e-39 333 233
0.017133573 0.69800001 0.0085667865 2.8548205e-39 334 233
0.018409999 0.69999999 0.0085913334 2.8548205e-39 335 233
0.019637333 0.69999999 0.0085913334 2.5796756e-39 336 233
-0.043615919 0.69099998 0.0072693196 2.6707796e-39 284 234
-0.042404365 0.69099998 0.0072693196 2.4867485e-39 285 234
-0.041133199 0.69 0.0072587994 2.3941997e-39 286 234
-0.0399234 0.69 0.0072587994 2.3941997e-39 287 234
-0.038545277 0.68699998 0.0072272392 2.4860394e-39 288 234
-0.037340738 0.68699998 0.0072272392 2.6704293e-39 289 234
-0.036083598 0.68599999 0.0072167199 2.3956444e-39 290 234
-0.03477912 0.68400002 0.0071956799 2.5796756e-39 291 234
-0.033530746 0.68300003 0.0071851597 2.3963661e-39 292 234
-0.032333218 0.68300003 0.0071851597 2.3963661e-39 293 234
-0.031135695 0.68300003 0.0071851597 2.3960102e-39 294 234
-0.029894331 0.68199998 0.00717464 2.4882072e-39 295 234
-0.02869856 0.68199998 0.00717464 3.0395845e-39 296 234
-0.027502786 0.68199998 0.00717464 3.3161714e-39 297 234
-0.026345588 0.68300003 0.0071851597 3.2232695e-39 298 234
-0.02514806 0.68300003 0.0071851597 2.4857045e-39 299 234
-0.023950534 0.68300003 0.0071851597 2.0258053e-39 300 234
-0.022753006 0.68300003 0.0071851597 2.0258053e-39 301 234
-0.02158704 0.68400002 0.0071956799 1.8424875e-39 302 234
-0.020447372 0.68599999 0.0072167199 1.8424875e-39 303 234
-0.019244585 0.68599999 0.0072167199 1.5673453e-39 304 234
-0.0179892 0.68400002 0.0071956799 1.659541e-39 305 234
-0.016789921 0.68400002 0.0071956799 2.0283221e-39 306 234
-0.015567848 0.68300003 0.0071851597 2.6736915e-39 307 234
-0.014370319 0.68300003 0.0071851597 2.0329912e-39 308 234
-0.013172794 0.68300003 0.0071851597 1.6642101e-39 309 234
-0.011975267 0.68300003 0.0071851597 2.0279507e-39 310 234
-0.01077774 0.68300003 0.0071851597 1.5673313e-39 311 234
-0.0095802136 0.68300003 0.0071851597 1.4751329e-39 312 234
-0.0083826864 0.68300003 0.0071851597 1.4751329e-39 313 234
-0.0071851597 0.68300003 0.0071851597 1.6577263e-39 314 234
-0.0059876335 0.68300003 0.0071851597 1.6577263e-39 315 234
-0.0047971201 0.68400002 0.0071956799 1.6584479e-39 316 234
-0.00360836 0.68599999 0.0072167199 1.8428406e-39 317 234
-0.0024055731 0.68599999 0.0072167199 1.9357551e-39 318 234
-0.0012027866 0.68599999 0.0072167199 1.8435595e-39 319 234
0 0.68699998 0.0072272392 2.1194233e-39 320 234
0.0012045399 0.68699998 0.0072272392 1.8428378e-39 321 234
0.0024090798 0.68699998 0.0072272392 2.0257885e-39 322 234
0.0036136196 0.68699998 0.0072272392 2.0257885e-39 323 234
0.0048181596 0.68699998 0.0072272392 1.6577263e-39 324 234
0.0060226996 0.68699998 0.0072272392 1.6577263e-39 325 234
0.0072272392 0.68699998 0.0072272392 2.1168996e-39 326 234
0.0084317802 0.68699998 0.0072272392 2.1168996e-39 327 234
0.0096363192 0.68699998 0.0072272392 2.1190547e-39 328 234
0.010888199 0.69 0.0072587994 2.303446e-39 329 234
0.012115533 0.69099998 0.0072693196 2.8551736e-39 330 234
0.013384946 0.69400001 0.0073008798 2.9473707e-39 331 234
0.01468592 0.69800001 0.0073429602 3.2221625e-39 332 234
0.015909746 0.69800001 0.0073429602 3.0377698e-39 333 234
0.017133573 0.69800001 0.0073429602 2.8541017e-39 334 234
0.018409999 0.69999999 0.0073639993 2.761906e-39 335 234
0.019637333 0.69999999 0.0073639993 2.7626221e-39 336 234
-0.043742158 0.69300002 0.0060753003 2.6707796e-39 284 235
-0.042404365 0.69099998 0.0060577663 2.3941941e-39 285 235
-0.041192811 0.69099998 0.0060577663 2.302367e-39 286 235
-0.0399234 0.69 0.0060489997 2.1183359e-39 287 235
-0.038545277 0.68699998 0.0060226996 2.301295e-39 288 235
-0.037340738 0.68699998 0.0060226996 2.3938494e-39 289 235
-0.036083598 0.68599999 0.0060139326 2.6700761e-39 290 235
-0.034880809 0.68599999 0.0060139326 2.7622718e-39 291 235
-0.033530746 0.68300003 0.0059876335 2.5786036e-39 292 235
-0.032333218 0.68300003 0.0059876335 2.4864079e-39 293 235
-0.031135695 0.68300003 0.0059876335 2.4853388e-39 294 235
-0.029938167 0.68300003 0.0059876335 2.4853388e-39 295 235
-0.028740639 0.68300003 0.0059876335 2.2101994e-39 296 235
-0.027543113 0.68300003 0.0059876335 2.302395e-39 297 235
-0.02638416 0.68400002 0.0059964 2.485357e-39 298 235
-0.025184879 0.68400002 0.0059964 2.3931613e-39 299 235
-0.0239856 0.68400002 0.0059964 2.0254494e-39 300 235
-0.022786319 0.68400002 0.0059964 2.2101994e-39 301 235
-0.02158704 0.68400002 0.0059964 2.4882072e-39 302 235
-0.020447372 0.68599999 0.0060139326 3.0413796e-39 303 235
-0.019244585 0.68599999 0.0060139326 2.3074117e-39 304 235
-0.0179892 0.68400002 0.0059964 2.3074117e-39 305 235
-0.016789921 0.68400002 0.0059964 2.2177342e-39 306 235
-0.015567848 0.68300003 0.0059876335 2.2177342e-39 307 235
-0.014370319 0.68300003 0.0059876335 2.2159377e-39 308 235
-0.013172794 0.68300003 0.0059876335 1.6627639e-39 309 235
-0.011975267 0.68300003 0.0059876335 1.935039e-39 310 235
-0.01077774 0.68300003 0.0059876335 1.8428434e-39 311 235
-0.0095802136 0.68300003 0.0059876335 1.7499247e-39 312 235
-0.0083826864 0.68300003 0.0059876335 1.7499247e-39 313 235
-0.0071851597 0.68300003 0.0059876335 2.1169052e-39 314 235
-0.0059876335 0.68300003 0.0059876335 2.2091008e-39 315 235
-0.0047971201 0.68400002 0.0059964 1.8428378e-39 316 235
-0.00360836 0.68599999 0.0060139326 2.1194233e-39 317 235
-0.0024055731 0.68599999 0.0060139326 1.9357551e-39 318 235
-0.0012027866 0.68599999 0.0060139326 1.7513638e-39 319 235
0 0.68699998 0.0060226996 1.9332342e-39 320 235
0.0012045399 0.68699998 0.0060226996 1.9332342e-39 321 235
0.0024090798 0.68699998 0.0060226996 1.7502778e-39 322 235
0.0036136196 0.68699998 0.0060226996 1.7502778e-39 323 235
0.0048181596 0.68699998 0.0060226996 1.6580822e-39 324 235
0.0060226996 0.68699998 0.0060226996 1.6580822e-39 325 235
0.0072272392 0.68699998 0.0060226996 1.8413889e-39 326 235
0.0084317802 0.68699998 0.0060226996 2.0261389e-39 327 235
0.0096363192 0.68699998 0.0060226996 2.1190519e-39 328 235
0.010856641 0.68800002 0.0060314666 2.3959976e-39 329 235
0.012097999 0.69 0.0060489997 2.6715055e-39 330 235
0.013384946 0.69400001 0.0060840664 2.6715055e-39 331 235
0.014727999 0.69999999 0.0061366665 2.762269e-39 332 235
0.015955333 0.69999999 0.0061366665 2.6700733e-39 333 235
0.017182667 0.69999999 0.0061366665 2.7633522e-39 334 235
0.018409999 0.69999999 0.0061366665 3.1321333e-39 335 235
0.019665385 0.70099998 0.0061454331 2.9495371e-39 336 235
-0.043742158 0.69300002 0.00486024 2.7640556e-39 284 236
-0.042527102 0.69300002 0.00486024 2.579663e-39 285 236
-0.041192811 0.69099998 0.0048462129 2.8533758e-39 286 236
-0.039981257 0.69099998 0.0048462129 2.5767903e-39 287 236
-0.038601387 0.68800002 0.0048251734 2.57644e-39 288 236
-0.037340738 0.68699998 0.0048181596 2.57644e-39 289 236
-0.036136195 0.68699998 0.0048181596 2.3938494e-39 290 236
-0.034931656 0.68699998 0.0048181596 2.6700761e-39 291 236
-0.033678025 0.68599999 0.0048111463 2.4856891e-39 292 236
-0.032333218 0.68300003 0.0047901068 2.3934934e-39 293 236
-0.031135695 0.68300003 0.0047901068 2.4846129e-39 294 236
-0.029938167 0.68300003 0.0047901068 2.3005804e-39 295 236
-0.028740639 0.68300003 0.0047901068 2.2087491e-39 296 236
-0.027543113 0.68300003 0.0047901068 2.2087491e-39 297 236
-0.026345588 0.68300003 0.0047901068 2.3005916e-39 298 236
-0.025184879 0.68400002 0.0047971201 2.3005916e-39 299 236
-0.0239856 0.68400002 0.0047971201 1.9346887e-39 300 236
-0.022786319 0.68400002 0.0047971201 2.3953081e-39 301 236
-0.02158704 0.68400002 0.0047971201 2.9510014e-39 302 236
-0.020447372 0.68599999 0.0048111463 3.6885665e-39 303 236
-0.019244585 0.68599999 0.0048111463 2.0369583e-39 304 236
-0.0179892 0.68400002 0.0047971201 2.0369583e-39 305 236
-0.016789921 0.68400002 0.0047971201 2.2202677e-39 306 236
-0.015567848 0.68300003 0.0047901068 1.5748983e-39 307 236
-0.014370319 0.68300003 0.0047901068 2.3059824e-39 308 236
-0.013172794 0.68300003 0.0047901068 1.8450042e-39 309 236
-0.011975267 0.68300003 0.0047901068 2.1183513e-39 310 236
-0.01077774 0.68300003 0.0047901068 1.93396e-39 311 236
-0.0095802136 0.68300003 0.0047901068 2.2087449e-39 312 236
-0.0083826864 0.68300003 0.0047901068 2.2087449e-39 313 236
-0.0071851597 0.68300003 0.0047901068 2.3012978e-39 314 236
-0.0059876335 0.68300003 0.0047901068 2.3012978e-39 315 236
-0.0047971201 0.68400002 0.0047971201 1.8428406e-39 316 236
-0.00360836 0.68599999 0.0048111463 1.8428406e-39 317 236
-0.0024055731 0.68599999 0.0048111463 2.1176296e-39 318 236
-0.0012027866 0.68599999 0.0048111463 1.933237e-39 319 236
0 0.68699998 0.0048181596 2.0247067e-39 320 236
0.0012045399 0.68699998 0.0048181596 2.0247067e-39 321 236
0.0024090798 0.68699998 0.0048181596 1.749196e-39 322 236
0.0036136196 0.68699998 0.0048181596 1.8413917e-39 323 236
0.0048181596 0.68699998 0.0048181596 1.6570004e-39 324 236
0.0060226996 0.68699998 0.0048181596 1.6570004e-39 325 236
0.0072272392 0.68699998 0.0048181596 1.565881e-39 326 236
0.0084317802 0.68699998 0.0048181596 1.7502722e-39 327 236
0.0096363192 0.68699998 0.0048181596 2.3027229e-39 328 236
0.010856641 0.68800002 0.0048251734 2.4871142e-39 329 236
0.012097999 0.69 0.0048391996 2.8544548e-39 330 236
0.013500666 0.69999999 0.0049093333 2.8544548e-39 331 236
0.014727999 0.69999999 0.0049093333 3.0377698e-39 332 236
0.015955333 0.69999999 0.0049093333 3.0377698e-39 333 236
0.017207211 0.70099998 0.0049163462 3.5016417e-39 334 236
0.018436298 0.70099998 0.0049163462 4.0544567e-39 335 236
0.019665385 0.70099998 0.0049163462 3.8722193e-39 336 236
0.020954086 0.70300001 0.0049303733 3.3190455e-39 337 236
-0.046638668 0.69999999 0.0036819996 4.9756745e-39 282 237
-0.04541133 0.69999999 0.0036819996 4.4225008e-39 283 237
-0.043994639 0.69700003 0.00366622 3.6878084e-39 284 237
-0.042527102 0.69300002 0.0036451798 3.134636e-39 285 237
-0.041192811 0.69099998 0.0036346598 3.4076258e-39 286 237
-0.039981257 0.69099998 0.0036346598 2.854452e-39 287 237
-0.038713597 0.69 0.0036293997 2.3938466e-39 288 237
-0.037395094 0.68800002 0.0036188802 2.3938466e-39 289 237
-0.036136195 0.68699998 0.0036136196 2.1190576e-39 290 237
-0.034931656 0.68699998 0.0036136196 2.2112532e-39 291 237
-0.033727121 0.68699998 0.0036136196 2.1183387e-39 292 237
-0.032333218 0.68300003 0.0035925799 2.0257829e-39 293 237
-0.031135695 0.68300003 0.0035925799 1.9332342e-39 294 237
-0.029938167 0.68300003 0.0035925799 1.8410385e-39 295 237
-0.028740639 0.68300003 0.0035925799 1.8410413e-39 296 237
-0.027543113 0.68300003 0.0035925799 1.8410413e-39 297 237
-0.026345588 0.68300003 0.0035925799 1.8410413e-39 298 237
-0.025184879 0.68400002 0.00359784 2.0254326e-39 299 237
-0.0239856 0.68400002 0.00359784 1.8424875e-39 300 237
-0.022786319 0.68400002 0.00359784 2.3034642e-39 301 237
-0.021650158 0.68599999 0.00360836 2.2145126e-39 302 237
-0.020447372 0.68599999 0.00360836 2.4910995e-39 303 237
-0.019244585 0.68599999 0.00360836 2.2141595e-39 304 237
-0.0179892 0.68400002 0.00359784 2.4907464e-39 305 237
-0.016789921 0.68400002 0.00359784 2.4900261e-39 306 237
-0.015567848 0.68300003 0.0035925799 2.3052761e-39 307 237
-0.014370319 0.68300003 0.0035925799 2.3034642e-39 308 237
-0.013172794 0.68300003 0.0035925799 2.119073e-39 309 237
-0.011975267 0.68300003 0.0035925799 2.3020139e-39 310 237
-0.01077774 0.68300003 0.0035925799 2.1179828e-39 311 237
-0.0095802136 0.68300003 0.0035925799 2.3016509e-39 312 237
-0.0083826864 0.68300003 0.0035925799 2.3016509e-39 313 237
-0.0071851597 0.68300003 0.0035925799 2.3016509e-39 314 237
-0.0059876335 0.68300003 0.0035925799 2.3016509e-39 315 237
-0.0047971201 0.68400002 0.00359784 2.3016509e-39 316 237
-0.00360836 0.68599999 0.00360836 2.2094539e-39 317 237
-0.0024055731 0.68599999 0.00360836 1.9335873e-39 318 237
-0.0012027866 0.68599999 0.00360836 1.749196e-39 319 237
0 0.68699998 0.0036136196 1.7491932e-39 320 237
0.0012045399 0.68699998 0.0036136196 1.7491932e-39 321 237
0.0024090798 0.68699998 0.0036136196 1.7495492e-39 322 237
0.0036136196 0.68699998 0.0036136196 1.6573535e-39 323 237
0.0048181596 0.68699998 0.0036136196 1.3811338e-39 324 237
0.0060226996 0.68699998 0.0036136196 1.3811338e-39 325 237
0.0072272392 0.68699998 0.0036136196 1.4740539e-39 326 237
0.0084317802 0.68699998 0.0036136196 1.6584451e-39 327 237
0.0096363192 0.68699998 0.0036136196 2.1194205e-39 328 237
0.010856641 0.68800002 0.0036188802 2.3963661e-39 329 237
0.012097999 0.69 0.0036293997 2.6711523e-39 330 237
0.0133078 0.69 0.0036293997 2.9477392e-39 331 237
0.014791119 0.70300001 0.0036977797 3.3190427e-39 332 237
0.016023712 0.70300001 0.0036977797 4.0566077e-39 333 237
0.017256306 0.70300001 0.0036977797 4.797065e-39 334 237
0.018488899 0.70300001 0.0036977797 5.4420757e-39 335 237
0.019721493 0.70300001 0.0036977797 5.1676398e-39 336 237
0.020954086 0.70300001 0.0036977797 3.2315316e-39 337 237
0.022218239 0.704 0.0037030398 5.1604189e-39 338 237
-0.046505414 0.69800001 0.0024476533 5.9919719e-39 282 238
-0.045281585 0.69800001 0.0024476533 5.4387981e-39 283 238
-0.043994639 0.69700003 0.0024441467 4.979245e-39 284 238
-0.042527102 0.69300002 0.00243012 4.4260713e-39 285 238
-0.041192811 0.69099998 0.0024231065 4.4214021e-39 286 238
-0.039981257 0.69099998 0.0024231065 3.8685871e-39 287 238
-0.038713597 0.69 0.0024195998 2.6722117e-39 288 238
-0.037395094 0.68800002 0.0024125867 2.3952661e-39 289 238
-0.036136195 0.68699998 0.0024090798 2.8533758e-39 290 238
-0.034931656 0.68699998 0.0024090798 2.8533758e-39 291 238
-0.033727121 0.68699998 0.0024090798 2.3020013e-39 292 238
-0.032380559 0.68400002 0.0023985601 2.2098042e-39 293 238
-0.031135695 0.68300003 0.0023950534 1.5658838e-39 294 238
-0.029938167 0.68300003 0.0023950534 1.5658838e-39 295 238
-0.028740639 0.68300003 0.0023950534 1.5662467e-39 296 238
-0.027543113 0.68300003 0.0023950534 1.4740511e-39 297 238
-0.026345588 0.68300003 0.0023950534 1.6577291e-39 298 238
-0.025184879 0.68400002 0.0023985601 1.7499247e-39 299 238
-0.0239856 0.68400002 0.0023985601 1.5669796e-39 300 238
-0.022786319 0.68400002 0.0023985601 1.935402e-39 301 238
-0.021650158 0.68599999 0.0024055731 1.936474e-39 302 238
-0.020447372 0.68599999 0.0024055731 1.936474e-39 303 238
-0.019244585 0.68599999 0.0024055731 2.301316e-39 304 238
-0.018041799 0.68599999 0.0024055731 2.5779029e-39 305 238
-0.016789921 0.68400002 0.0023985601 2.1190954e-39 306 238
-0.015567848 0.68300003 0.0023950534 2.2112924e-39 307 238
-0.014370319 0.68300003 0.0023950534 2.2112658e-39 308 238
-0.013172794 0.68300003 0.0023950534 2.1190702e-39 309 238
-0.011975267 0.68300003 0.0023950534 1.9357425e-39 310 238
-0.01077774 0.68300003 0.0023950534 1.9357425e-39 311 238
-0.0095802136 0.68300003 0.0023950534 2.1190519e-39 312 238
-0.0083826864 0.68300003 0.0023950534 2.1190519e-39 313 238
-0.0071851597 0.68300003 0.0023950534 2.3027229e-39 314 238
-0.0059876335 0.68300003 0.0023950534 2.3027229e-39 315 238
-0.0047901068 0.68300003 0.0023950534 2.1183331e-39 316 238
-0.00360836 0.68599999 0.0024055731 2.026136e-39 317 238
-0.0024055731 0.68599999 0.0024055731 1.841742e-39 318 238
-0.0012045399 0.68699998 0.0024090798 1.7495464e-39 319 238
0 0.68699998 0.0024090798 1.2903703e-39 320 238
0.0012045399 0.68699998 0.0024090798 1.2903703e-39 321 238
0.0024090798 0.68699998 0.0024090798 1.2903731e-39 322 238
0.0036136196 0.68699998 0.0024090798 1.1981774e-39 323 238
0.0048181596 0.68699998 0.0024090798 1.1059916e-39 324 238
0.0060226996 0.68699998 0.0024090798 1.1059916e-39 325 238
0.0072272392 0.68699998 0.0024090798 1.0145219e-39 326 238
0.0084440531 0.68800002 0.0024125867 2.0286724e-39 327 238
0.0096503468 0.68800002 0.0024125867 3.4076384e-39 328 238
0.010888199 0.69 0.0024195998 3.5001927e-39 329 238
0.012097999 0.69 0.0024195998 3.4090747e-39 330 238
0.0133078 0.69 0.0024195998 3.8700514e-39 331 238
0.014791119 0.70300001 0.0024651866 3.7836306e-39 332 238
0.016023712 0.70300001 0.0024651866 4.9821738e-39 333 238
0.017256306 0.70300001 0.0024651866 5.4453281e-39 334 238
0.018515198 0.704 0.0024686933 6.7360669e-39 335 238
0.019749546 0.704 0.0024686933 7.6544009e-39 336 238
0.020983893 0.704 0.0024686933 4.7966965e-39 337 238
0.022218239 0.704 0.0024686933 5.6213943e-39 338 238
-0.046505414 0.69800001 0.0012238267 6.640972e-39 282 239
-0.045281585 0.69800001 0.0012238267 5.3502332e-39 283 239
-0.043994639 0.69700003 0.0012220733 5.255867e-39 284 239
-0.042527102 0.69300002 0.00121506 4.8874446e-39 285 239
-0.041192811 0.69099998 0.0012115532 4.6101346e-39 286 239
-0.039981257 0.69099998 0.0012115532 4.4257434e-39 287 239
-0.038713597 0.69 0.0012097999 4.0555259e-39 288 239
-0.037395094 0.68800002 0.0012062934 3.5949065e-39 289 239
-0.036136195 0.68699998 0.0012045399 4.2327173e-39 290 239
-0.034931656 0.68699998 0.0012045399 3.6795435e-39 291 239
-0.033727121 0.68699998 0.0012045399 2.1201267e-39 292 239
-0.032475237 0.68599999 0.0012027866 1.6591486e-39 293 239
-0.03118128 0.68400002 0.00119928 1.5666026e-39 294 239
-0.029982001 0.68400002 0.00119928 1.474407e-39 295 239
-0.028740639 0.68300003 0.0011975267 1.7491988e-39 296 239
-0.027543113 0.68300003 0.0011975267 1.7491988e-39 297 239
-0.026345588 0.68300003 0.0011975267 1.6580822e-39 298 239
-0.025184879 0.68400002 0.00119928 1.5655278e-39 299 239
-0.023950534 0.68300003 0.0011975267 1.7509967e-39 300 239
-0.022753006 0.68300003 0.0011975267 1.8431937e-39 301 239
-0.02158704 0.68400002 0.00119928 2.1194205e-39 302 239
-0.020447372 0.68599999 0.0012027866 1.9353894e-39 303 239
-0.019244585 0.68599999 0.0012027866 2.3020195e-39 304 239
-0.018041799 0.68599999 0.0012027866 2.3020195e-39 305 239
-0.016789921 0.68400002 0.00119928 2.2112658e-39 306 239
-0.01559064 0.68400002 0.00119928 2.3034614e-39 307 239
-0.014370319 0.68300003 0.0011975267 1.9361082e-39 308 239
-0.013172794 0.68300003 0.0011975267 1.8439126e-39 309 239
-0.011975267 0.68300003 0.0011975267 2.1183359e-39 310 239
-0.01077774 0.68300003 0.0011975267 2.1183359e-39 311 239
-0.0095802136 0.68300003 0.0011975267 2.1190519e-39 312 239
-0.0083826864 0.68300003 0.0011975267 2.1190519e-39 313 239
-0.0071851597 0.68300003 0.0011975267 2.1190519e-39 314 239
-0.0059876335 0.68300003 0.0011975267 2.1190519e-39 315 239
-0.0047901068 0.68300003 0.0011975267 2.1190519e-39 316 239
-0.00360836 0.68599999 0.0012027866 1.7506282e-39 317 239
-0.0024055731 0.68599999 0.0012027866 1.7506254e-39 318 239
-0.0012045399 0.68699998 0.0012045399 1.4740385e-39 319 239
0 0.68699998 0.0012045399 1.6573535e-39 320 239
0.0012045399 0.68699998 0.0012045399 1.3807666e-39 321 239
0.0024090798 0.68699998 0.0012045399 1.1056245e-39 322 239
0.0036136196 0.68699998 0.0012045399 1.1056245e-39 323 239
0.0048181596 0.68699998 0.0012045399 1.1056273e-39 324 239
0.0060226996 0.68699998 0.0012045399 1.1056273e-39 325 239
0.0072272392 0.68699998 0.0012045399 1.2900228e-39 326 239
0.0084440531 0.68800002 0.0012062934 4.5168698e-39 327 239
0.0096503468 0.68800002 0.0012062934 5.250116e-39 328 239
0.010888199 0.69 0.0012097999 4.6969423e-39 329 239
0.012097999 0.69 0.0012097999 3.9690938e-39 330 239
0.01336566 0.69300002 0.00121506 4.6144632e-39 331 239
0.014812159 0.704 0.0012343467 5.4456784e-39 332 239
0.016046507 0.704 0.0012343467 6.9204484e-39 333 239
0.017280852 0.704 0.0012343467 8.1225915e-39 334 239
0.018515198 0.704 0.0012343467 8.2147871e-39 335 239
0.019749546 0.704 0.0012343467 8.5752628e-39 336 239
0.020983893 0.704 0.0012343467 4.4268196e-39 337 239
0.022218239 0.704 0.0012343467 4.517918e-39 338 239
0.023519212 0.70599997 0.0012378532 7.8373194e-39 339 239
-0.046638668 0.69999999 -0 6.8275339e-39 282 240
-0.045281585 0.69800001 -0 6.1821645e-39 283 240
-0.043994639 0.69700003 -0 6.8206815e-39 284 240
-0.042527102 0.69300002 -0 6.0831165e-39 285 240
-0.041192811 0.69099998 -0 5.9894691e-39 286 240
-0.039981257 0.69099998 -0 5.7132424e-39 287 240
-0.038713597 0.69 -0 4.9778283e-39 288 240
-0.037395094 0.68800002 -0 4.6086857e-39 289 240
-0.0361888 0.68800002 -0 4.5139705e-39 290 240
-0.034931656 0.68699998 -0 3.5001773e-39 291 240
-0.033727121 0.68699998 -0 2.7626221e-39 292 240
-0.032475237 0.68599999 -0 2.2094483e-39 293 240
-0.03118128 0.68400002 -0 2.0239851e-39 294 240
-0.029982001 0.68400002 -0 2.0239851e-39 295 240
-0.028740639 0.68300003 -0 1.6566473e-39 296 240
-0.027543113 0.68300003 -0 1.6566473e-39 297 240
-0.026345588 0.68300003 -0 1.2896696e-39 298 240
-0.02514806 0.68300003 -0 1.4737008e-39 299 240
-0.023950534 0.68300003 -0 1.1077923e-39 300 240
-0.022753006 0.68300003 -0 1.5687704e-39 301 240
-0.02158704 0.68400002 -0 1.8439126e-39 302 240
-0.020447372 0.68599999 -0 1.8439126e-39 303 240
-0.019244585 0.68599999 -0 2.1187016e-39 304 240
-0.018041799 0.68599999 -0 2.1187016e-39 305 240
-0.016789921 0.68400002 -0 1.9357579e-39 306 240
-0.01559064 0.68400002 -0 2.0279535e-39 307 240
-0.014370319 0.68300003 -0 2.1183485e-39 308 240
-0.013172794 0.68300003 -0 2.0261529e-39 309 240
-0.011975267 0.68300003 -0 1.934309e-39 310 240
-0.01077774 0.68300003 -0 2.026506e-39 311 240
-0.0095802136 0.68300003 -0 1.8431937e-39 312 240
-0.0083826864 0.68300003 -0 1.9353894e-39 313 240
-0.0071956799 0.68400002 -0 1.9353866e-39 314 240
-0.0059964 0.68400002 -0 1.9353866e-39 315 240
-0.0048111463 0.68599999 -0 2.1194079e-39 316 240
-0.00360836 0.68599999 -0 1.9346565e-39 317 240
-0.0024090798 0.68699998 -0 1.8420979e-39 318 240
-0.0012045399 0.68699998 -0 1.6573479e-39 319 240
0 0.68699998 -0 1.3814897e-39 320 240
0.0012045399 0.68699998 -0 1.2892927e-39 321 240
0.0024090798 0.68699998 -0 1.2889396e-39 322 240
0.0036136196 0.68699998 -0 1.2889396e-39 323 240
0.0048251734 0.68800002 -0 1.0127226e-39 324 240
0.0060226996 0.68699998 -0 1.197474e-39 325 240
0.0072272392 0.68699998 -0 7.4225378e-40 326 240
0.0084440531 0.68800002 -0 1.9407956e-39 327 240
0.0096503468 0.68800002 -0 3.5985162e-39 328 240
0.010888199 0.69 -0 4.3364414e-39 329 240
0.012097999 0.69 -0 4.8907068e-39 330 240
0.01336566 0.69300002 -0 5.812303e-39 331 240
0.014749039 0.70099998 -0 7.5640269e-39 332 240
0.016046507 0.704 -0 9.0387969e-39 333 240
0.017280852 0.704 -0 9.0395003e-39 334 240
0.018515198 0.704 -0 8.671078e-39 335 240
0.019749546 0.704 -0 8.3008115e-39 336 240
0.020983893 0.704 -0 5.0739644e-39 337 240
0.022218239 0.704 -0 6.0816522e-39 338 240
0.023452586 0.704 -0 8.3861842e-39 339 240
0.024686933 0.704 -0 9.7658998e-39 340 240
-0.046638668 0.69999999 -0.0012273333 6.5545385e-39 282 241
-0.045281585 0.69800001 -0.0012238267 6.5545385e-39 283 241
-0.043994639 0.69700003 -0.0012220733 8.0181555e-39 284 241
-0.042711195 0.69599998 -0.0012203199 7.0036435e-39 285 241
-0.041312039 0.69300002 -0.00121506 6.0831291e-39 286 241
-0.039981257 0.69099998 -0.0012115532 5.899098e-39 287 241
-0.038713597 0.69 -0.0012097999 4.7055897e-39 288 241
-0.037395094 0.68800002 -0.0012062934 4.4290028e-39 289 241
-0.0361888 0.68800002 -0.0012062934 4.2438885e-39 290 241
-0.03498251 0.68800002 -0.0012062934 4.0594972e-39 291 241
-0.033776212 0.68800002 -0.0012062934 4.5154363e-39 292 241
-0.032522578 0.68699998 -0.0012045399 3.3168945e-39 293 241
-0.03118128 0.68400002 -0.00119928 1.5655334e-39 294 241
-0.029982001 0.68400002 -0.00119928 1.6577291e-39 295 241
-0.028740639 0.68300003 -0.0011975267 1.473335e-39 296 241
-0.027543113 0.68300003 -0.0011975267 1.2885836e-39 297 241
-0.026345588 0.68300003 -0.0011975267 1.3807835e-39 298 241
-0.02514806 0.68300003 -0.0011975267 1.5655334e-39 299 241
-0.023950534 0.68300003 -0.0011975267 1.4751301e-39 300 241
-0.022753006 0.68300003 -0.0011975267 1.751717e-39 301 241
-0.021650158 0.68599999 -0.0012027866 1.9361082e-39 302 241
-0.020447372 0.68599999 -0.0012027866 1.9361082e-39 303 241
-0.019244585 0.68599999 -0.0012027866 2.1194205e-39 304 241
-0.018041799 0.68599999 -0.0012027866 1.9353894e-39 305 241
-0.016839013 0.68599999 -0.0012027866 1.936111e-39 306 241
-0.01559064 0.68400002 -0.00119928 1.8435567e-39 307 241
-0.01439136 0.68400002 -0.00119928 2.1176296e-39 308 241
-0.01319208 0.68400002 -0.00119928 2.0254326e-39 309 241
-0.0119928 0.68400002 -0.00119928 2.0257857e-39 310 241
-0.01077774 0.68300003 -0.0011975267 2.1179828e-39 311 241
-0.0095802136 0.68300003 -0.0011975267 1.9357425e-39 312 241
-0.0083826864 0.68300003 -0.0011975267 1.7509911e-39 313 241
-0.0071956799 0.68400002 -0.00119928 1.8431909e-39 314 241
-0.0059964 0.68400002 -0.00119928 2.1197764e-39 315 241
-0.0048111463 0.68599999 -0.0012027866 2.3949186e-39 316 241
-0.00360836 0.68599999 -0.0012027866 2.3027229e-39 317 241
-0.0024055731 0.68599999 -0.0012027866 1.8435413e-39 318 241
-0.0012045399 0.68699998 -0.0012045399 1.566953e-39 319 241
0 0.68699998 -0.0012045399 1.4740385e-39 320 241
0.0012045399 0.68699998 -0.0012045399 1.2892871e-39 321 241
0.0024090798 0.68699998 -0.0012045399 1.3804135e-39 322 241
0.0036136196 0.68699998 -0.0012045399 1.4729693e-39 323 241
0.0048251734 0.68800002 -0.0012062934 1.2900228e-39 324 241
0.0060314666 0.68800002 -0.0012062934 1.4740539e-39 325 241
0.0072377604 0.68800002 -0.0012062934 1.382231e-39 326 241
0.0084440531 0.68800002 -0.0012062934 1.1056441e-39 327 241
0.0096783992 0.69 -0.0012097999 2.4983092e-39 328 241
0.01090398 0.69099998 -0.0012115532 4.9875912e-39 329 241
0.012115533 0.69099998 -0.0012115532 7.195264e-39 330 241
0.013384946 0.69400001 -0.0012168133 8.7625883e-39 331 241
0.014749039 0.70099998 -0.0012290865 9.498703e-39 332 241
0.016023712 0.70300001 -0.0012325933 8.6693025e-39 333 241
0.017280852 0.704 -0.0012343467 8.027519e-39 334 241
0.018515198 0.704 -0.0012343467 7.9353234e-39 335 241
0.019749546 0.704 -0.0012343467 7.4732354e-39 336 241
0.020954086 0.70300001 -0.0012325933 4.7995621e-39 337 241
0.02218668 0.70300001 -0.0012325933 8.4758617e-39 338 241
0.023419274 0.70300001 -0.0012325933 1.2625024e-38 339 241
0.024651866 0.70300001 -0.0012325933 1.2990213e-38 340 241
-0.045476202 0.70099998 -0.0024581731 6.922598e-39 283 242
-0.04405776 0.69800001 -0.0024476533 7.3774651e-39 284 242
-0.042772565 0.69700003 -0.0024441467 6.6399e-39 285 242
-0.041371655 0.69400001 -0.0024336267 6.361874e-39 286 242
-0.04009698 0.69300002 -0.00243012 6.361874e-39 287 242
-0.038769703 0.69099998 -0.0024231065 6.5459023e-39 288 242
-0.037395094 0.68800002 -0.0024125867 6.3618712e-39 289 242
-0.0361888 0.68800002 -0.0024125867 6.1771268e-39 290 242
-0.03498251 0.68800002 -0.0024125867 5.4395618e-39 291 242
-0.033776212 0.68800002 -0.0024125867 4.2413745e-39 292 242
-0.032522578 0.68699998 -0.0024090798 3.6882007e-39 293 242
-0.031272452 0.68599999 -0.0024055731 2.1169052e-39 294 242
-0.030069664 0.68599999 -0.0024055731 2.1169052e-39 295 242
-0.02878272 0.68400002 -0.0023985601 1.4736881e-39 296 242
-0.027583439 0.68400002 -0.0023985601 1.3811338e-39 297 242
-0.02638416 0.68400002 -0.0023985601 1.4729791e-39 298 242
-0.025184879 0.68400002 -0.0023985601 1.5655334e-39 299 242
-0.0239856 0.68400002 -0.0023985601 1.3825813e-39 300 242
-0.022786319 0.68400002 -0.0023985601 1.4751357e-39 301 242
-0.021650158 0.68599999 -0.0024055731 1.8428406e-39 302 242
-0.020447372 0.68599999 -0.0024055731 1.8428406e-39 303 242
-0.019244585 0.68599999 -0.0024055731 2.0265088e-39 304 242
-0.018068098 0.68699998 -0.0024090798 2.1187044e-39 305 242
-0.016839013 0.68599999 -0.0024055731 2.1187044e-39 306 242
-0.015636226 0.68599999 -0.0024055731 2.1187044e-39 307 242
-0.01439136 0.68400002 -0.0023985601 2.1176324e-39 308 242
-0.01319208 0.68400002 -0.0023985601 2.1176324e-39 309 242
-0.0119928 0.68400002 -0.0023985601 2.1194205e-39 310 242
-0.01077774 0.68300003 -0.0023950534 2.7647899e-39 311 242
-0.0095802136 0.68300003 -0.0023950534 2.4917987e-39 312 242
-0.0083826864 0.68300003 -0.0023950534 2.215572e-39 313 242
-0.0071956799 0.68400002 -0.0023985601 2.8566198e-39 314 242
-0.0059964 0.68400002 -0.0023985601 3.041011e-39 315 242
-0.0048111463 0.68599999 -0.0024055731 3.5008934e-39 316 242
-0.00360836 0.68599999 -0.0024055731 3.5008934e-39 317 242
-0.0024055731 0.68599999 -0.0024055731 3.1331871e-39 318 242
-0.0012045399 0.68699998 -0.0024090798 2.4878176e-39 319 242
0 0.68699998 -0.0024090798 1.7491806e-39 320 242
