# .PCD v.7 - Point Cloud Data file format
FIELDS x y z rgb imX imY
SIZE 4 4 4 4 4 4
TYPE F F F F F F
COUNT 1 1 1 1 1 1
WIDTH 830
HEIGHT 1
VIEWPOINT 0 0 0 1 0 0 0
POINTS 830
DATA ascii
0.038824059 0.671 -0.0023529732 1.7507051e-38 353 242
0.040000543 0.671 -0.0023529732 1.7504547e-38 354 242
0.041177034 0.671 -0.0023529732 1.8057721e-38 355 242
0.042353518 0.671 -0.0023529732 1.8618473e-38 356 242
0.043530006 0.671 -0.0023529732 1.9632985e-38 357 242
0.044773117 0.67199999 -0.0023564799 1.9264924e-38 358 242
0.046088122 0.67400002 -0.0023634934 1.9080533e-38 359 242
0.047129598 0.67199999 -0.0023564799 1.9354949e-38 360 242
0.04830784 0.67199999 -0.0023564799 1.9078362e-38 361 242
0.049633358 0.67400002 -0.0023634934 1.8338985e-38 362 242
0.050815105 0.67400002 -0.0023634934 1.7508866e-38 363 242
0.051996857 0.67400002 -0.0023634934 1.8150272e-38 364 242
0.053178601 0.67400002 -0.0023634934 1.8795642e-38 365 242
0.054360349 0.67400002 -0.0023634934 1.8795639e-38 366 242
0.055542093 0.67400002 -0.0023634934 1.8335019e-38 367 242
0.056723841 0.67400002 -0.0023634934 1.8150257e-38 368 242
0.057991501 0.67500001 -0.0023669999 1.8150257e-38 369 242
0.059175 0.67500001 -0.0023669999 1.8058061e-38 370 242
0.060358498 0.67500001 -0.0023669999 1.8058061e-38 371 242
0.061542001 0.67500001 -0.0023669999 1.8239947e-38 372 242
0.062725499 0.67500001 -0.0023669999 1.8424698e-38 373 242
0.064003684 0.676 -0.0023705065 1.8796718e-38 374 242
0.065188929 0.676 -0.0023705065 1.8704522e-38 375 242
0.066374183 0.676 -0.0023705065 1.8519409e-38 376 242
0.067559443 0.676 -0.0023705065 1.870344e-38 377 242
0.068948075 0.67799997 -0.0023775198 1.8887484e-38 378 242
0.070136838 0.67799997 -0.0023775198 2.045517e-38 379 242
0.0713256 0.67799997 -0.0023775198 2.0368009e-38 380 242
0.072514355 0.67799997 -0.0023775198 1.9353857e-38 381 242
0.073703118 0.67799997 -0.0023775198 1.9165132e-38 382 242
0.074891873 0.67799997 -0.0023775198 1.8980739e-38 383 242
0.076080635 0.67799997 -0.0023775198 1.8613396e-38 384 242
0.077383369 0.67900002 -0.0023810267 1.8613396e-38 385 242
0.078573883 0.67900002 -0.0023810267 1.8521926e-38 386 242
0.079764389 0.67900002 -0.0023810267 1.861448e-38 387 242
0.080954902 0.67900002 -0.0023810267 1.8247134e-38 388 242
0.082145423 0.67900002 -0.0023810267 1.8247134e-38 389 242
0.083458669 0.68000001 -0.0023845332 1.8797787e-38 390 242
0.084650926 0.68000001 -0.0023845332 1.8982538e-38 391 242
0.085843198 0.68000001 -0.0023845332 1.8887825e-38 392 242
0.087035462 0.68000001 -0.0023845332 1.6859162e-38 393 242
0.088487223 0.68199998 -0.0023915465 1.6491824e-38 394 242
0.089682996 0.68199998 -0.0023915465 1.658402e-38 395 242
0.090878762 0.68199998 -0.0023915465 1.6399274e-38 396 242
0.092209555 0.68300003 -0.0023950534 1.6215243e-38 397 242
0.09340708 0.68300003 -0.0023950534 1.4736863e-38 398 242
0.094604604 0.68300003 -0.0023950534 1.1971354e-38 399 242
0.095802136 0.68300003 -0.0023950534 1.0954679e-38 400 242
0.097425714 0.68599999 -0.0024055731 1.0124917e-38 401 242
0.098628499 0.68599999 -0.0024055731 8.1063561e-39 402 242
0.099976815 0.68699998 -0.0024090798 7.7379337e-39 403 242
0.10118135 0.68699998 -0.0024090798 7.1869403e-39 404 242
0.10238589 0.68699998 -0.0024090798 8.3854835e-39 405 242
0.10374123 0.68800002 -0.0024125867 8.6649319e-39 406 242
0.10540513 0.69099998 -0.0024231065 7.7426154e-39 407 242
0.10661669 0.69099998 -0.0024231065 8.3807822e-39 408 242
0.10814034 0.69300002 -0.00243012 8.5648133e-39 409 242
0.1099866 0.69700003 -0.0024441467 8.7491947e-39 410 242
0.11120867 0.69700003 -0.0024441467 8.7491947e-39 411 242
0.11259206 0.69800001 -0.0024476533 8.3814884e-39 412 242
0.11381588 0.69800001 -0.0024476533 8.0123458e-39 413 242
0.1150397 0.69800001 -0.0024476533 6.6355392e-39 414 242
0.11626352 0.69800001 -0.0024476533 6.8202892e-39 415 242
0.11832895 0.70300001 -0.0024651866 6.4543947e-39 416 242
0.11956155 0.70300001 -0.0024651866 6.2700021e-39 417 242
0.12079414 0.70300001 -0.0024651866 5.8083065e-39 418 242
0.12949067 0.74599999 -0.0026159731 4.7941531e-39 419 242
0.13079865 0.74599999 -0.0026159731 2.6826612e-39 420 242
0.13210665 0.74599999 -0.0026159731 2.5904656e-39 421 242
0.13359347 0.74699998 -0.0026194798 1.8572319e-39 422 242
0.135445 0.75 -0.00263 1.7650363e-39 423 242
0.13676 0.75 -0.00263 1.3058602e-39 424 242
0.13807499 0.75 -0.00263 1.3980559e-39 425 242
0.1397617 0.75199997 -0.0026370131 9.3888258e-40 426 242
0.1410802 0.75199997 -0.0026370131 1.0314369e-39 427 242
0.14277743 0.75400001 -0.0026440267 1.2151135e-39 428 242
0.14429055 0.755 -0.0026475333 1.2151135e-39 429 242
0.14561434 0.755 -0.0026475333 1.6739337e-39 430 242
0.14771658 0.759 -0.00266156 1.858325e-39 431 242
0.14904736 0.759 -0.00266156 2.0434281e-39 432 242
0.15077437 0.76099998 -0.0026685731 2.4118519e-39 433 242
0.15230857 0.76200002 -0.00267208 2.5054726e-39 434 242
0.15364461 0.76200002 -0.00267208 1.7679076e-39 435 242
0.15579417 0.76599997 -0.0026861064 1.4935053e-39 436 242
0.15734239 0.76700002 -0.0026896133 6.1032868e-39 437 242
0.15868719 0.76700002 -0.0026896133 1.8535307e-38 438 242
0.16003199 0.76700002 -0.0026896133 2.1116782e-38 439 242
0.16137679 0.76700002 -0.0026896133 1.4193789e-38 440 242
0.1627216 0.76700002 -0.0026896133 1.0044985e-38 441 242
0.16406642 0.76700002 -0.0026896133 8.392654e-39 442 242
0.16519554 0.76599997 -0.0026861064 7.4706977e-39 443 242
0.1665386 0.76599997 -0.0026861064 3.8876854e-39 444 242
0.16788167 0.76599997 -0.0026861064 2.8735321e-39 445 242
0.16922471 0.76599997 -0.0026861064 4.7992118e-39 446 242
0.17056777 0.76599997 -0.0026861064 4.9839618e-39 447 242
0.17146197 0.764 -0.0026790933 6.8188641e-39 448 242
0.17280151 0.764 -0.0026790933 7.0028952e-39 449 242
-0.11967552 0.71100003 -0.0037398601 4.2503316e-39 224 243
-0.11842891 0.71100003 -0.0037398601 5.7254617e-39 225 243
-0.11718228 0.71100003 -0.0037398601 7.1995184e-39 226 243
-0.11593566 0.71100003 -0.0037398601 7.291714e-39 227 243
-0.11468904 0.71100003 -0.0037398601 6.0056569e-39 228 243
-0.11328287 0.70999998 -0.0037345996 5.5450389e-39 229 243
-0.11203799 0.70999998 -0.0037345996 4.6238211e-39 230 243
-0.10985684 0.704 -0.0037030398 4.3475943e-39 231 243
-0.10815962 0.70099998 -0.0036872597 3.9831236e-39 232 243
-0.106778 0.69999999 -0.0036819996 4.628493e-39 233 243
-0.10509831 0.69700003 -0.00366622 5.3642546e-39 234 243
-0.1032801 0.69300002 -0.0036451798 5.5490046e-39 235 243
-0.10162319 0.69 -0.0036293997 5.9145571e-39 236 243
-0.10012234 0.68800002 -0.0036188802 6.0071115e-39 237 243
-0.098916054 0.68800002 -0.0036188802 5.9163578e-39 238 243
-0.09770976 0.68800002 -0.0036188802 5.7319665e-39 239 243
-0.096363194 0.68699998 -0.0036136196 4.4448276e-39 240 243
-0.095158651 0.68699998 -0.0036136196 4.4448276e-39 241 243
-0.093954116 0.68699998 -0.0036136196 5.2709912e-39 242 243
-0.092749573 0.68699998 -0.0036136196 4.9022101e-39 243 243
-0.091411777 0.68599999 -0.00360836 4.2586287e-39 244 243
-0.090209 0.68599999 -0.00360836 3.982402e-39 245 243
-0.088616975 0.68300003 -0.0035925799 3.6164655e-39 246 243
-0.087419443 0.68300003 -0.0035925799 4.5387805e-39 247 243
-0.086095676 0.68199998 -0.00358732 9.8785488e-39 248 243
-0.084899902 0.68199998 -0.00358732 1.4949308e-38 249 243
-0.083704129 0.68199998 -0.00358732 1.5678232e-38 250 243
-0.082266398 0.68000001 -0.0035767998 1.3649928e-38 251 243
-0.081074134 0.68000001 -0.0035767998 1.3833581e-38 252 243
-0.079764389 0.67900002 -0.0035715401 1.3741385e-38 253 243
-0.078573883 0.67900002 -0.0035715401 1.4108357e-38 254 243
-0.077383369 0.67900002 -0.0035715401 1.4016161e-38 255 243
-0.076192856 0.67900002 -0.0035715401 1.4016159e-38 256 243
-0.074891873 0.67799997 -0.0035662798 1.4292385e-38 257 243
-0.073485702 0.676 -0.0035557596 1.4201272e-38 258 243
-0.072300449 0.676 -0.0035557596 1.4293467e-38 259 243
-0.070904799 0.67400002 -0.00354524 1.4293467e-38 260 243
-0.069723055 0.67400002 -0.00354524 1.4293467e-38 261 243
-0.068337917 0.67199999 -0.00353472 1.4293467e-38 262 243
-0.067159683 0.67199999 -0.00353472 1.4293467e-38 263 243
-0.06598144 0.67199999 -0.00353472 1.4568259e-38 264 243
-0.064803198 0.67199999 -0.00353472 1.4476063e-38 265 243
-0.063624956 0.67199999 -0.00353472 1.5031049e-38 266 243
-0.062632568 0.67400002 -0.00354524 1.6506538e-38 267 243
-0.061450824 0.67400002 -0.00354524 1.8624533e-38 268 243
-0.06026908 0.67400002 -0.00354524 1.8071359e-38 269 243
-0.059087332 0.67400002 -0.00354524 1.7334163e-38 270 243
-0.057905588 0.67400002 -0.00354524 1.7426359e-38 271 243
-0.056555521 0.67199999 -0.00353472 1.7608602e-38 272 243
-0.055377278 0.67199999 -0.00353472 1.6133472e-38 273 243
-0.054118387 0.671 -0.0035294599 1.4387483e-38 274 243
-0.052863002 0.67000002 -0.0035241998 1.401834e-38 275 243
-0.051688269 0.67000002 -0.0035241998 1.4937758e-38 276 243
-0.050513536 0.67000002 -0.0035241998 1.5029953e-38 277 243
-0.04919152 0.66799998 -0.0035136798 1.4846291e-38 278 243
-0.048020288 0.66799998 -0.0035136798 1.4938486e-38 279 243
-0.046989333 0.67000002 -0.0035241998 1.5121445e-38 280 243
-0.0458146 0.67000002 -0.0035241998 1.5214e-38 281 243
-0.044639867 0.67000002 -0.0035241998 1.5030329e-38 282 243
-0.043530006 0.671 -0.0035294599 1.521472e-38 283 243
-0.042353518 0.671 -0.0035294599 1.5121445e-38 284 243
-0.041115668 0.67000002 -0.0035241998 1.4937054e-38 285 243
-0.039940935 0.67000002 -0.0035241998 1.475302e-38 286 243
-0.038766202 0.67000002 -0.0035241998 1.4937051e-38 287 243
-0.037591465 0.67000002 -0.0035241998 1.4662976e-38 288 243
-0.036416732 0.67000002 -0.0035241998 1.4847007e-38 289 243
-0.035136797 0.66799998 -0.0035136798 1.4939202e-38 290 243
-0.033965573 0.66799998 -0.0035136798 1.4847007e-38 291 243
-0.032794341 0.66799998 -0.0035136798 1.4662978e-38 292 243
-0.031623118 0.66799998 -0.0035136798 1.4570424e-38 293 243
-0.030451892 0.66799998 -0.0035136798 1.6321803e-38 294 243
-0.029280664 0.66799998 -0.0035136798 1.7428511e-38 295 243
-0.028109439 0.66799998 -0.0035136798 1.8623453e-38 296 243
-0.026938211 0.66799998 -0.0035136798 1.6687345e-38 297 243
-0.025728412 0.667 -0.0035084197 1.502925e-38 298 243
-0.024558939 0.667 -0.0035084197 1.7057554e-38 299 243
-0.023389466 0.667 -0.0035084197 1.8072094e-38 300 243
-0.022219993 0.667 -0.0035084197 1.7058302e-38 301 243
-0.021050518 0.667 -0.0035084197 1.5402376e-38 302 243
-0.019851239 0.66600001 -0.0035031599 1.6139941e-38 303 243
-0.018683519 0.66600001 -0.0035031599 1.9815892e-38 304 243
-0.017515799 0.66600001 -0.0035031599 2.0368707e-38 305 243
-0.016348081 0.66600001 -0.0035031599 2.0182892e-38 306 243
-0.015203152 0.667 -0.0035084197 2.0090696e-38 307 243
-0.014033679 0.667 -0.0035084197 2.0365854e-38 308 243
-0.012864206 0.667 -0.0035084197 2.0365854e-38 309 243
-0.011694733 0.667 -0.0035084197 2.0366584e-38 310 243
-0.010525259 0.667 -0.0035084197 2.045878e-38 311 243
-0.0093417596 0.66600001 -0.0035031599 2.0549193e-38 312 243
-0.0081494926 0.66399997 -0.0034926396 2.0641747e-38 313 243
-0.0069852793 0.66399997 -0.0034926396 2.0183287e-38 314 243
-0.0058210664 0.66399997 -0.0034926396 2.0459514e-38 315 243
-0.0046568532 0.66399997 -0.0034926396 2.018291e-38 316 243
-0.0034926396 0.66399997 -0.0034926396 1.9629738e-38 317 243
-0.0023284266 0.66399997 -0.0034926396 1.7513204e-38 318 243
-0.0011642133 0.66399997 -0.0034926396 1.6038433e-38 319 243
0 0.66399997 -0.0034926396 1.7701914e-38 320 243
0.0011642133 0.66399997 -0.0034926396 1.8807903e-38 321 243
0.0023284266 0.66399997 -0.0034926396 2.0458753e-38 322 243
0.0034926396 0.66399997 -0.0034926396 2.0366557e-38 323 243
0.0046708798 0.66600001 -0.0035031599 2.0088163e-38 324 243
0.0058385995 0.66600001 -0.0035031599 2.036439e-38 325 243
0.0070063197 0.66600001 -0.0035031599 2.0365122e-38 326 243
0.0081740404 0.66600001 -0.0035031599 2.0365122e-38 327 243
0.0093417596 0.66600001 -0.0035031599 1.9993816e-38 328 243
0.01050948 0.66600001 -0.0035031599 1.9625034e-38 329 243
0.011694733 0.667 -0.0035084197 2.036656e-38 330 243
0.012864206 0.667 -0.0035084197 2.1196321e-38 331 243
0.014033679 0.667 -0.0035084197 1.9905583e-38 332 243
0.015203152 0.667 -0.0035084197 1.9075821e-38 333 243
0.016372627 0.667 -0.0035084197 1.8889634e-38 334 243
0.0175421 0.667 -0.0035084197 1.8797437e-38 335 243
0.018711573 0.667 -0.0035084197 1.8982198e-38 336 243
0.019881045 0.667 -0.0035084197 1.9720122e-38 337 243
0.021050518 0.667 -0.0035084197 1.9721915e-38 338 243
0.022219993 0.667 -0.0035084197 1.91691e-38 339 243
0.023389466 0.667 -0.0035084197 1.9442437e-38 340 243
0.024558939 0.667 -0.0035084197 1.8981458e-38 341 243
0.025728412 0.667 -0.0035084197 1.8982551e-38 342 243
0.026938211 0.66799998 -0.0035136798 1.9443529e-38 343 243
0.028109439 0.66799998 -0.0035136798 1.9631536e-38 344 243
0.029368332 0.67000002 -0.0035241998 2.0092514e-38 345 243
0.030543067 0.67000002 -0.0035241998 2.0371624e-38 346 243
0.0317178 0.67000002 -0.0035241998 2.0832244e-38 347 243
0.032892533 0.67000002 -0.0035241998 2.074078e-38 348 243
0.034067266 0.67000002 -0.0035241998 2.074078e-38 349 243
0.035241999 0.67000002 -0.0035241998 2.1199237e-38 350 243
0.036416732 0.67000002 -0.0035241998 2.0738259e-38 351 243
0.037591465 0.67000002 -0.0035241998 2.1011226e-38 352 243
0.038766202 0.67000002 -0.0035241998 1.9443902e-38 353 243
0.040000543 0.671 -0.0035294599 1.8705241e-38 354 243
0.041177034 0.671 -0.0035294599 1.7598895e-38 355 243
0.042353518 0.671 -0.0035294599 1.8247882e-38 356 243
0.043530006 0.671 -0.0035294599 1.9999598e-38 357 243
0.044706494 0.671 -0.0035294599 1.9725546e-38 358 243
0.045882981 0.671 -0.0035294599 1.9910296e-38 359 243
0.047129598 0.67199999 -0.00353472 1.9353873e-38 360 243
0.04830784 0.67199999 -0.00353472 1.8340081e-38 361 243
0.049486078 0.67199999 -0.00353472 1.769074e-38 362 243
0.050664317 0.67199999 -0.00353472 1.7506347e-38 363 243
0.051842555 0.67199999 -0.00353472 1.8149197e-38 364 243
0.053020798 0.67199999 -0.00353472 1.8333947e-38 365 243
0.054199036 0.67199999 -0.00353472 1.8333945e-38 366 243
0.055377278 0.67199999 -0.00353472 1.8333945e-38 367 243
0.056555521 0.67199999 -0.00353472 1.8425767e-38 368 243
0.057733759 0.67199999 -0.00353472 1.8517963e-38 369 243
0.058911994 0.67199999 -0.00353472 1.8425765e-38 370 243
0.06026908 0.67400002 -0.00354524 1.8057341e-38 371 243
0.061268479 0.67199999 -0.00353472 1.8238149e-38 372 243
0.062446721 0.67199999 -0.00353472 1.8238149e-38 373 243
0.06381432 0.67400002 -0.00354524 1.8427582e-38 374 243
0.065092497 0.67500001 -0.0035505001 1.8704169e-38 375 243
0.066275999 0.67500001 -0.0035505001 1.8795639e-38 376 243
0.067459501 0.67500001 -0.0035505001 1.8703443e-38 377 243
0.068643004 0.67500001 -0.0035505001 1.8978961e-38 378 243
0.069929942 0.676 -0.0035557596 2.0546285e-38 379 243
0.071115203 0.676 -0.0035557596 2.0460921e-38 380 243
0.072300449 0.676 -0.0035557596 1.9354932e-38 381 243
0.073485702 0.676 -0.0035557596 1.9442793e-38 382 243
0.074670963 0.676 -0.0035557596 1.9258402e-38 383 243
0.075856209 0.676 -0.0035557596 1.8522998e-38 384 243
0.077269398 0.67799997 -0.0035662798 1.8430802e-38 385 243
0.078458153 0.67799997 -0.0035662798 1.8430083e-38 386 243
0.079646915 0.67799997 -0.0035662798 1.8430083e-38 387 243
0.08083567 0.67799997 -0.0035662798 1.8430805e-38 388 243
0.082024433 0.67799997 -0.0035662798 1.8246415e-38 389 243
0.083213195 0.67799997 -0.0035662798 1.8522635e-38 390 243
0.08440195 0.67799997 -0.0035662798 1.8522635e-38 391 243
0.085590713 0.67799997 -0.0035662798 1.8886743e-38 392 243
0.087035462 0.68000001 -0.0035767998 1.6950635e-38 393 243
0.088227727 0.68000001 -0.0035767998 1.6031565e-38 394 243
0.089419998 0.68000001 -0.0035767998 1.6400708e-38 395 243
0.090612262 0.68000001 -0.0035767998 1.6215962e-38 396 243
0.092074543 0.68199998 -0.00358732 1.5939016e-38 397 243
0.093270317 0.68199998 -0.00358732 1.5014902e-38 398 243
0.09446609 0.68199998 -0.00358732 1.2986598e-38 399 243
0.095661856 0.68199998 -0.00358732 1.1414228e-38 400 243
0.09685763 0.68199998 -0.00358732 1.0584467e-38 401 243
0.098053411 0.68199998 -0.00358732 8.3797004e-39 402 243
0.099394716 0.68300003 -0.0035925799 8.1034722e-39 403 243
0.10073952 0.68400002 -0.00359784 7.7354282e-39 404 243
0.1019388 0.68400002 -0.00359784 9.026167e-39 405 243
0.10343964 0.68599999 -0.00360836 9.2163036e-39 406 243
0.10479497 0.68699998 -0.0036136196 8.4783798e-39 407 243
0.10615382 0.68800002 -0.0036188802 8.6580893e-39 408 243
0.10782824 0.69099998 -0.0036346598 8.5658937e-39 409 243
0.1099866 0.69700003 -0.00366622 8.8413904e-39 410 243
0.11120867 0.69700003 -0.00366622 8.7491947e-39 411 243
0.11243074 0.69700003 -0.00366622 8.3822045e-39 412 243
0.11381588 0.69800001 -0.0036714801 8.0134234e-39 413 243
0.1150397 0.69800001 -0.0036714801 7.1861948e-39 414 243
0.11626352 0.69800001 -0.0036714801 7.2783905e-39 415 243
0.11832895 0.70300001 -0.0036977797 6.6373441e-39 416 243
0.11956155 0.70300001 -0.0036977797 6.913931e-39 417 243
0.12949067 0.74599999 -0.0039239596 4.9806968e-39 419 243
0.13079865 0.74599999 -0.0039239596 4.4271853e-39 420 243
0.13210665 0.74599999 -0.0039239596 3.9665673e-39 421 243
0.13341464 0.74599999 -0.0039239596 1.8572291e-39 422 243
0.13490321 0.74699998 -0.0039292197 1.7650335e-39 423 243
0.13657765 0.74900001 -0.0039397399 1.3062106e-39 424 243
0.13789091 0.74900001 -0.0039397399 1.3984062e-39 425 243
0.13938999 0.75 -0.003945 1.0307125e-39 426 243
0.14070499 0.75 -0.003945 1.0307125e-39 427 243
0.14239872 0.75199997 -0.0039555198 1.306226e-39 428 243
0.14429055 0.755 -0.0039712996 1.306226e-39 429 243
0.14561434 0.755 -0.0039712996 1.5817381e-39 430 243
0.14732733 0.75700003 -0.0039818203 1.5817381e-39 431 243
0.14904736 0.759 -0.0039923396 1.7664853e-39 432 243
0.15077437 0.76099998 -0.0040028598 2.0430721e-39 433 243
0.15210867 0.76099998 -0.0040028598 2.1370572e-39 434 243
0.15344296 0.76099998 -0.0040028598 2.3218072e-39 435 243
0.15538742 0.764 -0.0040186401 9.4285386e-40 436 243
0.15713723 0.76599997 -0.0040291594 3.8931154e-39 437 243
0.15848029 0.76599997 -0.0040291594 1.7800261e-38 438 243
0.15982334 0.76599997 -0.0040291594 2.1395876e-38 439 243
0.16116638 0.76599997 -0.0040291594 1.6494739e-38 440 243
0.16250944 0.76599997 -0.0040291594 1.1516175e-38 441 243
0.16342469 0.764 -0.0040186401 1.0235497e-38 442 243
0.16476424 0.764 -0.0040186401 8.5756159e-39 443 243
0.16610378 0.764 -0.0040186401 3.4234632e-39 444 243
0.16744334 0.764 -0.0040186401 2.6858982e-39 445 243
0.16878287 0.764 -0.0040186401 4.5226235e-39 446 243
0.17012241 0.764 -0.0040186401 4.9839618e-39 447 243
0.17191081 0.76599997 -0.0040291594 6.7273845e-39 448 243
-0.11967552 0.71100003 -0.0049864799 4.5272772e-39 224 244
-0.11842891 0.71100003 -0.0049864799 6.8318093e-39 225 244
-0.11718228 0.71100003 -0.0049864799 6.9236546e-39 226 244
-0.11593566 0.71100003 -0.0049864799 6.8314589e-39 227 244
-0.11468904 0.71100003 -0.0049864799 5.6376031e-39 228 244
-0.11328287 0.70999998 -0.0049794666 5.1766263e-39 229 244
-0.11203799 0.70999998 -0.0049794666 4.6230994e-39 230 244
-0.10985684 0.704 -0.0049373866 4.6230994e-39 231 244
-0.10815962 0.70099998 -0.0049163462 4.3511803e-39 232 244
-0.106778 0.69999999 -0.0049093333 4.9965497e-39 233 244
-0.10509831 0.69700003 -0.0048882933 5.8237936e-39 234 244
-0.10298203 0.69099998 -0.0048462129 5.9159892e-39 235 244
-0.10132864 0.68800002 -0.0048251734 6.09967e-39 236 244
-0.10012234 0.68800002 -0.0048251734 6.1922258e-39 237 244
-0.098916054 0.68800002 -0.0048251734 6.1018224e-39 238 244
-0.09770976 0.68800002 -0.0048251734 6.2865724e-39 239 244
-0.096363194 0.68699998 -0.0048181596 6.1940181e-39 240 244
-0.095020145 0.68599999 -0.0048111463 6.1940181e-39 241 244
-0.093543842 0.68400002 -0.0047971201 6.6524809e-39 242 244
-0.092344552 0.68400002 -0.0047971201 6.3758954e-39 243 244
-0.091145277 0.68400002 -0.0047971201 6.4673666e-39 244 244
-0.089946002 0.68400002 -0.0047971201 6.0985854e-39 245 244
-0.088616975 0.68300003 -0.0047901068 6.0063604e-39 246 244
-0.087291449 0.68199998 -0.004783093 7.7584375e-39 247 244
-0.085843198 0.68000001 -0.0047690663 1.2908778e-38 248 244
-0.084650926 0.68000001 -0.0047690663 1.7241614e-38 249 244
-0.083335936 0.67900002 -0.0047620535 1.5951579e-38 250 244
-0.082024433 0.67799997 -0.0047550397 1.4107666e-38 251 244
-0.08083567 0.67799997 -0.0047550397 1.4292038e-38 252 244
-0.079646915 0.67799997 -0.0047550397 1.4108007e-38 253 244
-0.078458153 0.67799997 -0.0047550397 1.4016161e-38 254 244
-0.077269398 0.67799997 -0.0047550397 1.4016161e-38 255 244
-0.076080635 0.67799997 -0.0047550397 1.3925035e-38 256 244
-0.074670963 0.676 -0.0047410131 1.3925035e-38 257 244
-0.073376998 0.67500001 -0.0047339997 1.4292738e-38 258 244
-0.07208655 0.67400002 -0.0047269869 1.4292738e-38 259 244
-0.070904799 0.67400002 -0.0047269869 1.4293467e-38 260 244
-0.069516152 0.67199999 -0.0047129598 1.4293467e-38 261 244
-0.068337917 0.67199999 -0.0047129598 1.4201993e-38 262 244
-0.067159683 0.67199999 -0.0047129598 1.4201993e-38 263 244
-0.06598144 0.67199999 -0.0047129598 1.4384231e-38 264 244
-0.064803198 0.67199999 -0.0047129598 1.4292035e-38 265 244
-0.063624956 0.67199999 -0.0047129598 1.5029606e-38 266 244
-0.062446721 0.67199999 -0.0047129598 1.6689128e-38 267 244
-0.061268479 0.67199999 -0.0047129598 1.9547567e-38 268 244
-0.060090236 0.67199999 -0.0047129598 1.9455371e-38 269 244
-0.058911994 0.67199999 -0.0047129598 1.8535226e-38 270 244
-0.057733759 0.67199999 -0.0047129598 1.8074249e-38 271 244
-0.056555521 0.67199999 -0.0047129598 1.8988292e-38 272 244
-0.055294871 0.671 -0.0047059464 1.6868153e-38 273 244
-0.054037735 0.67000002 -0.0046989331 1.4386036e-38 274 244
-0.052863002 0.67000002 -0.0046989331 1.4293838e-38 275 244
-0.051456824 0.667 -0.0046778931 1.4937758e-38 276 244
-0.050287351 0.667 -0.0046778931 1.4937758e-38 277 244
-0.049117878 0.667 -0.0046778931 1.4754095e-38 278 244
-0.047948405 0.667 -0.0046778931 1.4846291e-38 279 244
-0.046778932 0.667 -0.0046778931 1.502925e-38 280 244
-0.045609459 0.667 -0.0046778931 1.5121445e-38 281 244
-0.044439986 0.667 -0.0046778931 1.4938136e-38 282 244
-0.04327051 0.667 -0.0046778931 1.5030332e-38 283 244
-0.042101037 0.667 -0.0046778931 1.484594e-38 284 244
-0.040931564 0.667 -0.0046778931 1.4753386e-38 285 244
-0.039762091 0.667 -0.0046778931 1.4753742e-38 286 244
-0.038592618 0.667 -0.0046778931 1.4753742e-38 287 244
-0.037423145 0.667 -0.0046778931 1.4847009e-38 288 244
-0.036253672 0.667 -0.0046778931 1.4847009e-38 289 244
-0.035084199 0.667 -0.0046778931 1.475589e-38 290 244
-0.033914726 0.667 -0.0046778931 1.475589e-38 291 244
-0.032745253 0.667 -0.0046778931 1.4663341e-38 292 244
-0.03157578 0.667 -0.0046778931 1.4663341e-38 293 244
-0.030406304 0.667 -0.0046778931 1.5398405e-38 294 244
-0.029236831 0.667 -0.0046778931 1.5859383e-38 295 244
-0.028067358 0.667 -0.0046778931 1.6044128e-38 296 244
-0.026897885 0.667 -0.0046778931 1.5306562e-38 297 244
-0.025612691 0.66399997 -0.0046568532 1.475302e-38 298 244
-0.024448479 0.66399997 -0.0046568532 1.7242302e-38 299 244
-0.023354398 0.66600001 -0.0046708798 1.8623105e-38 300 244
-0.022120051 0.66399997 -0.0046568532 1.6779194e-38 301 244
-0.020955838 0.66399997 -0.0046568532 1.5124712e-38 302 244
-0.019791625 0.66399997 -0.0046568532 1.7153016e-38 303 244
-0.018627413 0.66399997 -0.0046568532 2.0828599e-38 304 244
-0.0174632 0.66399997 -0.0046568532 2.1197021e-38 305 244
-0.016298985 0.66399997 -0.0046568532 2.0553101e-38 306 244
-0.01518036 0.66600001 -0.0046708798 2.036871e-38 307 244
-0.014012639 0.66600001 -0.0046708798 2.0459833e-38 308 244
-0.01284492 0.66600001 -0.0046708798 2.0091049e-38 309 244
-0.011677199 0.66600001 -0.0046708798 1.9814835e-38 310 244
-0.010477919 0.66399997 -0.0046568532 1.9630444e-38 311 244
-0.0093137063 0.66399997 -0.0046568532 1.9812333e-38 312 244
-0.0081494926 0.66399997 -0.0046568532 1.9996725e-38 313 244
-0.0069747595 0.66299999 -0.0046498398 1.953575e-38 314 244
-0.0058122999 0.66299999 -0.0046498398 1.8613794e-38 315 244
-0.0046498398 0.66299999 -0.0046498398 1.6405395e-38 316 244
-0.0034873798 0.66299999 -0.0046498398 1.5206852e-38 317 244
-0.0023284266 0.66399997 -0.0046568532 1.3464858e-38 318 244
-0.0011642133 0.66399997 -0.0046568532 1.3372663e-38 319 244
0 0.66399997 -0.0046568532 1.4202443e-38 320 244
0.0011642133 0.66399997 -0.0046568532 1.6876116e-38 321 244
0.0023284266 0.66399997 -0.0046568532 1.9910271e-38 322 244
0.0034926396 0.66399997 -0.0046568532 1.8619532e-38 323 244
0.0046568532 0.66399997 -0.0046568532 1.8521926e-38 324 244
0.0058210664 0.66399997 -0.0046568532 1.9167295e-38 325 244
0.0069852793 0.66399997 -0.0046568532 1.98098e-38 326 244
0.0081494926 0.66399997 -0.0046568532 1.9625049e-38 327 244
0.0093137063 0.66399997 -0.0046568532 1.8985072e-38 328 244
0.010477919 0.66399997 -0.0046568532 1.9261659e-38 329 244
0.011677199 0.66600001 -0.0046708798 2.008998e-38 330 244
0.01284492 0.66600001 -0.0046708798 2.0458403e-38 331 244
0.014012639 0.66600001 -0.0046708798 2.05524e-38 332 244
0.01518036 0.66600001 -0.0046708798 1.9999227e-38 333 244
0.016348081 0.66600001 -0.0046708798 1.972084e-38 334 244
0.017515799 0.66600001 -0.0046708798 1.9444255e-38 335 244
0.018683519 0.66600001 -0.0046708798 1.9719403e-38 336 244
0.019851239 0.66600001 -0.0046708798 1.9995629e-38 337 244
0.02101896 0.66600001 -0.0046708798 1.9814116e-38 338 244
0.02218668 0.66600001 -0.0046708798 1.9998148e-38 339 244
0.023354398 0.66600001 -0.0046708798 1.9904137e-38 340 244
0.02452212 0.66600001 -0.0046708798 1.8429367e-38 341 244
0.02568984 0.66600001 -0.0046708798 1.8245336e-38 342 244
0.026897885 0.667 -0.0046778931 1.8522282e-38 343 244
0.028109439 0.66799998 -0.0046849065 1.9354949e-38 344 244
0.029280664 0.66799998 -0.0046849065 2.0369101e-38 345 244
0.030543067 0.67000002 -0.0046989331 2.0369469e-38 346 244
0.0317178 0.67000002 -0.0046989331 2.0646416e-38 347 244
0.032892533 0.67000002 -0.0046989331 2.0554586e-38 348 244
0.034067266 0.67000002 -0.0046989331 2.0554586e-38 349 244
0.035241999 0.67000002 -0.0046989331 2.0920852e-38 350 244
0.036416732 0.67000002 -0.0046989331 2.0828657e-38 351 244
0.037479252 0.66799998 -0.0046849065 2.1012672e-38 352 244
0.038650475 0.66799998 -0.0046849065 1.9998879e-38 353 244
0.039940935 0.67000002 -0.0046989331 1.8988319e-38 354 244
0.041115668 0.67000002 -0.0046989331 1.8342949e-38 355 244
0.042290401 0.67000002 -0.0046989331 1.889542e-38 356 244
0.043465134 0.67000002 -0.0046989331 1.9632985e-38 357 244
0.044639867 0.67000002 -0.0046989331 1.9818098e-38 358 244
0.0458146 0.67000002 -0.0046989331 2.0094326e-38 359 244
0.047059465 0.671 -0.0047059464 1.9352425e-38 360 244
0.048235953 0.671 -0.0047059464 1.8153882e-38 361 244
0.049412437 0.671 -0.0047059464 1.8150272e-38 362 244
0.050588924 0.671 -0.0047059464 1.8150272e-38 363 244
0.051765412 0.671 -0.0047059464 1.8332866e-38 364 244
0.052941896 0.671 -0.0047059464 1.8056637e-38 365 244
0.054118387 0.671 -0.0047059464 1.8241023e-38 366 244
0.055294871 0.671 -0.0047059464 1.8886392e-38 367 244
0.056471359 0.671 -0.0047059464 1.8427565e-38 368 244
0.057647847 0.671 -0.0047059464 1.833537e-38 369 244
0.058824331 0.671 -0.0047059464 1.8333216e-38 370 244
0.060000818 0.671 -0.0047059464 1.7780042e-38 371 244
0.061177302 0.671 -0.0047059464 1.7593861e-38 372 244
0.06235379 0.671 -0.0047059464 1.7777892e-38 373 244
0.06381432 0.67400002 -0.0047269869 1.8241752e-38 374 244
0.064996064 0.67400002 -0.0047269869 1.8979317e-38 375 244
0.066177815 0.67400002 -0.0047269869 1.9164781e-38 376 244
0.067359567 0.67400002 -0.0047269869 1.8795639e-38 377 244
0.068643004 0.67500001 -0.0047339997 1.8702018e-38 378 244
0.069826499 0.67500001 -0.0047339997 1.990056e-38 379 244
0.071115203 0.676 -0.0047410131 1.9632242e-38 380 244
0.072193496 0.67500001 -0.0047339997 1.9632242e-38 381 244
0.073376998 0.67500001 -0.0047339997 1.9811223e-38 382 244
0.074560501 0.67500001 -0.0047339997 1.9350245e-38 383 244
0.075856209 0.676 -0.0047410131 1.8614842e-38 384 244
0.077041462 0.676 -0.0047410131 1.8430449e-38 385 244
0.078226723 0.676 -0.0047410131 1.8154222e-38 386 244
0.079411969 0.676 -0.0047410131 1.8154222e-38 387 244
0.080597222 0.676 -0.0047410131 1.8246415e-38 388 244
0.081782483 0.676 -0.0047410131 1.8062024e-38 389 244
0.082967728 0.676 -0.0047410131 1.8152418e-38 390 244
0.084152982 0.676 -0.0047410131 1.7691799e-38 391 244
0.085590713 0.67799997 -0.0047550397 1.7597083e-38 392 244
0.086779475 0.67799997 -0.0047550397 1.639854e-38 393 244
0.08809799 0.67900002 -0.0047620535 1.6308509e-38 394 244
0.089288503 0.67900002 -0.0047620535 1.667729e-38 395 244
0.090612262 0.68000001 -0.0047690663 1.6308162e-38 396 244
0.091804534 0.68000001 -0.0047690663 1.5570597e-38 397 244
0.092996798 0.68000001 -0.0047690663 1.4464252e-38 398 244
0.09446609 0.68199998 -0.004783093 1.3080959e-38 399 244
0.095661856 0.68199998 -0.004783093 1.2337982e-38 400 244
0.09685763 0.68199998 -0.004783093 1.1416386e-38 401 244
0.098053411 0.68199998 -0.004783093 1.0496237e-38 402 244
0.099249184 0.68199998 -0.004783093 1.0035259e-38 403 244
0.10044495 0.68199998 -0.004783093 9.2998616e-39 404 244
0.10178977 0.68300003 -0.0047901068 1.0037427e-38 405 244
0.1029873 0.68300003 -0.0047901068 9.399969e-39 406 244
0.10418482 0.68300003 -0.0047901068 8.7545995e-39 407 244
0.10553664 0.68400002 -0.0047971201 8.5684132e-39 408 244
0.10720405 0.68699998 -0.0048181596 8.1074365e-39 409 244
0.1085664 0.68800002 -0.0048251734 8.7492059e-39 410 244
0.11057046 0.69300002 -0.00486024 8.6570089e-39 411 244
0.11178552 0.69300002 -0.00486024 8.5651664e-39 412 244
0.11365282 0.69700003 -0.0048882933 8.1963853e-39 413 244
0.11438045 0.69400001 -0.0048672534 7.645015e-39 414 244
0.11559726 0.69400001 -0.0048672534 7.5528194e-39 415 244
0.11681408 0.69400001 -0.0048672534 6.81922e-39 416 244
0.11803089 0.69400001 -0.0048672534 7.372035e-39 417 244
0.11907588 0.69300002 -0.00486024 6.3643627e-39 418 244
0.12914351 0.74400002 -0.0052179201 5.4427665e-39 419 244
0.130448 0.74400002 -0.0052179201 4.5201012e-39 420 244
0.13175249 0.74400002 -0.0052179201 4.0594818e-39 421 244
0.13341464 0.74599999 -0.0052319462 2.1330944e-39 422 244
0.13472262 0.74599999 -0.0052319462 2.1330944e-39 423 244
0.13621294 0.74699998 -0.0052389596 1.5824373e-39 424 244
0.1375227 0.74699998 -0.0052389596 1.5824373e-39 425 244
0.13938999 0.75 -0.00526 1.123264e-39 426 244
0.14070499 0.75 -0.00526 1.2154597e-39 427 244
0.14239872 0.75199997 -0.0052740262 1.3062232e-39 428 244
0.14409946 0.75400001 -0.0052880533 1.3062232e-39 429 244
0.14561434 0.755 -0.0052950666 1.306226e-39 430 244
0.14732733 0.75700003 -0.0053090933 1.306226e-39 431 244
0.14904736 0.759 -0.0053231199 1.398423e-39 432 244
0.15037814 0.759 -0.0053231199 1.7672041e-39 433 244
0.15210867 0.76099998 -0.0053371461 1.4002209e-39 434 244
0.15344296 0.76099998 -0.0053371461 1.2158296e-39 435 244
0.15477724 0.76099998 -0.0053371461 2.0541634e-41 436 244
0.15631667 0.76200002 -0.0053441599 9.4501887e-40 437 244
0.1580665 0.764 -0.0053581866 1.6328373e-38 438 244
0.15940605 0.764 -0.0053581866 2.1305834e-38 439 244
0.1603248 0.76200002 -0.0053441599 1.7694008e-38 440 244
0.16166084 0.76200002 -0.0053441599 1.1977519e-38 441 244
0.16278295 0.76099998 -0.0053371461 8.6714143e-39 442 244
0.16411725 0.76099998 -0.0053371461 8.0260449e-39 443 244
0.16545154 0.76099998 -0.0053371461 4.9853939e-39 444 244
0.16634749 0.759 -0.0053231199 3.3262327e-39 445 244
0.16723645 0.75700003 -0.0053090933 4.4289902e-39 446 244
0.16856371 0.75700003 -0.0053090933 5.0743596e-39 447 244
-0.12075205 0.70999998 -0.0062243328 4.3392931e-39 223 245
-0.11950719 0.70999998 -0.0062243328 6.6431104e-39 224 245
-0.11842891 0.71100003 -0.0062330998 8.5792186e-39 225 245
-0.11718228 0.71100003 -0.0062330998 7.2902889e-39 226 245
-0.11593566 0.71100003 -0.0062330998 7.1058976e-39 227 245
-0.11452773 0.70999998 -0.0062243328 5.5443327e-39 228 245
-0.11328287 0.70999998 -0.0062243328 5.0837132e-39 229 245
-0.11203799 0.70999998 -0.0062243328 4.3475915e-39 230 245
-0.10985684 0.704 -0.0061717331 4.5316227e-39 231 245
-0.10800533 0.69999999 -0.0061366665 4.4433773e-39 232 245
-0.10647292 0.69800001 -0.006119133 5.273138e-39 233 245
-0.10419358 0.69099998 -0.0060577663 6.1003763e-39 234 245
-0.102833 0.69 -0.0060489997 6.284769e-39 235 245
-0.10132864 0.68800002 -0.0060314666 6.4698819e-39 236 245
-0.099976815 0.68699998 -0.0060226996 6.7468289e-39 237 245
-0.098772272 0.68699998 -0.0060226996 7.2060022e-39 238 245
-0.097567737 0.68699998 -0.0060226996 7.2060022e-39 239 245
-0.096222922 0.68599999 -0.0060139326 7.2060022e-39 240 245
-0.094743125 0.68400002 -0.0059964 7.2060022e-39 241 245
-0.093543842 0.68400002 -0.0059964 7.2049302e-39 242 245
-0.092344552 0.68400002 -0.0059964 7.0205375e-39 243 245
-0.091012023 0.68300003 -0.0059876335 6.9269168e-39 244 245
-0.089682996 0.68199998 -0.005978866 6.7425255e-39 245 245
-0.088487223 0.68199998 -0.005978866 6.0052912e-39 246 245
-0.087035462 0.68000001 -0.0059613334 9.4165295e-39 247 245
-0.085716955 0.67900002 -0.0059525664 1.4472508e-38 248 245
-0.084526442 0.67900002 -0.0059525664 1.7514604e-38 249 245
-0.083213195 0.67799997 -0.0059437994 1.5306209e-38 250 245
-0.082024433 0.67799997 -0.0059437994 1.4015471e-38 251 245
-0.08083567 0.67799997 -0.0059437994 1.4291316e-38 252 245
-0.079646915 0.67799997 -0.0059437994 1.4291316e-38 253 245
-0.078226723 0.676 -0.0059262668 1.3924685e-38 254 245
-0.077041462 0.676 -0.0059262668 1.3924685e-38 255 245
-0.075856209 0.676 -0.0059262668 1.374137e-38 256 245
-0.074560501 0.67500001 -0.0059174998 1.374137e-38 257 245
-0.073268294 0.67400002 -0.0059087332 1.4108354e-38 258 245
-0.07208655 0.67400002 -0.0059087332 1.4292385e-38 259 245
-0.070694394 0.67199999 -0.0058911997 1.4017606e-38 260 245
-0.069516152 0.67199999 -0.0058911997 1.4201637e-38 261 245
-0.068337917 0.67199999 -0.0058911997 1.4200921e-38 262 245
-0.06705974 0.671 -0.0058824331 1.4293117e-38 263 245
-0.065883249 0.671 -0.0058824331 1.4293114e-38 264 245
-0.064706765 0.671 -0.0058824331 1.4108723e-38 265 245
-0.063530281 0.671 -0.0058824331 1.4108372e-38 266 245
-0.06235379 0.671 -0.0058824331 1.5860089e-38 267 245
-0.061268479 0.67199999 -0.0058911997 1.8721419e-38 268 245
-0.060090236 0.67199999 -0.0058911997 2.0012158e-38 269 245
-0.058911994 0.67199999 -0.0058911997 2.0011452e-38 270 245
-0.057647847 0.671 -0.0058824331 1.816754e-38 271 245
-0.056471359 0.671 -0.0058824331 1.7243765e-38 272 245
-0.055294871 0.671 -0.0058824331 1.5123266e-38 273 245
-0.053876422 0.66799998 -0.0058561331 1.3925773e-38 274 245
-0.052705199 0.66799998 -0.0058561331 1.4386752e-38 275 245
-0.051456824 0.667 -0.0058473665 1.4754089e-38 276 245
-0.050287351 0.667 -0.0058473665 1.4754089e-38 277 245
-0.049117878 0.667 -0.0058473665 1.4754095e-38 278 245
-0.047948405 0.667 -0.0058473665 1.4846291e-38 279 245
-0.046778932 0.667 -0.0058473665 1.484594e-38 280 245
-0.045609459 0.667 -0.0058473665 1.4938136e-38 281 245
-0.04437336 0.66600001 -0.0058385995 1.4662991e-38 282 245
-0.043205637 0.66600001 -0.0058385995 1.4662991e-38 283 245
-0.042037919 0.66600001 -0.0058385995 1.4662269e-38 284 245
-0.040870197 0.66600001 -0.0058385995 1.4477878e-38 285 245
-0.039702479 0.66600001 -0.0058385995 1.4570074e-38 286 245
-0.03853476 0.66600001 -0.0058385995 1.4570074e-38 287 245
-0.037367038 0.66600001 -0.0058385995 1.4570793e-38 288 245
-0.03619932 0.66600001 -0.0058385995 1.4662988e-38 289 245
-0.035031598 0.66600001 -0.0058385995 1.4663344e-38 290 245
-0.03386388 0.66600001 -0.0058385995 1.4663344e-38 291 245
-0.032696161 0.66600001 -0.0058385995 1.4846654e-38 292 245
-0.031528439 0.66600001 -0.0058385995 1.4846654e-38 293 245
-0.030360719 0.66600001 -0.0058385995 1.4938489e-38 294 245
-0.029192999 0.66600001 -0.0058385995 1.4753739e-38 295 245
-0.028025279 0.66600001 -0.0058385995 1.4846291e-38 296 245
-0.026857559 0.66600001 -0.0058385995 1.4569345e-38 297 245
-0.025612691 0.66399997 -0.0058210664 1.4476429e-38 298 245
-0.024448479 0.66399997 -0.0058210664 1.7242299e-38 299 245
-0.023284266 0.66399997 -0.0058210664 1.9175555e-38 300 245
-0.02208674 0.66299999 -0.0058122999 1.6409686e-38 301 245
-0.020924279 0.66299999 -0.0058122999 1.5029642e-38 302 245
-0.019761819 0.66299999 -0.0058122999 1.8256489e-38 303 245
-0.018599359 0.66299999 -0.0058122999 2.073929e-38 304 245
-0.017436899 0.66299999 -0.0058122999 2.0923681e-38 305 245
-0.016274439 0.66299999 -0.0058122999 2.0830764e-38 306 245
-0.015111978 0.66299999 -0.0058122999 2.0738567e-38 307 245
-0.013949519 0.66299999 -0.0058122999 2.1012627e-38 308 245
-0.012787059 0.66299999 -0.0058122999 2.0459812e-38 309 245
-0.0116246 0.66299999 -0.0058122999 1.9815536e-38 310 245
-0.01046214 0.66299999 -0.0058122999 1.9262362e-38 311 245
-0.0092996797 0.66299999 -0.0058122999 1.8984352e-38 312 245
-0.0081372196 0.66299999 -0.0058122999 1.8523375e-38 313 245
-0.0069747595 0.66299999 -0.0058122999 1.7694336e-38 314 245
-0.0058122999 0.66299999 -0.0058122999 1.5942619e-38 315 245
-0.0046498398 0.66299999 -0.0058122999 1.2263776e-38 316 245
-0.0034873798 0.66299999 -0.0058122999 1.0512059e-38 317 245
-0.0023249199 0.66299999 -0.0058122999 1.0151205e-38 318 245
-0.00116246 0.66299999 -0.0058122999 1.0980966e-38 319 245
0 0.66299999 -0.0058122999 1.0980631e-38 320 245
0.00116246 0.66299999 -0.0058122999 1.3839055e-38 321 245
0.0023249199 0.66299999 -0.0058122999 1.8806091e-38 322 245
0.0034873798 0.66299999 -0.0058122999 1.7330961e-38 323 245
0.0046568532 0.66399997 -0.0058210664 1.778508e-38 324 245
0.0058210664 0.66399997 -0.0058210664 1.8246418e-38 325 245
0.0069852793 0.66399997 -0.0058210664 1.9164428e-38 326 245
0.0081372196 0.66299999 -0.0058122999 1.870309e-38 327 245
0.0092996797 0.66299999 -0.0058122999 1.8063487e-38 328 245
0.01046214 0.66299999 -0.0058122999 1.9446423e-38 329 245
0.011642133 0.66399997 -0.0058210664 1.9078718e-38 330 245
0.012806346 0.66399997 -0.0058210664 1.8709577e-38 331 245
0.013970559 0.66399997 -0.0058210664 1.9634057e-38 332 245
0.015134773 0.66399997 -0.0058210664 2.0279426e-38 333 245
0.016298985 0.66399997 -0.0058210664 2.0092158e-38 334 245
0.0174632 0.66399997 -0.0058210664 1.9723734e-38 335 245
0.018627413 0.66399997 -0.0058210664 1.9997432e-38 336 245
0.019791625 0.66399997 -0.0058210664 1.981268e-38 337 245
0.020955838 0.66399997 -0.0058210664 1.9811961e-38 338 245
0.022120051 0.66399997 -0.0058210664 2.0180744e-38 339 245
0.023284266 0.66399997 -0.0058210664 1.9905581e-38 340 245
0.024448479 0.66399997 -0.0058210664 1.8799592e-38 341 245
0.02568984 0.66600001 -0.0058385995 1.861268e-38 342 245
0.026857559 0.66600001 -0.0058385995 1.842793e-38 343 245
0.028067358 0.667 -0.0058473665 1.9722289e-38 344 245
0.029236831 0.667 -0.0058473665 2.1012669e-38 345 245
0.030451892 0.66799998 -0.0058561331 2.0001413e-38 346 245
0.031623118 0.66799998 -0.0058561331 2.0093608e-38 347 245
0.032794341 0.66799998 -0.0058561331 1.9909214e-38 348 245
0.033965573 0.66799998 -0.0058561331 1.9632987e-38 349 245
0.035136797 0.66799998 -0.0058561331 1.9907774e-38 350 245
0.036308024 0.66799998 -0.0058561331 2.0092164e-38 351 245
0.037423145 0.667 -0.0058473665 2.0092158e-38 352 245
0.038592618 0.667 -0.0058473665 1.9354593e-38 353 245
0.039821707 0.66799998 -0.0058561331 1.8803587e-38 354 245
0.040992931 0.66799998 -0.0058561331 1.9448956e-38 355 245
0.042290401 0.67000002 -0.0058736666 1.9174896e-38 356 245
0.043465134 0.67000002 -0.0058736666 1.90827e-38 357 245
0.044639867 0.67000002 -0.0058736666 1.9633701e-38 358 245
0.0458146 0.67000002 -0.0058736666 1.9818451e-38 359 245
0.046989333 0.67000002 -0.0058736666 1.889179e-38 360 245
0.048235953 0.671 -0.0058824331 1.7785083e-38 361 245
0.049412437 0.671 -0.0058824331 1.8333572e-38 362 245
0.050588924 0.671 -0.0058824331 1.8610159e-38 363 245
0.051765412 0.671 -0.0058824331 1.8150625e-38 364 245
0.052941896 0.671 -0.0058824331 1.7689647e-38 365 245
0.054118387 0.671 -0.0058824331 1.787224e-38 366 245
0.055212468 0.67000002 -0.0058736666 1.8978588e-38 367 245
0.056387197 0.67000002 -0.0058736666 1.8703793e-38 368 245
0.057647847 0.671 -0.0058824331 1.8427565e-38 369 245
0.058824331 0.671 -0.0058824331 1.8425411e-38 370 245
0.060000818 0.671 -0.0058824331 1.7872596e-38 371 245
0.061177302 0.671 -0.0058824331 1.7502382e-38 372 245
0.06235379 0.671 -0.0058824331 1.7410186e-38 373 245
0.063530281 0.671 -0.0058824331 1.8239947e-38 374 245
0.064706765 0.671 -0.0058824331 1.8977513e-38 375 245
0.065883249 0.671 -0.0058824331 1.9070786e-38 376 245
0.067159683 0.67199999 -0.0058911997 1.8978232e-38 377 245
0.068541311 0.67400002 -0.0059087332 1.8610177e-38 378 245
0.069723055 0.67400002 -0.0059087332 1.8978961e-38 379 245
0.070904799 0.67400002 -0.0059087332 1.8893605e-38 380 245
0.07208655 0.67400002 -0.0059087332 2.046057e-38 381 245
0.073268294 0.67400002 -0.0059087332 2.0182529e-38 382 245
0.074450038 0.67400002 -0.0059087332 1.9168017e-38 383 245
0.075743996 0.67500001 -0.0059174998 1.8982901e-38 384 245
0.076927498 0.67500001 -0.0059174998 1.8614477e-38 385 245
0.078110993 0.67500001 -0.0059174998 1.8245339e-38 386 245
0.079294503 0.67500001 -0.0059174998 1.8337535e-38 387 245
0.080597222 0.676 -0.0059262668 1.824462e-38 388 245
0.081782483 0.676 -0.0059262668 1.8060227e-38 389 245
0.082967728 0.676 -0.0059262668 1.8059153e-38 390 245
0.084152982 0.676 -0.0059262668 1.7413783e-38 391 245
0.085590713 0.67799997 -0.0059437994 1.6584739e-38 392 245
0.086779475 0.67799997 -0.0059437994 1.6216315e-38 393 245
0.08796823 0.67799997 -0.0059437994 1.6401073e-38 394 245
0.089156993 0.67799997 -0.0059437994 1.6954247e-38 395 245
0.090479009 0.67900002 -0.0059525664 1.6217411e-38 396 245
0.091804534 0.68000001 -0.0059613334 1.5295096e-38 397 245
0.092996798 0.68000001 -0.0059613334 1.400471e-38 398 245
0.094189063 0.68000001 -0.0059613334 1.3174948e-38 399 245
0.095381334 0.68000001 -0.0059613334 1.2709641e-38 400 245
0.096573599 0.68000001 -0.0059613334 1.1787326e-38 401 245
0.09776587 0.68000001 -0.0059613334 1.1417455e-38 402 245
0.098958135 0.68000001 -0.0059613334 1.0956477e-38 403 245
0.10044495 0.68199998 -0.005978866 1.0220723e-38 404 245
0.10164072 0.68199998 -0.005978866 1.0405473e-38 405 245
0.1029873 0.68300003 -0.0059876335 9.396732e-39 406 245
0.10418482 0.68300003 -0.0059876335 9.3041776e-39 407 245
0.10538235 0.68300003 -0.0059876335 8.8442742e-39 408 245
0.10704801 0.68599999 -0.0060139326 8.3832975e-39 409 245
0.10825079 0.68599999 -0.0060139326 8.8413904e-39 410 245
0.10961314 0.68699998 -0.0060226996 8.7491947e-39 411 245
0.11097898 0.68800002 -0.0060314666 8.9303532e-39 412 245
0.11267446 0.69099998 -0.0060577663 8.6541264e-39 413 245
0.11421563 0.69300002 -0.0060753003 8.0116423e-39 414 245
0.1154307 0.69300002 -0.0060753003 7.7354156e-39 415 245
0.11664575 0.69300002 -0.0060753003 6.9096178e-39 416 245
0.11786082 0.69300002 -0.0060753003 7.5549872e-39 417 245
0.11907588 0.69300002 -0.0060753003 6.7320564e-39 418 245
0.12029094 0.69300002 -0.0060753003 6.086687e-39 419 245
0.13009733 0.74199998 -0.0065048663 5.6239138e-39 420 245
0.13139831 0.74199998 -0.0065048663 4.8863488e-39 421 245
0.13305695 0.74400002 -0.0065223998 3.1432862e-39 422 245
0.13472262 0.74599999 -0.0065399334 2.9585362e-39 423 245
0.13621294 0.74699998 -0.0065486995 1.950501e-39 424 245
0.1375227 0.74699998 -0.0065486995 1.7664698e-39 425 245
0.13920414 0.74900001 -0.0065662335 1.6746343e-39 426 245
0.14051738 0.74900001 -0.0065662335 1.6746343e-39 427 245
0.14239872 0.75199997 -0.0065925326 1.7661167e-39 428 245
0.14409946 0.75400001 -0.0066100666 1.7661167e-39 429 245
0.14561434 0.755 -0.0066188332 2.1316678e-39 430 245
0.14732733 0.75700003 -0.0066363667 2.1316678e-39 431 245
0.14865461 0.75700003 -0.0066363667 1.6742868e-39 432 245
0.15037814 0.759 -0.0066538998 1.7664824e-39 433 245
0.15210867 0.76099998 -0.0066714329 1.7668482e-39 434 245
0.15344296 0.76099998 -0.0066714329 1.4906214e-39 435 245
0.15477724 0.76099998 -0.0066714329 1.5501164e-41 436 245
0.15631667 0.76200002 -0.0066801999 1.3700495e-41 437 245
0.15765272 0.76200002 -0.0066801999 1.4389017e-38 438 245
0.1587801 0.76099998 -0.0066714329 2.1211846e-38 439 245
0.16011439 0.76099998 -0.0066714329 1.7327386e-38 440 245
0.16144867 0.76099998 -0.0066714329 1.1611257e-38 441 245
0.16235515 0.759 -0.0066538998 6.5552406e-39 442 245
0.16368593 0.759 -0.0066538998 7.0162187e-39 443 245
0.16414706 0.755 -0.0066188332 5.5400139e-39 444 245
0.16547082 0.755 -0.0066188332 2.9585362e-39 445 245
0.16679458 0.755 -0.0066188332 3.5113457e-39 446 245
0.16811836 0.755 -0.0066188332 4.2489121e-39 447 245
-0.12075205 0.70999998 -0.0074691991 5.6296563e-39 223 246
-0.11950719 0.70999998 -0.0074691991 8.0238911e-39 224 246
-0.1139316 0.68400002 -0.0071956799 8.6692605e-39 225 246
-0.11273233 0.68400002 -0.0071956799 7.0154999e-39 226 246
-0.11593566 0.71100003 -0.0074797203 6.5545217e-39 227 246
-0.11452773 0.70999998 -0.0074691991 5.0855097e-39 228 246
-0.11328287 0.70999998 -0.0074691991 4.7163671e-39 229 246
-0.11203799 0.70999998 -0.0074691991 4.6238183e-39 230 246
-0.10923266 0.69999999 -0.0073639993 4.7163727e-39 231 246
-0.10800533 0.69999999 -0.0073639993 5.2706254e-39 232 246
-0.10647292 0.69800001 -0.0073429602 6.3766143e-39 233 246
-0.10419358 0.69099998 -0.0072693196 6.2862165e-39 234 246
-0.102833 0.69 -0.0072587994 6.4709665e-39 235 246
-0.10132864 0.68800002 -0.0072377604 6.8390245e-39 236 246
-0.099976815 0.68699998 -0.0072272392 7.2074469e-39 237 246
-0.098772272 0.68699998 -0.0072272392 7.6651853e-39 238 246
-0.097567737 0.68699998 -0.0072272392 7.5729896e-39 239 246
-0.096222922 0.68599999 -0.0072167199 7.4800723e-39 240 246
-0.094743125 0.68400002 -0.0071956799 7.3878753e-39 241 246
-0.093270317 0.68199998 -0.00717464 7.1120143e-39 242 246
-0.092074543 0.68199998 -0.00717464 7.0198187e-39 243 246
-0.090878762 0.68199998 -0.00717464 6.8347184e-39 244 246
-0.089419998 0.68000001 -0.0071535995 6.0971533e-39 245 246
-0.08809799 0.67900002 -0.0071430802 3.9830816e-39 246 246
-0.086779475 0.67799997 -0.0071325595 9.6070164e-39 247 246
-0.085590713 0.67799997 -0.0071325595 1.5580285e-38 248 246
-0.084152982 0.676 -0.0071115191 1.6871024e-38 249 246
-0.082967728 0.676 -0.0071115191 1.4111988e-38 250 246
-0.0816615 0.67500001 -0.0071010003 1.3189673e-38 251 246
-0.080477998 0.67500001 -0.0071010003 1.4107651e-38 252 246
-0.079294503 0.67500001 -0.0071010003 1.4015455e-38 253 246
-0.078110993 0.67500001 -0.0071010003 1.3924331e-38 254 246
-0.076927498 0.67500001 -0.0071010003 1.3740299e-38 255 246
-0.07563179 0.67400002 -0.0070904801 1.3923608e-38 256 246
-0.074450038 0.67400002 -0.0070904801 1.4015805e-38 257 246
-0.073050871 0.67199999 -0.0070694401 1.4015805e-38 258 246
-0.071872637 0.67199999 -0.0070694401 1.4108001e-38 259 246
-0.070694394 0.67199999 -0.0070694401 1.4016524e-38 260 246
-0.069412716 0.671 -0.0070589199 1.410872e-38 261 246
-0.068236224 0.671 -0.0070589199 1.4384236e-38 262 246
-0.06705974 0.671 -0.0070589199 1.4384236e-38 263 246
-0.065883249 0.671 -0.0070589199 1.447571e-38 264 246
-0.064706765 0.671 -0.0070589199 1.4383515e-38 265 246
-0.063530281 0.671 -0.0070589199 1.2911997e-38 266 246
-0.06235379 0.671 -0.0070589199 1.4387127e-38 267 246
-0.061177302 0.671 -0.0070589199 1.6422303e-38 268 246
-0.060000818 0.671 -0.0070589199 1.8542802e-38 269 246
-0.058736663 0.67000002 -0.0070483997 2.0011821e-38 270 246
-0.057561934 0.67000002 -0.0070483997 1.6508746e-38 271 246
-0.056134716 0.667 -0.0070168395 1.2924598e-38 272 246
-0.054965243 0.667 -0.0070168395 1.1172522e-38 273 246
-0.05379577 0.667 -0.0070168395 1.4476076e-38 274 246
-0.052547399 0.66600001 -0.0070063197 1.4937054e-38 275 246
-0.051379681 0.66600001 -0.0070063197 1.4661541e-38 276 246
-0.050211959 0.66600001 -0.0070063197 1.4754095e-38 277 246
-0.04904424 0.66600001 -0.0070063197 1.4754095e-38 278 246
-0.047876518 0.66600001 -0.0070063197 1.4754095e-38 279 246
-0.046708796 0.66600001 -0.0070063197 1.4753742e-38 280 246
-0.045541082 0.66600001 -0.0070063197 1.4845937e-38 281 246
-0.04437336 0.66600001 -0.0070063197 1.4846656e-38 282 246
