# .PCD v.7 - Point Cloud Data file format
FIELDS x y z rgb imX imY
SIZE 4 4 4 4 4 4
TYPE F F F F F F
COUNT 1 1 1 1 1 1
WIDTH 829
HEIGHT 1
VIEWPOINT 0 0 0 1 0 0 0
POINTS 829
DATA ascii
-0.092302479 0.64200002 -0.059658919 7.2917406e-39 238 293
-0.091318861 0.64300001 -0.059751842 1.2177749e-38 239 293
-0.090331733 0.64399999 -0.05984477 1.3924427e-38 240 293
-0.089202583 0.64399999 -0.05984477 1.4293569e-38 241 293
-0.088073432 0.64399999 -0.05984477 1.5122251e-38 242 293
-0.087214306 0.64600003 -0.060030628 1.429249e-38 243 293
-0.086081654 0.64600003 -0.060030628 1.3279413e-38 244 293
-0.085080497 0.64700001 -0.060123552 1.3463806e-38 245 293
-0.083946094 0.64700001 -0.060123552 1.3649638e-38 246 293
-0.08306767 0.64899999 -0.060309403 1.3649638e-38 247 293
-0.082055993 0.64999998 -0.060402326 1.3925863e-38 248 293
-0.08091633 0.64999998 -0.060402326 1.4109894e-38 249 293
-0.080022126 0.65200001 -0.060588185 1.4569428e-38 250 293
-0.078878954 0.65200001 -0.060588185 1.4569428e-38 251 293
-0.077735789 0.65200001 -0.060588185 1.3925507e-38 252 293
-0.076710083 0.653 -0.060681112 1.3741115e-38 253 293
-0.075565159 0.653 -0.060681112 1.3558168e-38 254 293
-0.074534193 0.65399998 -0.060774036 1.3650365e-38 255 293
-0.073387519 0.65399998 -0.060774036 1.374328e-38 256 293
-0.072351299 0.65499997 -0.060866963 1.392803e-38 257 293
-0.071202859 0.65499997 -0.060866963 1.4387203e-38 258 293
-0.07026834 0.65700001 -0.061052818 1.4387203e-38 259 293
-0.069116399 0.65700001 -0.061052818 1.4387556e-38 260 293
-0.068171352 0.65899998 -0.061238669 1.429536e-38 261 293
-0.067015901 0.65899998 -0.061238669 1.3926945e-38 262 293
-0.065860458 0.65899998 -0.061238669 1.3742914e-38 263 293
-0.064901382 0.66100001 -0.061424527 1.3465616e-38 264 293
-0.063742429 0.66100001 -0.061424527 1.3650368e-38 265 293
-0.062678158 0.662 -0.061517447 1.383655e-38 266 293
-0.061610378 0.66299999 -0.061610378 1.3928746e-38 267 293
-0.060447913 0.66299999 -0.061610378 1.43872e-38 268 293
-0.059374876 0.66399997 -0.061703302 1.4664147e-38 269 293
-0.058385998 0.66600001 -0.061889157 1.5216601e-38 270 293
-0.057218276 0.66600001 -0.061889157 1.5216601e-38 271 293
-0.056134716 0.667 -0.06198208 1.5583225e-38 272 293
-0.054965243 0.667 -0.06198208 1.5583225e-38 273 293
-0.05379577 0.667 -0.06198208 1.5032925e-38 274 293
-0.052705199 0.66799998 -0.062075011 1.5032925e-38 275 293
-0.051533967 0.66799998 -0.062075011 1.5124399e-38 276 293
-0.050588924 0.671 -0.06235379 1.5032204e-38 277 293
-0.049412437 0.671 -0.06235379 1.5032206e-38 278 293
-0.04830784 0.67199999 -0.062446721 1.4847456e-38 279 293
-0.047129598 0.67199999 -0.062446721 1.5122251e-38 280 293
-0.046088122 0.67400002 -0.062632568 1.5122251e-38 281 293
-0.044972997 0.67500001 -0.062725499 1.512297e-38 282 293
-0.043854371 0.676 -0.062818423 1.5215166e-38 283 293
-0.042669121 0.676 -0.062818423 1.4206043e-38 284 293
-0.041483864 0.676 -0.062818423 1.3283727e-38 285 293
-0.040417835 0.67799997 -0.063004278 1.4201727e-38 286 293
-0.039229076 0.67799997 -0.063004278 1.4293923e-38 287 293
-0.038096428 0.67900002 -0.063097201 1.4477601e-38 288 293
-0.037068974 0.68199998 -0.063375987 1.4477601e-38 289 293
-0.035873197 0.68199998 -0.063375987 1.4477601e-38 290 293
-0.034728274 0.68300003 -0.063468911 1.4293569e-38 291 293
-0.033530746 0.68300003 -0.063468911 1.4293569e-38 292 293
-0.032380559 0.68400002 -0.063561834 1.4201374e-38 293 293
-0.031272452 0.68599999 -0.063747689 1.4109541e-38 294 293
-0.030069664 0.68599999 -0.063747689 1.392551e-38 295 293
-0.028908957 0.68699998 -0.06384062 1.4384686e-38 296 293
-0.027744746 0.68800002 -0.063933544 1.4569077e-38 297 293
-0.026538454 0.68800002 -0.063933544 1.4570149e-38 298 293
-0.02551626 0.69300002 -0.064398177 1.4662345e-38 299 293
-0.024301201 0.69300002 -0.064398177 1.4754541e-38 300 293
-0.02308614 0.69300002 -0.064398177 1.4754541e-38 301 293
-0.021871079 0.69300002 -0.064398177 1.4847812e-38 302 293
-0.020685827 0.69400001 -0.064491108 1.4940008e-38 303 293
-0.019469013 0.69400001 -0.064491108 1.5030406e-38 304 293
-0.018304799 0.69599998 -0.064676955 1.4846013e-38 305 293
-0.017084479 0.69599998 -0.064676955 1.5027888e-38 306 293
-0.015864158 0.69599998 -0.064676955 1.456691e-38 307 293
-0.014643839 0.69599998 -0.064676955 1.4381069e-38 308 293
-0.013442807 0.69700003 -0.064769886 1.4473266e-38 309 293
-0.012220734 0.69700003 -0.064769886 1.4013711e-38 310 293
-0.01099866 0.69700003 -0.064769886 1.2354549e-38 311 293
-0.0097765867 0.69700003 -0.064769886 1.1153115e-38 312 293
-0.14823732 0.69300002 -0.06561324 1.1063478e-38 198 294
-0.14702226 0.69300002 -0.06561324 8.4820008e-39 199 294
-0.1453864 0.69099998 -0.065423876 5.5411279e-39 200 294
-0.14417483 0.69099998 -0.065423876 5.1727041e-39 201 294
-0.11931784 0.64200002 -0.060784556 5.3509367e-39 214 294
-0.1180081 0.64099997 -0.060689874 4.9825143e-39 215 294
-0.11633718 0.63800001 -0.060405839 4.1570654e-39 216 294
-0.11503795 0.63700002 -0.060311161 3.9726741e-39 217 294
-0.11374222 0.63599998 -0.060216475 3.6003183e-39 218 294
-0.11227294 0.634 -0.060027119 1.2954262e-39 219 294
-0.11116133 0.634 -0.060027119 2.8453786e-40 220 294
-0.11004972 0.634 -0.060027119 1.1139384e-39 221 294
-0.10893811 0.634 -0.060027119 2.0239935e-40 222 294
-0.10782649 0.634 -0.060027119 1.0321614e-39 223 294
-0.10671487 0.634 -0.060027119 1.9497821e-39 224 294
-0.10576983 0.63499999 -0.060121801 1.8575851e-39 225 294
-0.10465646 0.63499999 -0.060121801 1.8568606e-39 226 294
-0.10370615 0.63599998 -0.060216475 1.764665e-39 227 294
-0.10275235 0.63700002 -0.060311161 1.7643146e-39 228 294
-0.10163548 0.63700002 -0.060311161 1.8565103e-39 229 294
-0.1005186 0.63700002 -0.060311161 2.1320238e-39 230 294
-0.099557772 0.63800001 -0.060405839 2.2242208e-39 231 294
-0.098439142 0.63800001 -0.060405839 2.132744e-39 232 294
-0.097320519 0.63800001 -0.060405839 2.132744e-39 233 294
-0.096503459 0.63999999 -0.060595192 1.7664796e-39 234 294
-0.095530361 0.64099997 -0.060689874 1.674284e-39 235 294
-0.094553761 0.64200002 -0.060784556 8.4380588e-40 236 294
-0.09342812 0.64200002 -0.060784556 1.152568e-41 237 294
-0.092446253 0.64300001 -0.060879238 7.8420432e-39 238 294
-0.091460876 0.64399999 -0.06097392 1.2635856e-38 239 294
-0.090331733 0.64399999 -0.06097392 1.4015906e-38 240 294
-0.08947961 0.64600003 -0.061163284 1.4384689e-38 241 294
-0.088346958 0.64600003 -0.061163284 1.5122248e-38 242 294
-0.087349311 0.64700001 -0.061257958 1.4569433e-38 243 294
-0.086214907 0.64700001 -0.061257958 1.4198853e-38 244 294
-0.085211992 0.648 -0.06135264 1.4382884e-38 245 294
-0.084205583 0.64899999 -0.061447315 1.3833313e-38 246 294
-0.08306767 0.64899999 -0.061447315 1.3741117e-38 247 294
-0.082055993 0.64999998 -0.061541997 1.3650718e-38 248 294
-0.08091633 0.64999998 -0.061541997 1.3742914e-38 249 294
-0.080022126 0.65200001 -0.061731357 1.3834386e-38 250 294
-0.078878954 0.65200001 -0.061731357 1.3834386e-38 251 294
-0.077855013 0.653 -0.061826039 1.4291767e-38 252 294
-0.076827556 0.65399998 -0.061920714 1.4107376e-38 253 294
-0.075680874 0.65399998 -0.061920714 1.438397e-38 254 294
-0.074648157 0.65499997 -0.062015396 1.4476166e-38 255 294
-0.073499724 0.65499997 -0.062015396 1.4018071e-38 256 294
-0.072351299 0.65499997 -0.062015396 1.4018071e-38 257 294
-0.071420282 0.65700001 -0.06220476 1.3743998e-38 258 294
-0.07026834 0.65700001 -0.06220476 1.3559967e-38 259 294
-0.069116399 0.65700001 -0.06220476 1.3744352e-38 260 294
-0.068171352 0.65899998 -0.062394116 1.3744352e-38 261 294
-0.067015901 0.65899998 -0.062394116 1.4293567e-38 262 294
-0.066060342 0.66100001 -0.062583476 1.4293567e-38 263 294
-0.064901382 0.66100001 -0.062583476 1.4201374e-38 264 294
-0.063838862 0.662 -0.062678158 1.4109178e-38 265 294
-0.062678158 0.662 -0.062678158 1.4570877e-38 266 294
-0.061703302 0.66399997 -0.062867515 1.5031853e-38 267 294
-0.060539093 0.66399997 -0.062867515 1.46645e-38 268 294
-0.059553716 0.66600001 -0.063056879 1.4756696e-38 269 294
-0.058385998 0.66600001 -0.063056879 1.5308065e-38 270 294
-0.057218276 0.66600001 -0.063056879 1.540026e-38 271 294
-0.056218877 0.66799998 -0.063246235 1.5399191e-38 272 294
-0.05504765 0.66799998 -0.063246235 1.5306995e-38 273 294
-0.053876422 0.66799998 -0.063246235 1.4847462e-38 274 294
-0.052863002 0.67000002 -0.063435599 1.4847462e-38 275 294
-0.051765412 0.671 -0.063530281 1.4663791e-38 276 294
-0.050588924 0.671 -0.063530281 1.4571595e-38 277 294
-0.049486078 0.67199999 -0.063624956 1.4754911e-38 278 294
-0.048451614 0.67400002 -0.06381432 1.4570879e-38 279 294
-0.047339998 0.67500001 -0.063909002 1.4937507e-38 280 294
-0.0461565 0.67500001 -0.063909002 1.4937507e-38 281 294
-0.045039624 0.676 -0.064003684 1.4938583e-38 282 294
-0.043854371 0.676 -0.064003684 1.5122973e-38 283 294
-0.042795356 0.67799997 -0.06419304 1.44794e-38 284 294
-0.041606598 0.67799997 -0.06419304 1.401878e-38 285 294
-0.040477451 0.67900002 -0.064287722 1.4018424e-38 286 294
-0.039286941 0.67900002 -0.064287722 1.3926229e-38 287 294
-0.038152531 0.68000001 -0.064382397 1.4109544e-38 288 294
-0.037068974 0.68199998 -0.064571753 1.420174e-38 289 294
-0.035925802 0.68300003 -0.064666435 1.4018424e-38 290 294
-0.034728274 0.68300003 -0.064666435 1.3926229e-38 291 294
-0.033579841 0.68400002 -0.064761117 1.4293567e-38 292 294
-0.032475237 0.68599999 -0.064950474 1.4293567e-38 293 294
-0.031318039 0.68699998 -0.065045156 1.4108822e-38 294 294
-0.030113498 0.68699998 -0.065045156 1.4108822e-38 295 294
-0.028951041 0.68800002 -0.065139838 1.3926226e-38 296 294
-0.027825398 0.69 -0.065329194 1.4387203e-38 297 294
-0.026654173 0.69099998 -0.065423876 1.4479752e-38 298 294
-0.02551626 0.69300002 -0.06561324 1.4571949e-38 299 294
-0.024301201 0.69300002 -0.06561324 1.4571581e-38 300 294
-0.023119451 0.69400001 -0.065707922 1.4755614e-38 301 294
-0.021902639 0.69400001 -0.065707922 1.5306623e-38 302 294
-0.020685827 0.69400001 -0.065707922 1.5030036e-38 303 294
-0.11950368 0.64300001 -0.062006634 5.4413344e-39 214 295
-0.1181922 0.64200002 -0.061910201 5.1651063e-39 215 295
-0.11633718 0.63800001 -0.061524466 4.0637978e-39 216 295
-0.11503795 0.63700002 -0.061428033 3.6946551e-39 217 295
-0.11392108 0.63700002 -0.061428033 2.9556678e-39 218 295
-0.11262712 0.63599998 -0.061331596 1.1117552e-39 219 295
-0.11151199 0.63599998 -0.061331596 7.4154753e-40 220 295
-0.11022329 0.63499999 -0.061235163 1.8478937e-39 221 295
-0.10910993 0.63499999 -0.061235163 1.0289146e-39 222 295
-0.10816664 0.63599998 -0.061331596 1.582087e-39 223 295
-0.10705151 0.63599998 -0.061331596 1.9497821e-39 224 295
-0.10593639 0.63599998 -0.061331596 1.8575851e-39 225 295
-0.10482127 0.63599998 -0.061331596 1.8575823e-39 226 295
-0.10386922 0.63700002 -0.061428033 1.7653866e-39 227 295
-0.10275235 0.63700002 -0.061428033 1.9476269e-39 228 295
-0.10163548 0.63700002 -0.061428033 2.0398225e-39 229 295
-0.1006764 0.63800001 -0.061524466 1.9487087e-39 230 295
-0.099557772 0.63800001 -0.061524466 2.1327412e-39 231 295
-0.098439142 0.63800001 -0.061524466 2.132021e-39 232 295
-0.097625598 0.63999999 -0.061717331 2.132021e-39 233 295
-0.096654251 0.64099997 -0.061813761 1.7661167e-39 234 295
-0.095530361 0.64099997 -0.061813761 1.7661167e-39 235 295
-0.094553761 0.64200002 -0.061910201 1.3040596e-39 236 295
-0.09342812 0.64200002 -0.061910201 3.8210186e-40 237 295
-0.092446253 0.64300001 -0.062006634 8.118623e-39 238 295
-0.091460876 0.64399999 -0.062103063 1.2359982e-38 239 295
-0.090612262 0.64600003 -0.062295936 1.410702e-38 240 295
-0.08947961 0.64600003 -0.062295936 1.4660194e-38 241 295
-0.088346958 0.64600003 -0.062295936 1.5398115e-38 242 295
-0.087349311 0.64700001 -0.062392361 1.4844941e-38 243 295
-0.086348161 0.648 -0.062488798 1.4567631e-38 244 295
-0.085343495 0.64899999 -0.062585227 1.4475436e-38 245 295
-0.084205583 0.64899999 -0.062585227 1.4199569e-38 246 295
-0.083195657 0.64999998 -0.062681668 1.4199569e-38 247 295
-0.082308479 0.65200001 -0.062874533 1.3924427e-38 248 295
-0.081165306 0.65200001 -0.062874533 1.4016622e-38 249 295
-0.080022126 0.65200001 -0.062874533 1.3373774e-38 250 295
-0.078999937 0.653 -0.062970966 1.3558165e-38 251 295
-0.077974238 0.65399998 -0.063067392 1.4477235e-38 252 295
-0.076827556 0.65399998 -0.063067392 1.4845657e-38 253 295
-0.075796597 0.65499997 -0.063163824 1.4201724e-38 254 295
-0.074648157 0.65499997 -0.063163824 1.4017331e-38 255 295
-0.073499724 0.65499997 -0.063163824 1.4109178e-38 256 295
-0.072351299 0.65499997 -0.063163824 1.3832231e-38 257 295
-0.071420282 0.65700001 -0.063356705 1.355637e-38 258 295
-0.07026834 0.65700001 -0.063356705 1.3832957e-38 259 295
-0.069221593 0.65799999 -0.06345313 1.3742563e-38 260 295
-0.068171352 0.65899998 -0.063549563 1.420354e-38 261 295
-0.067015901 0.65899998 -0.063549563 1.4939658e-38 262 295
-0.066060342 0.66100001 -0.063742429 1.4939658e-38 263 295
-0.064999565 0.662 -0.063838862 1.4939292e-38 264 295
-0.063935295 0.66299999 -0.063935295 1.5123323e-38 265 295
-0.062867515 0.66399997 -0.064031735 1.5399194e-38 266 295
-0.061703302 0.66399997 -0.064031735 1.5306998e-38 267 295
-0.060539093 0.66399997 -0.064031735 1.4756345e-38 268 295
-0.059553716 0.66600001 -0.064224601 1.4940377e-38 269 295
-0.058473662 0.667 -0.064321034 1.5215168e-38 270 295
-0.057304189 0.667 -0.064321034 1.5122973e-38 271 295
-0.056218877 0.66799998 -0.064417459 1.4846743e-38 272 295
-0.05504765 0.66799998 -0.064417459 1.4846743e-38 273 295
-0.054037735 0.67000002 -0.064610332 1.4754543e-38 274 295
-0.052941896 0.671 -0.064706765 1.4754543e-38 275 295
-0.051842555 0.67199999 -0.064803198 1.4662348e-38 276 295
-0.050664317 0.67199999 -0.064803198 1.4754543e-38 277 295
-0.049633358 0.67400002 -0.064996064 1.4570877e-38 278 295
-0.048523501 0.67500001 -0.065092497 1.4755266e-38 279 295
-0.047339998 0.67500001 -0.065092497 1.4938936e-38 280 295
-0.046224877 0.676 -0.065188929 1.484674e-38 281 295
-0.045039624 0.676 -0.065188929 1.4755264e-38 282 295
-0.043984115 0.67799997 -0.065381795 1.4571231e-38 283 295
-0.042795356 0.67799997 -0.065381795 1.3560674e-38 284 295
-0.041667968 0.67900002 -0.065478235 1.3375922e-38 285 295
-0.040537067 0.68000001 -0.065574668 1.4109527e-38 286 295
-0.039344799 0.68000001 -0.065574668 1.4109527e-38 287 295
-0.038264744 0.68199998 -0.065767527 1.4200293e-38 288 295
-0.037068974 0.68199998 -0.065767527 1.4200293e-38 289 295
-0.035925802 0.68300003 -0.065863967 1.3926226e-38 290 295
-0.03477912 0.68400002 -0.0659604 1.3926226e-38 291 295
-0.033678025 0.68599999 -0.066153266 1.420209e-38 292 295
-0.032522578 0.68699998 -0.066249698 1.3925863e-38 293 295
-0.031318039 0.68699998 -0.066249698 1.392478e-38 294 295
-0.030157333 0.68800002 -0.066346131 1.392478e-38 295 295
-0.029035198 0.69 -0.066538997 1.4110247e-38 296 295
-0.027865725 0.69099998 -0.06663543 1.4571584e-38 297 295
-0.1180081 0.64099997 -0.062937655 4.3403777e-39 215 296
-0.11633718 0.63800001 -0.062643096 3.9726741e-39 216 296
-0.11521855 0.63800001 -0.062643096 3.511696e-39 217 296
-0.11392108 0.63700002 -0.062544905 3.2315288e-39 218 296
-0.11262712 0.63599998 -0.062446713 1.2032249e-39 219 296
-0.11151199 0.63599998 -0.062446713 8.3481795e-40 220 296
-0.11057046 0.63700002 -0.062544905 1.6645786e-39 221 296
-0.10928176 0.63599998 -0.062446713 5.7009306e-40 222 296
-0.10816664 0.63599998 -0.062446713 1.1232668e-39 223 296
-0.10705151 0.63599998 -0.062446713 1.8575851e-39 224 296
-0.10593639 0.63599998 -0.062446713 1.8575851e-39 225 296
-0.10498609 0.63700002 -0.062544905 1.949059e-39 226 296
-0.10403228 0.63800001 -0.062643096 1.949059e-39 227 296
-0.10291365 0.63800001 -0.062643096 1.7650307e-39 228 296
-0.10179503 0.63800001 -0.062643096 1.7650307e-39 229 296
-0.10099199 0.63999999 -0.062839463 1.6739169e-39 230 296
-0.099869862 0.63999999 -0.062839463 1.7661139e-39 231 296
-0.09874773 0.63999999 -0.062839463 1.9487059e-39 232 296
-0.097778134 0.64099997 -0.062937655 1.9487059e-39 233 296
-0.096654251 0.64099997 -0.062937655 1.6739197e-39 234 296
-0.095679402 0.64200002 -0.063035838 1.7661167e-39 235 296
-0.094701037 0.64300001 -0.063134022 1.3047812e-39 236 296
-0.093573645 0.64300001 -0.063134022 4.7502196e-40 237 296
-0.092877574 0.64600003 -0.063428588 7.2917406e-39 238 296
-0.091744922 0.64600003 -0.063428588 1.1624934e-38 239 296
-0.090752535 0.64700001 -0.063526772 1.3831509e-38 240 296
-0.089756638 0.648 -0.063624963 1.4292488e-38 241 296
-0.088620476 0.648 -0.063624963 1.4846743e-38 242 296
-0.087484315 0.648 -0.063624963 1.4201374e-38 243 296
-0.086481407 0.64899999 -0.063723139 1.4199575e-38 244 296
-0.085343495 0.64899999 -0.063723139 1.429177e-38 245 296
-0.084335327 0.64999998 -0.063821331 1.4291767e-38 246 296
-0.083195657 0.64999998 -0.063821331 1.4291767e-38 247 296
-0.082308479 0.65200001 -0.064017706 1.4291767e-38 248 296
-0.081165306 0.65200001 -0.064017706 1.4291767e-38 249 296
-0.08014486 0.653 -0.064115889 1.3741833e-38 250 296
-0.079120919 0.65399998 -0.064214081 1.3741833e-38 251 296
-0.078093462 0.65499997 -0.064312264 1.3741831e-38 252 296
-0.076945029 0.65499997 -0.064312264 1.3834386e-38 253 296
-0.075796597 0.65499997 -0.064312264 1.3374127e-38 254 296
-0.0748761 0.65700001 -0.064508639 1.3374127e-38 255 296
-0.073724158 0.65700001 -0.064508639 1.4292135e-38 256 296
-0.072572216 0.65700001 -0.064508639 1.4476884e-38 257 296
-0.071420282 0.65700001 -0.064508639 1.4293216e-38 258 296
-0.070375293 0.65799999 -0.064606823 1.4754194e-38 259 296
-0.069326796 0.65899998 -0.064705007 1.5029702e-38 260 296
-0.068171352 0.65899998 -0.064705007 1.5214094e-38 261 296
-0.067219295 0.66100001 -0.064901382 1.5304845e-38 262 296
-0.066160277 0.662 -0.064999565 1.4014106e-38 263 296
-0.06519594 0.66399997 -0.06519594 1.2640159e-38 264 296
-0.064224601 0.66600001 -0.065392323 1.3746505e-38 265 296
-0.063056879 0.66600001 -0.065392323 1.5215522e-38 266 296
-0.061889157 0.66600001 -0.065392323 1.5122967e-38 267 296
-0.060721438 0.66600001 -0.065392323 1.4754911e-38 268 296
-0.059643134 0.667 -0.065490507 1.4754911e-38 269 296
-0.058473662 0.667 -0.065490507 1.4479047e-38 270 296
-0.057304189 0.667 -0.065490507 1.4479047e-38 271 296
-0.056387197 0.67000002 -0.065785065 1.4479403e-38 272 296
-0.055212468 0.67000002 -0.065785065 1.4387206e-38 273 296
-0.054118387 0.671 -0.065883249 1.4479035e-38 274 296
-0.053020798 0.67199999 -0.06598144 1.4571231e-38 275 296
-0.051842555 0.67199999 -0.06598144 1.4755264e-38 276 296
-0.050890498 0.67500001 -0.066275999 1.4847459e-38 277 296
-0.049780637 0.676 -0.066374183 1.4664144e-38 278 296
-0.048595384 0.676 -0.066374183 1.4664144e-38 279 296
-0.047410134 0.676 -0.066374183 1.4847812e-38 280 296
-0.046224877 0.676 -0.066374183 1.447903e-38 281 296
-0.045172878 0.67799997 -0.066570558 1.4293567e-38 282 296
-0.043984115 0.67799997 -0.066570558 1.4477598e-38 283 296
-0.042858478 0.67900002 -0.066668749 1.3559241e-38 284 296
-0.041667968 0.67900002 -0.066668749 1.3559241e-38 285 296
-0.040537067 0.68000001 -0.066766933 1.4016976e-38 286 296
-0.039460517 0.68199998 -0.0669633 1.4016976e-38 287 296
-0.038264744 0.68199998 -0.0669633 1.4016257e-38 288 296
-0.037068974 0.68199998 -0.0669633 1.3924061e-38 289 296
-0.035925802 0.68300003 -0.067061491 1.3649638e-38 290 296
-0.034880809 0.68599999 -0.06735605 1.3465607e-38 291 296
-0.033678025 0.68599999 -0.06735605 1.3281576e-38 292 296
-0.032522578 0.68699998 -0.067454241 1.3097544e-38 293 296
-0.031363625 0.68800002 -0.067552425 1.355672e-38 294 296
-0.030244999 0.69 -0.0677488 1.3648916e-38 295 296
-0.029035198 0.69 -0.0677488 1.4292837e-38 296 296
-0.12156911 0.648 -0.064761117 5.2616347e-39 213 297
-0.12006126 0.64600003 -0.06456124 4.6180407e-39 214 297
-0.1180081 0.64099997 -0.064061537 4.2492582e-39 215 297
-0.11633718 0.63800001 -0.063761719 3.7893563e-39 216 297
-0.11521855 0.63800001 -0.063761719 3.512768e-39 217 297
-0.11392108 0.63700002 -0.063661784 3.3233643e-39 218 297
-0.11280421 0.63700002 -0.063661784 1.2947017e-39 219 297
-0.11168733 0.63700002 -0.063661784 9.2701639e-40 220 297
-0.11057046 0.63700002 -0.063661784 1.7567771e-39 221 297
-0.10945359 0.63700002 -0.063661784 4.7861629e-40 222 297
-0.10833671 0.63700002 -0.063661784 9.3923571e-40 223 297
-0.10721984 0.63700002 -0.063661784 1.7650363e-39 224 297
-0.10610297 0.63700002 -0.063661784 1.7650363e-39 225 297
-0.1051509 0.63800001 -0.063761719 1.8565131e-39 226 297
-0.1043584 0.63999999 -0.063961595 1.8565131e-39 227 297
-0.10323626 0.63999999 -0.063961595 1.8572291e-39 228 297
-0.10211413 0.63999999 -0.063961595 1.8572291e-39 229 297
-0.1011498 0.64099997 -0.064061537 1.8572291e-39 230 297
-0.1000259 0.64099997 -0.064061537 1.8572291e-39 231 297
-0.098902017 0.64099997 -0.064061537 1.8572319e-39 232 297
-0.097930677 0.64200002 -0.064161479 1.7650363e-39 233 297
-0.096955821 0.64300001 -0.064261422 1.5813653e-39 234 297
-0.095828429 0.64300001 -0.064261422 1.7661167e-39 235 297
-0.09484832 0.64399999 -0.064361356 1.121113e-39 236 297
-0.094010234 0.64600003 -0.06456124 1.4765482e-41 237 297
-0.092877574 0.64600003 -0.06456124 7.0144307e-39 238 297
-0.091886938 0.64700001 -0.064661182 1.1439821e-38 239 297
-0.090892799 0.648 -0.064761117 1.373967e-38 240 297
-0.089756638 0.648 -0.064761117 1.4016257e-38 241 297
-0.088620476 0.648 -0.064761117 1.4661995e-38 242 297
-0.08761932 0.64899999 -0.064861059 1.4201018e-38 243 297
-0.086614661 0.64999998 -0.064960994 1.419994e-38 244 297
-0.085474998 0.64999998 -0.064960994 1.419994e-38 245 297
-0.084594823 0.65200001 -0.065160878 1.383331e-38 246 297
-0.083451651 0.65200001 -0.065160878 1.3741115e-38 247 297
-0.082434714 0.653 -0.06526082 1.392478e-38 248 297
-0.081289791 0.653 -0.06526082 1.392478e-38 249 297
-0.080267593 0.65399998 -0.065360755 1.3741468e-38 250 297
-0.079120919 0.65399998 -0.065360755 1.3556718e-38 251 297
-0.078093462 0.65499997 -0.065460697 1.3188661e-38 252 297
-0.076945029 0.65499997 -0.065460697 1.3280857e-38 253 297
-0.075796597 0.65499997 -0.065460697 1.3283376e-38 254 297
-0.0748761 0.65700001 -0.065660581 1.3560323e-38 255 297
-0.073724158 0.65700001 -0.065660581 1.4754911e-38 256 297
-0.072572216 0.65700001 -0.065660581 1.5031856e-38 257 297
-0.071528979 0.65799999 -0.065760516 1.5122967e-38 258 297
-0.070482239 0.65899998 -0.065860458 1.5307717e-38 259 297
-0.069326796 0.65899998 -0.065860458 1.5490308e-38 260 297
-0.068171352 0.65899998 -0.065860458 1.4844938e-38 261 297
-0.067320988 0.662 -0.066160277 1.2820941e-38 262 297
-0.066260219 0.66299999 -0.066260219 1.1161059e-38 263 297
-0.065490507 0.667 -0.06665998 1.1168249e-38 264 297
-0.064321034 0.667 -0.06665998 1.3012162e-38 265 297
-0.063151561 0.667 -0.06665998 1.5215519e-38 266 297
-0.06198208 0.667 -0.06665998 1.4939292e-38 267 297
-0.060812607 0.667 -0.06665998 1.4661995e-38 268 297
-0.059643134 0.667 -0.06665998 1.4569799e-38 269 297
-0.058473662 0.667 -0.06665998 1.4386487e-38 270 297
-0.057561934 0.67000002 -0.066959806 1.4478682e-38 271 297
-0.056471359 0.671 -0.06705974 1.4203891e-38 272 297
-0.055294871 0.671 -0.06705974 1.4388283e-38 273 297
-0.054199036 0.67199999 -0.067159683 1.4571951e-38 274 297
-0.053020798 0.67199999 -0.067159683 1.4664147e-38 275 297
-0.051996857 0.67400002 -0.067359567 1.4939292e-38 276 297
-0.050890498 0.67500001 -0.067459501 1.4939292e-38 277 297
-0.049780637 0.676 -0.067559443 1.5030403e-38 278 297
-0.048595384 0.676 -0.067559443 1.5030403e-38 279 297
-0.047550395 0.67799997 -0.06775932 1.45705e-38 280 297
-0.046361636 0.67799997 -0.06775932 1.4017326e-38 281 297
-0.045172878 0.67799997 -0.06775932 1.3831509e-38 282 297
-0.044048995 0.67900002 -0.067859262 1.4292488e-38 283 297
-0.042921599 0.68000001 -0.067959204 1.3833313e-38 284 297
-0.041729335 0.68000001 -0.067959204 1.3741117e-38 285 297
-0.040656291 0.68199998 -0.068159081 1.3649988e-38 286 297
-0.039460517 0.68199998 -0.068159081 1.3465957e-38 287 297
-0.038320854 0.68300003 -0.068259016 1.3647823e-38 288 297
-0.037123326 0.68300003 -0.068259016 1.374002e-38 289 297
-0.035978399 0.68400002 -0.068358958 1.3464875e-38 290 297
-0.034880809 0.68599999 -0.068558842 1.3372678e-38 291 297
-0.033678025 0.68599999 -0.068558842 1.3371959e-38 292 297
-0.032522578 0.68699998 -0.068658777 1.3464155e-38 293 297
-0.031363625 0.68800002 -0.068758719 1.3924767e-38 294 297
-0.12517922 0.65499997 -0.066609129 5.0768735e-39 211 298
-0.12308399 0.64999998 -0.066100657 5.5378517e-39 212 298
-0.12156911 0.648 -0.065897278 5.5378517e-39 213 298
-0.11968954 0.64399999 -0.065490507 4.8017159e-39 214 298
-0.1181922 0.64200002 -0.065287121 4.3403777e-39 215 298
-0.11670186 0.63999999 -0.065083727 3.6968075e-39 216 298
-0.11521855 0.63800001 -0.064880349 3.5124163e-39 217 298
-0.11409992 0.63800001 -0.064880349 3.0482165e-39 218 298
-0.11280421 0.63700002 -0.064778656 1.2043039e-39 219 298
-0.11168733 0.63700002 -0.064778656 8.3373055e-40 220 298
-0.11057046 0.63700002 -0.064778656 2.0322723e-39 221 298
-0.10945359 0.63700002 -0.064778656 5.7009025e-40 222 298
-0.10833671 0.63700002 -0.064778656 9.3887277e-40 223 298
-0.10721984 0.63700002 -0.064778656 1.7639615e-39 224 298
-0.10626953 0.63800001 -0.064880349 1.7639615e-39 225 298
-0.10548053 0.63999999 -0.065083727 2.0398281e-39 226 298
-0.10452145 0.64099997 -0.06518542 2.1320238e-39 227 298
-0.10339756 0.64099997 -0.06518542 1.9487087e-39 228 298
-0.10227368 0.64099997 -0.06518542 1.8565131e-39 229 298
-0.1013076 0.64200002 -0.065287121 1.9490618e-39 230 298
-0.10018196 0.64200002 -0.065287121 1.8568662e-39 231 298
-0.099056318 0.64200002 -0.065287121 1.7650307e-39 232 298
-0.097930677 0.64200002 -0.065287121 1.6728351e-39 233 298
-0.096955821 0.64300001 -0.065388806 1.6728379e-39 234 298
-0.095828429 0.64300001 -0.065388806 1.8572291e-39 235 298
-0.09484832 0.64399999 -0.065490507 1.4884536e-39 236 298
-0.094010234 0.64600003 -0.065693893 5.6613859e-40 237 298
-0.093021348 0.64700001 -0.065795586 7.2902945e-39 238 298
-0.092028953 0.648 -0.065897278 1.1530933e-38 239 298
-0.091033064 0.64899999 -0.065998971 1.3739667e-38 240 298
-0.089895152 0.64899999 -0.065998971 1.3924058e-38 241 298
-0.088757232 0.64899999 -0.065998971 1.5029332e-38 242 298
-0.087754332 0.64999998 -0.066100657 1.466055e-38 243 298
-0.086614661 0.64999998 -0.066100657 1.410702e-38 244 298
-0.085474998 0.64999998 -0.066100657 1.3830793e-38 245 298
-0.084594823 0.65200001 -0.066304058 1.3371256e-38 246 298
-0.083451651 0.65200001 -0.066304058 1.3371256e-38 247 298
-0.082434714 0.653 -0.066405743 1.3646765e-38 248 298
-0.081289791 0.653 -0.066405743 1.3923711e-38 249 298
-0.080267593 0.65399998 -0.066507436 1.3926226e-38 250 298
-0.079241894 0.65499997 -0.066609129 1.401878e-38 251 298
-0.078093462 0.65499997 -0.066609129 1.4019141e-38 252 298
-0.076945029 0.65499997 -0.066609129 1.4203891e-38 253 298
-0.076028034 0.65700001 -0.066812515 1.4572317e-38 254 298
-0.0748761 0.65700001 -0.066812515 1.4664513e-38 255 298
-0.073836371 0.65799999 -0.066914216 1.4940021e-38 256 298
-0.072682679 0.65799999 -0.066914216 1.475599e-38 257 298
-0.07163769 0.65899998 -0.067015901 1.512297e-38 258 298
-0.070482239 0.65899998 -0.067015901 1.5307361e-38 259 298
-0.0695372 0.66100001 -0.067219295 1.4664147e-38 260 298
-0.068481691 0.662 -0.067320988 1.3189017e-38 261 298
-0.067422673 0.66299999 -0.067422673 1.0432116e-38 262 298
-0.066560037 0.66600001 -0.067727759 9.5098013e-39 263 298
-0.065490507 0.667 -0.067829452 1.1811815e-38 264 298
-0.064321034 0.667 -0.067829452 1.3563891e-38 265 298
-0.063151561 0.667 -0.067829452 1.5307714e-38 266 298
-0.06198208 0.667 -0.067829452 1.4939292e-38 267 298
-0.060903784 0.66799998 -0.067931145 1.4846738e-38 268 298
-0.05973256 0.66799998 -0.067931145 1.4754541e-38 269 298
-0.058824331 0.671 -0.068236224 1.4571228e-38 270 298
-0.057647847 0.671 -0.068236224 1.4755261e-38 271 298
-0.056471359 0.671 -0.068236224 1.4571949e-38 272 298
-0.055377278 0.67199999 -0.068337917 1.4664144e-38 273 298
-0.054199036 0.67199999 -0.068337917 1.484674e-38 274 298
-0.053178601 0.67400002 -0.068541311 1.4662348e-38 275 298
-0.052151144 0.676 -0.068744689 1.4293923e-38 276 298
-0.050965894 0.676 -0.068744689 1.392478e-38 277 298
-0.049927916 0.67799997 -0.068948075 1.4472193e-38 278 298
-0.048739154 0.67799997 -0.068948075 1.474878e-38 279 298
-0.047550395 0.67799997 -0.068948075 1.364855e-38 280 298
-0.046430022 0.67900002 -0.069049768 1.3832581e-38 281 298
-0.045239504 0.67900002 -0.069049768 1.4382884e-38 282 298
-0.044113863 0.68000001 -0.069151461 1.447508e-38 283 298
-0.042921599 0.68000001 -0.069151461 1.3648916e-38 284 298
-0.041852064 0.68199998 -0.069354847 1.3741112e-38 285 298
-0.040656291 0.68199998 -0.069354847 1.3283008e-38 286 298
-0.039460517 0.68199998 -0.069354847 1.2637638e-38 287 298
-0.038320854 0.68300003 -0.069456547 1.2821304e-38 288 298
-0.037123326 0.68300003 -0.069456547 1.3098251e-38 289 298
-0.035978399 0.68400002 -0.06955824 1.3925486e-38 290 298
-0.12498811 0.65399998 -0.067654118 4.7091672e-39 211 299
-0.12308399 0.64999998 -0.067240328 4.4358243e-39 212 299
-0.12156911 0.648 -0.067033432 4.3436273e-39 213 299
-0.11968954 0.64399999 -0.06661965 4.8006369e-39 214 299
-0.1181922 0.64200002 -0.066412762 4.5240501e-39 215 299
-0.1168842 0.64099997 -0.06630931 4.0644984e-39 216 299
-0.11557972 0.63999999 -0.066205859 3.6957145e-39 217 299
-0.11409992 0.63800001 -0.065998971 3.7825348e-39 218 299
-0.1129813 0.63800001 -0.065998971 1.4780041e-39 219 299
-0.11186267 0.63800001 -0.065998971 6.5222456e-40 220 299
-0.11074404 0.63800001 -0.065998971 1.3897896e-39 221 299
-0.10962541 0.63800001 -0.065998971 1.0983798e-40 222 299
-0.10850678 0.63800001 -0.065998971 6.6265302e-40 223 299
-0.10772479 0.63999999 -0.066205859 1.3047784e-39 224 299
-0.10660266 0.63999999 -0.066205859 1.3969741e-39 225 299
-0.10564534 0.64099997 -0.06630931 1.7639615e-39 226 299
-0.10452145 0.64099997 -0.06630931 1.7639615e-39 227 299
-0.10339756 0.64099997 -0.06630931 2.132021e-39 228 299
-0.10243323 0.64200002 -0.066412762 2.132021e-39 229 299
-0.1013076 0.64200002 -0.066412762 2.1316524e-39 230 299
-0.10018196 0.64200002 -0.066412762 2.0394568e-39 231 299
-0.099056318 0.64200002 -0.066412762 1.9479772e-39 232 299
-0.09808322 0.64300001 -0.066516206 1.9479772e-39 233 299
-0.097106606 0.64399999 -0.06661965 1.7650335e-39 234 299
-0.095977463 0.64399999 -0.06661965 1.8572291e-39 235 299
-0.095142886 0.64600003 -0.066826545 1.2133115e-39 236 299
-0.094155751 0.64700001 -0.066929989 1.9879941e-40 237 299
-0.093165122 0.648 -0.067033432 6.5545385e-39 238 299
-0.092028953 0.648 -0.067033432 1.0979927e-38 239 299
-0.091033064 0.64899999 -0.067136884 1.3738947e-38 240 299
-0.089895152 0.64899999 -0.067136884 1.4107729e-38 241 299
-0.088893995 0.64999998 -0.067240328 1.5122236e-38 242 299
-0.087754332 0.64999998 -0.067240328 1.4384669e-38 243 299
-0.086614661 0.64999998 -0.067240328 1.3279408e-38 244 299
-0.085474998 0.64999998 -0.067240328 1.3003181e-38 245 299
-0.084594823 0.65200001 -0.06744723 1.3002477e-38 246 299
-0.083579645 0.653 -0.067550674 1.3463456e-38 247 299
-0.082434714 0.653 -0.067550674 1.3465251e-38 248 299
-0.081414275 0.65399998 -0.067654118 1.4018424e-38 249 299
-0.080390327 0.65499997 -0.067757562 1.4570879e-38 250 299
-0.079241894 0.65499997 -0.067757562 1.4754911e-38 251 299
-0.078331918 0.65700001 -0.067964457 1.4847462e-38 252 299
-0.077179976 0.65700001 -0.067964457 1.5124049e-38 253 299
-0.076143757 0.65799999 -0.068067901 1.4756343e-38 254 299
-0.074990064 0.65799999 -0.068067901 1.4756343e-38 255 299
-0.073836371 0.65799999 -0.068067901 1.4847106e-38 256 299
-0.072682679 0.65799999 -0.068067901 1.4847106e-38 257 299
-0.071855105 0.66100001 -0.068378247 1.4663791e-38 258 299
-0.070696153 0.66100001 -0.068378247 1.5032572e-38 259 299
-0.069642402 0.662 -0.068481691 1.5123676e-38 260 299
-0.068585135 0.66299999 -0.068585135 1.4017329e-38 261 299
-0.067524366 0.66399997 -0.068688579 1.1902199e-38 262 299
-0.06665998 0.667 -0.068998925 1.0795851e-38 263 299
-0.065588683 0.66799998 -0.069102369 1.2731612e-38 264 299
-0.064417459 0.66799998 -0.069102369 1.4390775e-38 265 299
-0.063246235 0.66799998 -0.069102369 1.4847462e-38 266 299
-0.062075011 0.66799998 -0.069102369 1.4755266e-38 267 299
-0.060903784 0.66799998 -0.069102369 1.4662348e-38 268 299
-0.060000818 0.671 -0.069412716 1.4754543e-38 269 299
-0.058911994 0.67199999 -0.069516152 1.4846738e-38 270 299
-0.057733759 0.67199999 -0.069516152 1.5123323e-38 271 299
-0.056555521 0.67199999 -0.069516152 1.5307351e-38 272 299
-0.055377278 0.67199999 -0.069516152 1.5030406e-38 273 299
-0.054360349 0.67400002 -0.069723055 1.4845291e-38 274 299
-0.053257499 0.67500001 -0.069826499 1.4199922e-38 275 299
-0.052151144 0.676 -0.069929942 1.3556355e-38 276 299
-0.050965894 0.676 -0.069929942 1.3187212e-38 277 299
-0.049927916 0.67799997 -0.070136838 1.3460935e-38 278 299
-0.048739154 0.67799997 -0.070136838 1.3921913e-38 279 299
-0.047620531 0.67900002 -0.070240289 1.3371623e-38 280 299
-0.046430022 0.67900002 -0.070240289 1.3463819e-38 281 299
-0.045306131 0.68000001 -0.070343733 1.429177e-38 282 299
-0.044113863 0.68000001 -0.070343733 1.429177e-38 283 299
-0.043047838 0.68199998 -0.070550621 1.3281213e-38 284 299
-0.041852064 0.68199998 -0.070550621 1.3373408e-38 285 299
-0.040656291 0.68199998 -0.070550621 1.3834379e-38 286 299
-0.039518382 0.68300003 -0.070654072 1.3281566e-38 287 299
-0.12498811 0.65399998 -0.068800792 4.3418238e-39 211 300
-0.12346271 0.65200001 -0.068590395 4.6176876e-39 212 300
-0.12156911 0.648 -0.068169601 4.4336565e-39 213 300
-0.1202471 0.64700001 -0.068064399 4.7995621e-39 214 300
-0.1185604 0.64399999 -0.0677488 4.6151695e-39 215 300
-0.11724891 0.64300001 -0.067643598 3.6053378e-39 216 300
-0.11594091 0.64200002 -0.067538396 3.2365538e-39 217 300
-0.11463643 0.64099997 -0.067433193 2.6808759e-39 218 300
-0.11351255 0.64099997 -0.067433193 1.0217147e-39 219 300
-0.11221333 0.63999999 -0.067327991 1.1081608e-39 220 300
-0.11109119 0.63999999 -0.067327991 1.9379229e-39 221 300
-0.10996906 0.63999999 -0.067327991 5.6900845e-40 222 300
-0.109017 0.64099997 -0.067433193 8.4595548e-40 223 300
-0.10789311 0.64099997 -0.067433193 1.3966083e-39 224 300
-0.10676923 0.64099997 -0.067433193 1.3966083e-39 225 300
-0.10564534 0.64099997 -0.067433193 1.8554313e-39 226 300
-0.10468452 0.64200002 -0.067538396 1.9476269e-39 227 300
-0.10355888 0.64200002 -0.067538396 2.1323741e-39 228 300
-0.10243323 0.64200002 -0.067538396 2.1323741e-39 229 300
-0.1013076 0.64200002 -0.067538396 2.1320055e-39 230 300
-0.100338 0.64300001 -0.067643598 2.0398099e-39 231 300
-0.099210612 0.64300001 -0.067643598 1.7650181e-39 232 300
-0.09808322 0.64300001 -0.067643598 1.7650181e-39 233 300
-0.097106606 0.64399999 -0.0677488 1.7653838e-39 234 300
-0.096275538 0.64600003 -0.067959204 1.8575795e-39 235 300
-0.095142886 0.64600003 -0.067959204 1.5795675e-39 236 300
-0.094301276 0.648 -0.068169601 3.81383e-40 237 300
-0.093165122 0.648 -0.068169601 6.0045933e-39 238 300
-0.092170976 0.64899999 -0.068274796 1.0429625e-38 239 300
-0.091033064 0.64899999 -0.068274796 1.4015175e-38 240 300
-0.090033658 0.64999998 -0.068379998 1.429212e-38 241 300
-0.088893995 0.64999998 -0.068379998 1.5122238e-38 242 300
-0.087754332 0.64999998 -0.068379998 1.46609e-38 243 300
-0.086881176 0.65200001 -0.068590395 1.4110245e-38 244 300
-0.085738003 0.65200001 -0.068590395 1.438719e-38 245 300
-0.084724568 0.653 -0.068695597 1.5030053e-38 246 300
-0.083579645 0.653 -0.068695597 1.5214803e-38 247 300
-0.082560956 0.65399998 -0.068800792 1.5214803e-38 248 300
-0.081538759 0.65499997 -0.068905994 1.5214803e-38 249 300
-0.080390327 0.65499997 -0.068905994 1.46645e-38 250 300
-0.079483859 0.65700001 -0.069116399 1.4756696e-38 251 300
-0.078331918 0.65700001 -0.069116399 1.4664863e-38 252 300
-0.077297449 0.65799999 -0.069221593 1.4572667e-38 253 300
-0.076143757 0.65799999 -0.069221593 1.4846743e-38 254 300
-0.074990064 0.65799999 -0.069221593 1.4754548e-38 255 300
-0.073948584 0.65899998 -0.069326796 1.4937504e-38 256 300
-0.072793134 0.65899998 -0.069326796 1.4661276e-38 257 300
-0.071855105 0.66100001 -0.0695372 1.4661992e-38 258 300
-0.070803106 0.662 -0.069642402 1.4846743e-38 259 300
-0.069747597 0.66299999 -0.069747597 1.4940008e-38 260 300
-0.068895474 0.66600001 -0.070063196 1.4847812e-38 261 300
-0.067727759 0.66600001 -0.070063196 1.5120436e-38 262 300
-0.06665998 0.667 -0.070168398 1.4936045e-38 263 300
-0.065588683 0.66799998 -0.070273593 1.4296436e-38 264 300
-0.064417459 0.66799998 -0.070273593 1.4572665e-38 265 300
-0.063435599 0.67000002 -0.070483997 1.4846743e-38 266 300
-0.06226087 0.67000002 -0.070483997 1.4754548e-38 267 300
-0.061086133 0.67000002 -0.070483997 1.4016622e-38 268 300
-0.060090236 0.67199999 -0.070694394 1.3832231e-38 269 300
-0.058911994 0.67199999 -0.070694394 1.4840622e-38 270 300
-0.057733759 0.67199999 -0.070694394 1.4748427e-38 271 300
-0.056723841 0.67400002 -0.070904799 1.401374e-38 272 300
-0.055542093 0.67400002 -0.070904799 1.401374e-38 273 300
-0.054441001 0.67500001 -0.071010001 1.337089e-38 274 300
-0.053257499 0.67500001 -0.071010001 1.337089e-38 275 300
-0.052151144 0.676 -0.071115203 1.3831149e-38 276 300
-0.051116679 0.67799997 -0.0713256 1.3646398e-38 277 300
-0.049927916 0.67799997 -0.0713256 1.3371609e-38 278 300
-0.048739154 0.67799997 -0.0713256 1.3186859e-38 279 300
-0.047620531 0.67900002 -0.071430802 1.3278339e-38 280 300
-0.046498399 0.68000001 -0.071535997 1.3370534e-38 281 300
-0.045306131 0.68000001 -0.071535997 1.3831149e-38 282 300
-0.12346271 0.65200001 -0.069733568 4.249631e-39 212 301
-0.12156911 0.648 -0.069305755 4.249631e-39 213 301
-0.1202471 0.64700001 -0.069198802 4.1567151e-39 214 301
-0.1185604 0.64399999 -0.068877943 4.0645194e-39 215 301
-0.11724891 0.64300001 -0.06877099 3.789006e-39 216 301
-0.11612152 0.64300001 -0.06877099 3.5120603e-39 217 301
-0.11463643 0.64099997 -0.068557084 3.3237244e-39 218 301
-0.11351255 0.64099997 -0.068557084 1.2954206e-39 219 301
-0.11238866 0.64099997 -0.068557084 7.433454e-40 220 301
-0.11126477 0.64099997 -0.068557084 1.2965192e-39 221 301
-0.11014088 0.64099997 -0.068557084 1.7639545e-41 222 301
-0.109017 0.64099997 -0.068557084 5.7081332e-40 223 301
-0.10806144 0.64200002 -0.068664044 1.1207445e-39 224 301
-0.1069358 0.64200002 -0.068664044 1.1207445e-39 225 301
-0.10581017 0.64200002 -0.068664044 1.6721218e-39 226 301
-0.10468452 0.64200002 -0.068664044 1.7643174e-39 227 301
-0.10355888 0.64200002 -0.068664044 2.3156892e-39 228 301
-0.10243323 0.64200002 -0.068664044 2.3156892e-39 229 301
-0.1013076 0.64200002 -0.068664044 2.223125e-39 230 301
-0.100338 0.64300001 -0.06877099 2.3153206e-39 231 301
-0.099210612 0.64300001 -0.06877099 2.0405316e-39 232 301
-0.098235756 0.64399999 -0.068877943 1.9479772e-39 233 301
-0.09740819 0.64600003 -0.069091856 1.7653866e-39 234 301
-0.096275538 0.64600003 -0.069091856 1.8575823e-39 235 301
-0.095290154 0.64700001 -0.069198802 9.3671477e-40 236 301
-0.094301276 0.648 -0.069305755 1.4398342e-41 237 301
-0.093308888 0.64899999 -0.069412716 6.0038745e-39 238 301
-0.092170976 0.64899999 -0.069412716 1.0428906e-38 239 301
-0.091173328 0.64999998 -0.069519661 1.3831865e-38 240 301
-0.090033658 0.64999998 -0.069519661 1.4016257e-38 241 301
-0.089167513 0.65200001 -0.069733568 1.5030406e-38 242 301
-0.088024348 0.65200001 -0.069733568 1.5030406e-38 243 301
-0.086881176 0.65200001 -0.069733568 1.4938209e-38 244 301
-0.085738003 0.65200001 -0.069733568 1.5030406e-38 245 301
-0.084724568 0.653 -0.069840528 1.5121885e-38 246 301
-0.083707638 0.65399998 -0.069947474 1.5121885e-38 247 301
-0.082560956 0.65399998 -0.069947474 1.5030406e-38 248 301
-0.081538759 0.65499997 -0.070054427 1.5030406e-38 249 301
-0.080635801 0.65700001 -0.07026834 1.5122601e-38 250 301
-0.079483859 0.65700001 -0.07026834 1.5122601e-38 251 301
-0.078451142 0.65799999 -0.070375293 1.4570877e-38 252 301
-0.077297449 0.65799999 -0.070375293 1.447868e-38 253 301
-0.076259479 0.65899998 -0.070482239 1.4661997e-38 254 301
-0.075104028 0.65899998 -0.070482239 1.4569443e-38 255 301
-0.074173011 0.66100001 -0.070696153 1.4569799e-38 256 301
-0.073014058 0.66100001 -0.070696153 1.4569799e-38 257 301
-0.071963809 0.662 -0.070803106 1.4386484e-38 258 301
-0.070910059 0.66299999 -0.070910059 1.4570877e-38 259 301
-0.069852799 0.66399997 -0.071017005 1.4754541e-38 260 301
-0.068895474 0.66600001 -0.071230918 1.4754541e-38 261 301
-0.067829452 0.667 -0.071337871 1.4937493e-38 262 301
-0.06665998 0.667 -0.071337871 1.5121885e-38 263 301
-0.065785065 0.67000002 -0.071658738 1.4754911e-38 264 301
-0.064610332 0.67000002 -0.071658738 1.4478682e-38 265 301
-0.063435599 0.67000002 -0.071658738 1.5121535e-38 266 301
-0.06226087 0.67000002 -0.071658738 1.5029339e-38 267 301
-0.061086133 0.67000002 -0.071658738 1.3921913e-38 268 301
-0.060090236 0.67199999 -0.071872637 1.355313e-38 269 301
-0.059087332 0.67400002 -0.07208655 1.428817e-38 270 301
-0.057905588 0.67400002 -0.07208655 1.428817e-38 271 301
-0.056808002 0.67500001 -0.072193496 1.3553483e-38 272 301
-0.0556245 0.67500001 -0.072193496 1.382971e-38 273 301
-0.054521654 0.676 -0.072300449 1.3738601e-38 274 301
-0.053336397 0.676 -0.072300449 1.3646045e-38 275 301
-0.052305438 0.67799997 -0.072514355 1.3463806e-38 276 301
-0.051116679 0.67799997 -0.072514355 1.3463806e-38 277 301
-0.12498811 0.65399998 -0.071094155 4.8009901e-39 211 302
-0.12346271 0.65200001 -0.070876747 4.4322216e-39 212 302
-0.12156911 0.648 -0.070441917 4.3400245e-39 213 302
-0.12043297 0.648 -0.070441917 4.1559962e-39 214 302
-0.1189286 0.64600003 -0.070224509 4.0638006e-39 215 302
-0.11779595 0.64600003 -0.070224509 3.5131449e-39 216 302
-0.1163021 0.64399999 -0.070007093 3.2361979e-39 217 302
-0.11481528 0.64200002 -0.069789678 2.7723527e-39 218 302
-0.11368964 0.64200002 -0.069789678 7.4404885e-40 219 302
-0.11238866 0.64099997 -0.069680966 7.4118039e-40 220 302
-0.11126477 0.64099997 -0.069680966 1.662778e-39 221 302
-0.11014088 0.64099997 -0.069680966 2.0130493e-40 222 302
-0.10918708 0.64200002 -0.069789678 5.7008745e-40 223 302
-0.10806144 0.64200002 -0.069789678 1.1211004e-39 224 302
-0.1069358 0.64200002 -0.069789678 1.3051316e-39 225 302
-0.10581017 0.64200002 -0.069789678 1.672119e-39 226 302
-0.10468452 0.64200002 -0.069789678 1.7643146e-39 227 302
-0.10355888 0.64200002 -0.069789678 2.3149703e-39 228 302
-0.10259279 0.64300001 -0.069898389 2.3149703e-39 229 302
-0.1014654 0.64300001 -0.069898389 2.131658e-39 230 302
-0.10049405 0.64399999 -0.070007093 2.131658e-39 231 302
-0.099364907 0.64399999 -0.070007093 2.0401785e-39 232 302
-0.098540843 0.64600003 -0.070224509 2.1323741e-39 233 302
-0.09740819 0.64600003 -0.070224509 1.67427e-39 234 302
-0.096424565 0.64700001 -0.070333213 1.67427e-39 235 302
-0.095290154 0.64700001 -0.070333213 1.3044127e-39 236 302
-0.094301276 0.648 -0.070441917 1.9806513e-40 237 302
-0.093308888 0.64899999 -0.070550621 6.1864651e-39 238 302
-0.092312992 0.64999998 -0.070659332 1.051966e-38 239 302
-0.091173328 0.64999998 -0.070659332 1.3648553e-38 240 302
-0.090310693 0.65200001 -0.070876747 1.3648553e-38 241 302
-0.089167513 0.65200001 -0.070876747 1.4754541e-38 242 302
-0.088024348 0.65200001 -0.070876747 1.4939292e-38 243 302
-0.086881176 0.65200001 -0.070876747 1.4846738e-38 244 302
-0.085869491 0.653 -0.070985451 1.4846738e-38 245 302
-0.08485432 0.65399998 -0.071094155 1.4938212e-38 246 302
-0.083835632 0.65499997 -0.071202859 1.4938212e-38 247 302
-0.082687192 0.65499997 -0.071202859 1.4662345e-38 248 302
-0.081787735 0.65700001 -0.071420282 1.4570149e-38 249 302
-0.080635801 0.65700001 -0.071420282 1.4752746e-38 250 302
-0.079604842 0.65799999 -0.071528979 1.466055e-38 251 302
-0.078451142 0.65799999 -0.071528979 1.4660194e-38 252 302
-0.077649876 0.66100001 -0.071855105 1.475239e-38 253 302
-0.076490916 0.66100001 -0.071855105 1.4661273e-38 254 302
-0.075331964 0.66100001 -0.071855105 1.4845663e-38 255 302
-0.074173011 0.66100001 -0.071855105 1.43872e-38 256 302
-0.07312452 0.662 -0.071963809 1.43872e-38 257 302
-0.072072513 0.66299999 -0.072072513 1.43872e-38 258 302
-0.071017005 0.66399997 -0.072181225 1.4479754e-38 259 302
-0.070063196 0.66600001 -0.07239864 1.4571228e-38 260 302
-0.068895474 0.66600001 -0.07239864 1.4571228e-38 261 302
-0.067829452 0.667 -0.072507344 1.4569428e-38 262 302
-0.066759922 0.66799998 -0.072616048 1.4569428e-38 263 302
-0.065785065 0.67000002 -0.072833464 1.4385036e-38 264 302
-0.064610332 0.67000002 -0.072833464 1.4016613e-38 265 302
-0.063435599 0.67000002 -0.072833464 1.4382884e-38 266 302
-0.06235379 0.671 -0.072942175 1.447508e-38 267 302
-0.061268479 0.67199999 -0.073050871 1.3737161e-38 268 302
-0.06026908 0.67400002 -0.073268294 1.3829716e-38 269 302
-0.059087332 0.67400002 -0.073268294 1.4013387e-38 270 302
-0.057905588 0.67400002 -0.073268294 1.4013387e-38 271 302
-0.056808002 0.67500001 -0.073376998 1.3922263e-38 272 302
-0.055706903 0.676 -0.073485702 1.3922263e-38 273 302
-0.054521654 0.676 -0.073485702 1.3556358e-38 274 302
-0.053336397 0.676 -0.073485702 1.3371606e-38 275 302
-0.12901728 0.65700001 -0.072572216 1.0418109e-38 208 303
-0.12747608 0.65499997 -0.072351299 7.8366313e-39 209 303
-0.12632765 0.65499997 -0.072351299 4.8002684e-39 210 303
-0.12460589 0.65200001 -0.07201992 4.7080714e-39 211 303
-0.12346271 0.65200001 -0.07201992 4.5240501e-39 212 303
-0.12175673 0.64899999 -0.07168854 4.3396588e-39 213 303
-0.12043297 0.648 -0.071578078 4.1549144e-39 214 303
-0.1189286 0.64600003 -0.071357161 4.1549144e-39 215 303
-0.11779595 0.64600003 -0.071357161 3.6042588e-39 216 303
-0.1163021 0.64399999 -0.071136236 3.235835e-39 217 303
-0.11517295 0.64399999 -0.071136236 2.8634721e-39 218 303
-0.11386672 0.64300001 -0.071025774 6.5113715e-40 219 303
-0.112564 0.64200002 -0.070915326 7.3974546e-40 220 303
-0.11143836 0.64200002 -0.070915326 1.5698649e-39 221 303
-0.11031272 0.64200002 -0.070915326 1.0875337e-40 222 303
-0.10918708 0.64200002 -0.070915326 7.5412278e-40 223 303
-0.10806144 0.64200002 -0.070915326 1.3051316e-39 224 303
-0.1069358 0.64200002 -0.070915326 1.3051316e-39 225 303
-0.10581017 0.64200002 -0.070915326 1.6721162e-39 226 303
-0.10468452 0.64200002 -0.070915326 1.6721162e-39 227 303
-0.10355888 0.64200002 -0.070915326 2.2227719e-39 228 303
-0.10259279 0.64300001 -0.071025774 2.2227719e-39 229 303
-0.10162319 0.64399999 -0.071136236 2.1316552e-39 230 303
-0.10049405 0.64399999 -0.071136236 2.3156863e-39 231 303
-0.099673495 0.64600003 -0.071357161 1.949059e-39 232 303
-0.098540843 0.64600003 -0.071357161 2.1330916e-39 233 303
-0.09740819 0.64600003 -0.071357161 1.949059e-39 234 303
-0.096424565 0.64700001 -0.071467623 1.949059e-39 235 303
-0.095290154 0.64700001 -0.071467623 1.3051316e-39 236 303
-0.094446808 0.64899999 -0.07168854 1.0658837e-40 237 303
-0.093452662 0.64999998 -0.071798995 5.8187587e-39 238 303
-0.092312992 0.64999998 -0.071798995 1.0151952e-38 239 303
-0.091173328 0.64999998 -0.071798995 1.3556358e-38 240 303
-0.090310693 0.65200001 -0.07201992 1.3556358e-38 241 303
-0.089167513 0.65200001 -0.07201992 1.4662345e-38 242 303
-0.088159345 0.653 -0.072130375 1.4846738e-38 243 303
-0.087014422 0.653 -0.072130375 1.4662345e-38 244 303
-0.085869491 0.653 -0.072130375 1.4570149e-38 245 303
-0.08485432 0.65399998 -0.072240837 1.4477598e-38 246 303
-0.083835632 0.65499997 -0.072351299 1.4570152e-38 247 303
-0.082687192 0.65499997 -0.072351299 1.4294288e-38 248 303
-0.081787735 0.65700001 -0.072572216 1.4109897e-38 249 303
-0.080758527 0.65799999 -0.072682679 1.4476882e-38 250 303
-0.079725809 0.65899998 -0.072793134 1.4569077e-38 251 303
-0.078570373 0.65899998 -0.072793134 1.4294286e-38 252 303
-0.077649876 0.66100001 -0.073014058 1.4386481e-38 253 303
-0.076490916 0.66100001 -0.073014058 1.4479754e-38 254 303
-0.075445928 0.662 -0.07312452 1.4479754e-38 255 303
-0.074285224 0.662 -0.07312452 1.4479752e-38 256 303
-0.07312452 0.662 -0.07312452 1.411097e-38 257 303
-0.072072513 0.66299999 -0.073234983 1.4201371e-38 258 303
-0.071017005 0.66399997 -0.07334543 1.4293567e-38 259 303
