# .PCD v.7 - Point Cloud Data file format
FIELDS x y z rgb imX imY
SIZE 4 4 4 4 4 4
TYPE F F F F F F
COUNT 1 1 1 1 1 1
WIDTH 838
HEIGHT 1
VIEWPOINT 0 0 0 1 0 0 0
POINTS 838
DATA ascii
-0.018225901 0.69300002 0.042527102 1.5580654e-38 305 205
-0.017084479 0.69599998 0.042711195 1.6129503e-38 306 205
-0.015864158 0.69599998 0.042711195 1.5668884e-38 307 205
-0.01460176 0.69400001 0.042588469 1.5207908e-38 308 205
-0.013384946 0.69400001 0.042588469 1.5668528e-38 309 205
-0.012378532 0.70599997 0.043324865 1.6407557e-38 310 205
-0.011109119 0.704 0.043202132 1.7052926e-38 311 205
-0.0098747732 0.704 0.043202132 1.6413677e-38 312 205
-0.0086404262 0.704 0.043202132 1.7335274e-38 313 205
-0.0074060797 0.704 0.043202132 1.7980281e-38 314 205
-0.0061717331 0.704 0.043202132 1.6873933e-38 315 205
-0.0048111463 0.68599999 0.042097531 1.6781387e-38 316 205
-0.00360836 0.68599999 0.042097531 1.7979572e-38 317 205
-0.0024055731 0.68599999 0.042097531 1.8622423e-38 318 205
0.012168133 0.69400001 0.042588469 1.5212594e-38 330 205
0.01336566 0.69300002 0.042527102 1.4751616e-38 331 205
0.014580719 0.69300002 0.042527102 1.5670345e-38 332 205
0.015795778 0.69300002 0.042527102 1.8620964e-38 333 205
0.01701084 0.69300002 0.042527102 2.3509881e-38 334 205
0.018225901 0.69300002 0.042527102 2.1849273e-38 335 205
0.01944096 0.69300002 0.042527102 1.5114303e-38 336 205
0.020656019 0.69300002 0.042527102 1.1610869e-38 337 205
-0.026499879 0.68699998 0.040954359 1.6135285e-38 298 206
-0.025258519 0.68599999 0.040894743 1.7610416e-38 299 206
-0.024055731 0.68599999 0.040894743 1.8713527e-38 300 206
-0.022852944 0.68599999 0.040894743 1.8252549e-38 301 206
-0.021650158 0.68599999 0.040894743 1.8526601e-38 302 206
-0.019272638 0.68699998 0.040954359 1.7696481e-38 304 206
-0.018225901 0.69300002 0.041312039 1.7696481e-38 305 206
-0.01701084 0.69300002 0.041312039 1.8063822e-38 306 206
-0.015795778 0.69300002 0.041312039 1.7326257e-38 307 206
-0.014580719 0.69300002 0.041312039 1.7231896e-38 308 206
-0.01336566 0.69300002 0.041312039 1.5941157e-38 309 206
-0.012150601 0.69300002 0.041312039 1.4560032e-38 310 206
-0.010935539 0.69300002 0.041312039 1.4467836e-38 311 206
-0.0096222926 0.68599999 0.040894743 1.3461609e-38 312 206
-0.0083949603 0.68400002 0.040775519 1.4383925e-38 313 206
-0.0071956799 0.68400002 0.040775519 1.6690987e-38 314 206
-0.0060139326 0.68599999 0.040894743 1.8257952e-38 315 206
-0.0048111463 0.68599999 0.040894743 1.8620628e-38 316 206
-0.00360836 0.68599999 0.040894743 1.7975258e-38 317 206
-0.0024055731 0.68599999 0.040894743 1.8530227e-38 318 206
0.01095132 0.69400001 0.041371655 1.2442384e-38 329 206
0.012150601 0.69300002 0.041312039 1.2821641e-38 330 206
0.01336566 0.69300002 0.041312039 1.5771541e-38 331 206
0.014580719 0.69300002 0.041312039 2.2309175e-38 332 206
0.015795778 0.69300002 0.041312039 2.3508078e-38 333 206
0.01701084 0.69300002 0.041312039 2.1759238e-38 334 206
0.018225901 0.69300002 0.041312039 1.4567979e-38 335 206
0.01944096 0.69300002 0.041312039 1.9497401e-39 336 206
0.020656019 0.69300002 0.041312039 4.1624352e-39 337 206
0.021871079 0.69300002 0.041312039 1.0323348e-38 338 206
-0.027704418 0.68699998 0.039749816 1.5857973e-38 297 207
-0.026499879 0.68699998 0.039749816 1.6405758e-38 298 207
-0.025258519 0.68599999 0.039691959 1.7235879e-38 299 207
-0.024055731 0.68599999 0.039691959 1.8248233e-38 300 207
-0.022852944 0.68599999 0.039691959 1.7971644e-38 301 207
-0.021650158 0.68599999 0.039691959 1.7696832e-38 302 207
-0.020447372 0.68599999 0.039691959 1.7881582e-38 303 207
-0.019272638 0.68699998 0.039749816 1.7787585e-38 304 207
-0.0180944 0.68800002 0.039807681 1.6773433e-38 305 207
-0.016888106 0.68800002 0.039807681 1.6313181e-38 306 207
-0.015750192 0.69099998 0.039981257 1.6313181e-38 307 207
-0.014538639 0.69099998 0.039981257 1.612807e-38 308 207
-0.0133078 0.69 0.0399234 1.54827e-38 309 207
-0.012045399 0.68699998 0.039749816 1.4653302e-38 310 207
-0.010840859 0.68699998 0.039749816 1.4377076e-38 311 207
-0.0096222926 0.68599999 0.039691959 1.3733867e-38 312 207
-0.0083949603 0.68400002 0.03957624 1.3826064e-38 313 207
-0.0071956799 0.68400002 0.03957624 1.4753802e-38 314 207
-0.0059964 0.68400002 0.03957624 1.7519671e-38 315 207
-0.0047971201 0.68400002 0.03957624 1.8436962e-38 316 207
-0.00359784 0.68400002 0.03957624 1.7054027e-38 317 207
-0.0023985601 0.68400002 0.03957624 1.7425322e-38 318 207
-0.00119928 0.68400002 0.03957624 1.8808256e-38 319 207
0 0.68599999 0.039691959 1.6869965e-38 320 207
0.0012027866 0.68599999 0.039691959 1.4472877e-38 321 207
0.0024055731 0.68599999 0.039691959 1.5024581e-38 322 207
0.00360836 0.68599999 0.039691959 1.4840549e-38 323 207
0.0048111463 0.68599999 0.039691959 1.4377747e-38 324 207
0.0060139326 0.68599999 0.039691959 1.3271759e-38 325 207
0.0072167199 0.68599999 0.039691959 1.3730564e-38 326 207
0.0084195063 0.68599999 0.039691959 1.3638367e-38 327 207
0.0096363192 0.68699998 0.039749816 1.3825687e-38 328 207
0.010935539 0.69300002 0.04009698 1.5208622e-38 329 207
0.012115533 0.69099998 0.039981257 1.6685967e-38 330 207
0.013327086 0.69099998 0.039981257 2.000501e-38 331 207
0.014580719 0.69300002 0.04009698 2.268153e-38 332 207
0.015795778 0.69300002 0.04009698 2.2773727e-38 333 207
0.01701084 0.69300002 0.04009698 1.8624201e-38 334 207
0.018225901 0.69300002 0.04009698 1.1617333e-38 335 207
0.01944096 0.69300002 0.04009698 1.0274503e-39 336 207
0.020656019 0.69300002 0.04009698 3.7011235e-39 337 207
0.021871079 0.69300002 0.04009698 1.0416276e-38 338 207
-0.028908957 0.68699998 0.038545277 1.2546146e-38 296 208
-0.027704418 0.68699998 0.038545277 1.3191515e-38 297 208
-0.026461305 0.68599999 0.03848917 1.6129897e-38 298 208
-0.025258519 0.68599999 0.03848917 1.6129897e-38 299 208
-0.024055731 0.68599999 0.03848917 1.5852937e-38 300 208
-0.022852944 0.68599999 0.03848917 1.5392319e-38 301 208
-0.021650158 0.68599999 0.03848917 1.5205739e-38 302 208
-0.020447372 0.68599999 0.03848917 1.4929151e-38 303 208
-0.019272638 0.68699998 0.038545277 1.5112813e-38 304 208
-0.018068098 0.68699998 0.038545277 1.4283413e-38 305 208
-0.01686356 0.68699998 0.038545277 1.3913201e-38 306 208
-0.015681813 0.68800002 0.038601387 1.3913201e-38 307 208
-0.014517599 0.69 0.038713597 1.4190161e-38 308 208
-0.013249939 0.68699998 0.038545277 1.5296507e-38 309 208
-0.0119928 0.68400002 0.038376961 1.4930965e-38 310 208
-0.01079352 0.68400002 0.038376961 1.4654379e-38 311 208
-0.0095942402 0.68400002 0.038376961 1.4285944e-38 312 208
-0.0083949603 0.68400002 0.038376961 1.3179955e-38 313 208
-0.0071956799 0.68400002 0.038376961 1.3644911e-38 314 208
-0.0059964 0.68400002 0.038376961 1.5304434e-38 315 208
-0.0047971201 0.68400002 0.038376961 1.6226415e-38 316 208
-0.00359784 0.68400002 0.038376961 1.6687033e-38 317 208
-0.0023985601 0.68400002 0.038376961 1.6779952e-38 318 208
-0.00119928 0.68400002 0.038376961 1.7149093e-38 319 208
0 0.68599999 0.03848917 1.7609347e-38 320 208
0.0012027866 0.68599999 0.03848917 1.7240563e-38 321 208
0.0024055731 0.68599999 0.03848917 1.7423154e-38 322 208
0.00360836 0.68599999 0.03848917 1.7700099e-38 323 208
0.0048111463 0.68599999 0.03848917 1.8252198e-38 324 208
0.0060139326 0.68599999 0.03848917 1.8620979e-38 325 208
0.0072167199 0.68599999 0.03848917 1.8712081e-38 326 208
0.0084195063 0.68599999 0.03848917 1.7605733e-38 327 208
0.0096363192 0.68699998 0.038545277 1.7976311e-38 328 208
0.010840859 0.68699998 0.038545277 1.8898268e-38 329 208
0.012062933 0.68800002 0.038601387 1.9632982e-38 330 208
0.0133078 0.69 0.038713597 1.9356394e-38 331 208
0.014517599 0.69 0.038713597 1.7519336e-38 332 208
0.015750192 0.69099998 0.038769703 1.5583228e-38 333 208
0.016961746 0.69099998 0.038769703 1.364425e-38 334 208
0.018225901 0.69300002 0.03888192 1.0878381e-38 335 208
0.019384852 0.69099998 0.038769703 4.8946332e-39 336 208
0.020596405 0.69099998 0.038769703 6.1853721e-39 337 208
0.021871079 0.69300002 0.03888192 1.0507393e-38 338 208
-0.030113498 0.68699998 0.037340738 1.0880877e-38 295 209
-0.028908957 0.68699998 0.037340738 8.489188e-39 296 209
-0.027664091 0.68599999 0.037286382 8.7657749e-39 297 209
-0.026461305 0.68599999 0.037286382 1.1344359e-38 298 209
-0.025258519 0.68599999 0.037286382 1.2358512e-38 299 209
-0.024055731 0.68599999 0.037286382 1.3740724e-38 300 209
-0.022852944 0.68599999 0.037286382 1.5400245e-38 301 209
-0.021650158 0.68599999 0.037286382 1.7235153e-38 302 209
-0.020447372 0.68599999 0.037286382 1.686637e-38 303 209
-0.019244585 0.68599999 0.037286382 1.659049e-38 304 209
-0.018041799 0.68599999 0.037286382 1.6774522e-38 305 209
-0.016839013 0.68599999 0.037286382 1.6408629e-38 306 209
-0.01559064 0.68400002 0.037177678 1.6685575e-38 307 209
-0.014370319 0.68300003 0.037123326 1.7145844e-38 308 209
-0.013172794 0.68300003 0.037123326 1.7883409e-38 309 209
-0.0119928 0.68400002 0.037177678 1.7609697e-38 310 209
-0.01079352 0.68400002 0.037177678 1.7333109e-38 311 209
-0.0095942402 0.68400002 0.037177678 1.7148347e-38 312 209
-0.0083826864 0.68300003 0.037123326 1.6595173e-38 313 209
-0.0071851597 0.68300003 0.037123326 1.6866004e-38 314 209
-0.0059876335 0.68300003 0.037123326 1.6866004e-38 315 209
-0.0047901068 0.68300003 0.037123326 1.6685219e-38 316 209
-0.0035925799 0.68300003 0.037123326 1.7238393e-38 317 209
-0.0023950534 0.68300003 0.037123326 1.705473e-38 318 209
-0.0011957732 0.68199998 0.037068974 1.705473e-38 319 209
0 0.68199998 0.037068974 1.751715e-38 320 209
0.00119928 0.68400002 0.037177678 1.8254716e-38 321 209
0.0023985601 0.68400002 0.037177678 1.8530949e-38 322 209
0.00359784 0.68400002 0.037177678 1.8530949e-38 323 209
0.0047971201 0.68400002 0.037177678 1.9081249e-38 324 209
0.0059964 0.68400002 0.037177678 1.9173444e-38 325 209
0.0072167199 0.68599999 0.037286382 1.8435851e-38 326 209
0.0084195063 0.68599999 0.037286382 1.6407547e-38 327 209
0.0096222926 0.68599999 0.037286382 1.6040187e-38 328 209
0.010840859 0.68699998 0.037340738 1.640897e-38 329 209
0.012045399 0.68699998 0.037340738 1.5305534e-38 330 209
0.013269227 0.68800002 0.037395094 1.4567969e-38 331 209
0.014475521 0.68800002 0.037395094 1.3650365e-38 332 209
0.015727401 0.69 0.037503798 1.3281581e-38 333 209
0.0169372 0.69 0.037503798 1.1897572e-38 334 209
0.0181733 0.69099998 0.03755815 9.9614636e-39 335 209
0.019384852 0.69099998 0.03755815 6.0913758e-39 336 209
0.020596405 0.69099998 0.03755815 6.7367452e-39 337 209
-0.030069664 0.68599999 0.036083598 9.772371e-39 295 210
-0.02886688 0.68599999 0.036083598 5.7193464e-39 296 210
-0.027664091 0.68599999 0.036083598 5.7193464e-39 297 210
-0.026461305 0.68599999 0.036083598 6.2786187e-39 298 210
-0.025258519 0.68599999 0.036083598 8.5835094e-39 299 210
-0.024055731 0.68599999 0.036083598 1.2171615e-38 300 210
-0.022852944 0.68599999 0.036083598 1.6320777e-38 301 210
-0.02158704 0.68400002 0.035978399 1.8158599e-38 302 210
-0.020387759 0.68400002 0.035978399 1.8158599e-38 303 210
-0.019160427 0.68300003 0.035925802 1.7977425e-38 304 210
-0.017962901 0.68300003 0.035925802 1.8346209e-38 305 210
-0.016765373 0.68300003 0.035925802 1.8530599e-38 306 210
-0.01559064 0.68400002 0.035978399 1.8991578e-38 307 210
-0.014370319 0.68300003 0.035925802 1.9822783e-38 308 210
-0.013172794 0.68300003 0.035925802 2.074474e-38 309 210
-0.011975267 0.68300003 0.035925802 2.0930926e-38 310 210
-0.01077774 0.68300003 0.035925802 2.0930926e-38 311 210
-0.0095802136 0.68300003 0.035925802 2.1205701e-38 312 210
-0.0083826864 0.68300003 0.035925802 2.1205701e-38 313 210
-0.0071851597 0.68300003 0.035925802 2.1198489e-38 314 210
-0.0059876335 0.68300003 0.035925802 1.8893958e-38 315 210
-0.0047901068 0.68300003 0.035925802 1.7606083e-38 316 210
-0.0035925799 0.68300003 0.035925802 1.7329497e-38 317 210
-0.0023915465 0.68199998 0.035873197 1.6960367e-38 318 210
-0.0011957732 0.68199998 0.035873197 1.6960367e-38 319 210
0 0.68199998 0.035873197 1.7330955e-38 320 210
0.0011975267 0.68300003 0.035925802 1.8068879e-38 321 210
0.0023950534 0.68300003 0.035925802 1.7886283e-38 322 210
0.00359784 0.68400002 0.035978399 1.7333109e-38 323 210
0.0047971201 0.68400002 0.035978399 1.7145481e-38 324 210
0.0059964 0.68400002 0.035978399 1.6500111e-38 325 210
0.0072167199 0.68599999 0.036083598 1.502566e-38 326 210
0.0084195063 0.68599999 0.036083598 1.2351986e-38 327 210
0.0096222926 0.68599999 0.036083598 1.1706973e-38 328 210
0.010840859 0.68699998 0.036136195 1.1337832e-38 329 210
0.012045399 0.68699998 0.036136195 9.8685253e-39 330 210
0.013249939 0.68699998 0.036136195 1.0513895e-38 331 210
0.014454478 0.68699998 0.036136195 1.1071054e-38 332 210
0.015681813 0.68800002 0.0361888 1.1624228e-38 333 210
0.016888106 0.68800002 0.0361888 1.1342952e-38 334 210
0.018146999 0.69 0.036293998 9.683432e-39 335 210
0.019356798 0.69 0.036293998 6.8260513e-39 336 210
-0.030069664 0.68599999 0.034880809 1.0415938e-38 295 211
-0.02886688 0.68599999 0.034880809 7.0950782e-39 296 211
-0.027664091 0.68599999 0.034880809 7.1872752e-39 297 211
-0.02638416 0.68400002 0.03477912 6.3643473e-39 298 211
-0.025184879 0.68400002 0.03477912 9.2227706e-39 299 211
-0.0239856 0.68400002 0.03477912 1.1436594e-38 300 211
-0.022786319 0.68400002 0.03477912 1.4110626e-38 301 211
-0.02158704 0.68400002 0.03477912 1.3925541e-38 302 211
-0.020357953 0.68300003 0.034728274 1.3280171e-38 303 211
-0.019132372 0.68199998 0.034677424 1.2819534e-38 304 211
-0.017936599 0.68199998 0.034677424 1.3280153e-38 305 211
-0.016740825 0.68199998 0.034677424 1.3281581e-38 306 211
-0.015567848 0.68300003 0.034728274 1.3465972e-38 307 211
-0.014370319 0.68300003 0.034728274 1.420426e-38 308 211
-0.013172794 0.68300003 0.034728274 1.5310608e-38 309 211
-0.011975267 0.68300003 0.034728274 1.5956333e-38 310 211
-0.01077774 0.68300003 0.034728274 1.6416953e-38 311 211
-0.0095802136 0.68300003 0.034728274 1.7885952e-38 312 211
-0.0083826864 0.68300003 0.034728274 1.8070343e-38 313 211
-0.0071851597 0.68300003 0.034728274 1.8340794e-38 314 211
-0.0059876335 0.68300003 0.034728274 1.6773468e-38 315 211
-0.0047901068 0.68300003 0.034728274 1.5946206e-38 316 211
-0.00358732 0.68199998 0.034677424 1.5577782e-38 317 211
-0.0023915465 0.68199998 0.034677424 1.548343e-38 318 211
-0.0011957732 0.68199998 0.034677424 1.4654028e-38 319 211
0 0.68199998 0.034677424 1.3731716e-38 320 211
0.0011957732 0.68199998 0.034677424 1.3547325e-38 321 211
0.0023950534 0.68300003 0.034728274 1.19861e-38 322 211
0.0035925799 0.68300003 0.034728274 1.051061e-38 323 211
0.0047901068 0.68300003 0.034728274 9.9552755e-39 324 211
0.0059964 0.68400002 0.03477912 1.0139667e-38 325 211
0.0072167199 0.68599999 0.034880809 8.8499817e-39 326 211
0.0084195063 0.68599999 0.034880809 6.8216779e-39 327 211
0.0096222926 0.68599999 0.034880809 7.3716048e-39 328 211
0.010840859 0.68699998 0.034931656 7.4638005e-39 329 211
0.012045399 0.68699998 0.034931656 7.0990453e-39 330 211
0.013249939 0.68699998 0.034931656 9.1273491e-39 331 211
0.014454478 0.68699998 0.034931656 1.0607555e-38 332 211
0.015681813 0.68800002 0.03498251 1.0976337e-38 333 211
0.016888106 0.68800002 0.03498251 1.0605387e-38 334 211
0.018146999 0.69 0.035084199 9.4990394e-39 335 211
0.019356798 0.69 0.035084199 8.3905058e-39 336 211
-0.02886688 0.68599999 0.033678025 7.923041e-39 296 212
-0.027664091 0.68599999 0.033678025 7.370226e-39 297 212
-0.02638416 0.68400002 0.033579841 7.1851284e-39 298 212
-0.025184879 0.68400002 0.033579841 1.1887106e-38 299 212
-0.0239856 0.68400002 0.033579841 1.1625679e-38 300 212
-0.022786319 0.68400002 0.033579841 1.2363244e-38 301 212
-0.02158704 0.68400002 0.033579841 1.2360386e-38 302 212
-0.020357953 0.68300003 0.033530746 1.1715016e-38 303 212
-0.019132372 0.68199998 0.03348165 1.061117e-38 304 212
-0.017936599 0.68199998 0.03348165 1.0057996e-38 305 212
-0.016740825 0.68199998 0.03348165 1.0885944e-38 306 212
-0.015567848 0.68300003 0.033530746 1.0701552e-38 307 212
-0.014370319 0.68300003 0.033530746 1.0149098e-38 308 212
-0.013172794 0.68300003 0.033530746 1.0425684e-38 309 212
-0.011975267 0.68300003 0.033530746 1.05186e-38 310 212
-0.01077774 0.68300003 0.033530746 1.0611155e-38 311 212
-0.0095802136 0.68300003 0.033530746 1.2538621e-38 312 212
-0.0083826864 0.68300003 0.033530746 1.2907764e-38 313 212
-0.0071851597 0.68300003 0.033530746 1.3640264e-38 314 212
-0.005978866 0.68199998 0.03348165 1.2349526e-38 315 212
-0.004783093 0.68199998 0.03348165 1.1981424e-38 316 212
-0.0035767998 0.68000001 0.033383466 1.1889229e-38 317 212
-0.0023845332 0.68000001 0.033383466 1.17016e-38 318 212
-0.0011922666 0.68000001 0.033383466 1.0503057e-38 319 212
0 0.68000001 0.033383466 9.1219345e-39 320 212
0.0011957732 0.68199998 0.03348165 9.3066845e-39 321 212
0.0023915465 0.68199998 0.03348165 8.390489e-39 322 212
0.00358732 0.68199998 0.03348165 7.5603696e-39 323 212
0.0047901068 0.68300003 0.033530746 7.467811e-39 324 212
0.0059876335 0.68300003 0.033530746 7.5600066e-39 325 212
0.0071956799 0.68400002 0.033579841 7.2815994e-39 326 212
0.0083949603 0.68400002 0.033579841 5.7142723e-39 327 212
0.0096222926 0.68599999 0.033678025 6.3567495e-39 328 212
0.010825079 0.68599999 0.033678025 6.4493052e-39 329 212
0.012045399 0.68699998 0.033727121 6.6362482e-39 330 212
0.013249939 0.68699998 0.033727121 8.295771e-39 331 212
0.014454478 0.68699998 0.033727121 9.2217308e-39 332 212
0.015681813 0.68800002 0.033776212 1.0420274e-38 333 212
0.016888106 0.68800002 0.033776212 1.0144776e-38 334 212
0.018146999 0.69 0.0338744 9.4994065e-39 335 212
-0.027664091 0.68599999 0.032475237 8.1038197e-39 297 213
-0.026461305 0.68599999 0.032475237 7.8301419e-39 298 213
-0.025258519 0.68599999 0.032475237 1.3177488e-38 299 213
-0.024055731 0.68599999 0.032475237 1.2085581e-38 300 213
-0.022852944 0.68599999 0.032475237 1.1255821e-38 301 213
-0.02158704 0.68400002 0.032380559 1.0519344e-38 302 213
-0.020357953 0.68300003 0.032333218 1.1164714e-38 303 213
-0.019132372 0.68199998 0.032285877 1.0610451e-38 304 213
-0.017936599 0.68199998 0.032285877 9.411908e-39 305 213
-0.016740825 0.68199998 0.032285877 7.2903071e-39 306 213
-0.015567848 0.68300003 0.032333218 5.6311459e-39 307 213
-0.014370319 0.68300003 0.032333218 5.9898461e-39 308 213
-0.013172794 0.68300003 0.032333218 7.1883879e-39 309 213
-0.011975267 0.68300003 0.032333218 6.9204358e-39 310 213
-0.01077774 0.68300003 0.032333218 7.1970241e-39 311 213
-0.009566186 0.68199998 0.032285877 8.2065027e-39 312 213
-0.0083704125 0.68199998 0.032285877 8.5756453e-39 313 213
-0.00717464 0.68199998 0.032285877 9.0304704e-39 314 213
-0.005978866 0.68199998 0.032285877 7.5549816e-39 315 213
-0.004783093 0.68199998 0.032285877 7.0039209e-39 316 213
-0.0035767998 0.68000001 0.032191198 7.2801477e-39 317 213
-0.0023845332 0.68000001 0.032191198 7.6475051e-39 318 213
-0.0011922666 0.68000001 0.032191198 7.9244507e-39 319 213
0 0.68000001 0.032191198 7.7433217e-39 320 213
0.0011957732 0.68199998 0.032285877 9.0340605e-39 321 213
0.0023915465 0.68199998 0.032285877 8.8532818e-39 322 213
0.00358732 0.68199998 0.032285877 8.4844993e-39 323 213
0.0047901068 0.68300003 0.032333218 8.7585624e-39 324 213
0.0059876335 0.68300003 0.032333218 8.4823357e-39 325 213
0.0071956799 0.68400002 0.032380559 8.5687663e-39 326 213
0.0083949603 0.68400002 0.032380559 8.0155926e-39 327 213
0.0096222926 0.68599999 0.032475237 8.1970944e-39 328 213
0.010825079 0.68599999 0.032475237 8.3814856e-39 329 213
0.012045399 0.68699998 0.032522578 8.4765651e-39 330 213
0.013249939 0.68699998 0.032522578 9.3066845e-39 331 213
0.014454478 0.68699998 0.032522578 8.8496917e-39 332 213
0.015681813 0.68800002 0.032569919 9.5872567e-39 333 213
0.016888106 0.68800002 0.032569919 9.2245979e-39 334 213
-0.026499879 0.68699998 0.031318039 9.7637166e-39 298 214
-0.025258519 0.68599999 0.031272452 1.4189107e-38 299 214
-0.024055731 0.68599999 0.031272452 1.2178494e-38 300 214
-0.022852944 0.68599999 0.031272452 1.1348732e-38 301 214
-0.02158704 0.68400002 0.03118128 1.0429301e-38 302 214
-0.020357953 0.68300003 0.031135695 1.1535647e-38 303 214
-0.019160427 0.68300003 0.031135695 1.0518972e-38 304 214
-0.017936599 0.68199998 0.031090107 8.3988323e-39 305 214
-0.016740825 0.68199998 0.031090107 6.1821463e-39 306 214
-0.015567848 0.68300003 0.031135695 5.4445812e-39 307 214
-0.014370319 0.68300003 0.031135695 6.0859653e-39 308 214
-0.013172794 0.68300003 0.031135695 6.9157246e-39 309 214
-0.011975267 0.68300003 0.031135695 7.7487307e-39 310 214
-0.010761959 0.68199998 0.031090107 8.57849e-39 311 214
-0.009566186 0.68199998 0.031090107 9.0373227e-39 312 214
-0.0083704125 0.68199998 0.031090107 9.4979421e-39 313 214
-0.00717464 0.68199998 0.031090107 9.4957617e-39 314 214
-0.005978866 0.68199998 0.031090107 8.1128273e-39 315 214
-0.0047690663 0.68000001 0.030998932 8.294678e-39 316 214
-0.0035767998 0.68000001 0.030998932 8.2024823e-39 317 214
-0.0023845332 0.68000001 0.030998932 8.2010726e-39 318 214
-0.0011922666 0.68000001 0.030998932 8.5702153e-39 319 214
0 0.68000001 0.030998932 8.9397363e-39 320 214
0.0011922666 0.68000001 0.030998932 9.400713e-39 321 214
0.0023915465 0.68199998 0.031090107 8.9426034e-39 322 214
0.00358732 0.68199998 0.031090107 8.9426034e-39 323 214
0.0047901068 0.68300003 0.031135695 9.4946799e-39 324 214
0.0059876335 0.68300003 0.031135695 8.5730823e-39 325 214
0.0071851597 0.68300003 0.031135695 8.6602305e-39 326 214
0.0083949603 0.68400002 0.03118128 7.6464373e-39 327 214
0.0096222926 0.68599999 0.031272452 8.2900088e-39 328 214
0.010840859 0.68699998 0.031318039 8.5665957e-39 329 214
0.012045399 0.68699998 0.031318039 8.5705656e-39 330 214
0.013249939 0.68699998 0.031318039 9.0315424e-39 331 214
0.014454478 0.68699998 0.031318039 9.2155847e-39 332 214
-0.025258519 0.68599999 0.030069664 1.3910349e-38 299 215
-0.024055731 0.68599999 0.030069664 1.2451121e-38 300 215
-0.022852944 0.68599999 0.030069664 1.4018087e-38 301 215
-0.02158704 0.68400002 0.029982001 1.3559279e-38 302 215
-0.020357953 0.68300003 0.029938167 1.3651475e-38 303 215
-0.019160427 0.68300003 0.029938167 1.0976337e-38 304 215
-0.017936599 0.68199998 0.029894331 7.842046e-39 305 215
-0.016740825 0.68199998 0.029894331 6.7317061e-39 306 215
-0.015567848 0.68300003 0.029938167 7.4692725e-39 307 215
-0.014370319 0.68300003 0.029938167 8.3876191e-39 308 215
-0.013172794 0.68300003 0.029938167 8.8485972e-39 309 215
-0.011975267 0.68300003 0.029938167 8.5770522e-39 310 215
-0.010761959 0.68199998 0.029894331 9.2224216e-39 311 215
-0.009566186 0.68199998 0.029894331 9.6837585e-39 312 215
-0.0083704125 0.68199998 0.029894331 9.7759541e-39 313 215
-0.00717464 0.68199998 0.029894331 9.5900985e-39 314 215
-0.005978866 0.68199998 0.029894331 8.2993597e-39 315 215
-0.0047690663 0.68000001 0.029806666 8.5727068e-39 316 215
-0.0035767998 0.68000001 0.029806666 8.5727068e-39 317 215
-0.0023845332 0.68000001 0.029806666 8.0195596e-39 318 215
-0.0011922666 0.68000001 0.029806666 8.2957864e-39 319 215
0 0.68000001 0.029806666 9.403957e-39 320 215
0.0011922666 0.68000001 0.029806666 1.0325555e-38 321 215
0.0023915465 0.68199998 0.029894331 9.5908833e-39 322 215
0.00358732 0.68199998 0.029894331 9.6834376e-39 323 215
0.0047901068 0.68300003 0.029938167 1.0693248e-38 324 215
0.0059876335 0.68300003 0.029938167 9.3103139e-39 325 215
0.0071851597 0.68300003 0.029938167 8.1113657e-39 326 215
0.0084195063 0.68599999 0.030069664 6.8206269e-39 327 215
0.0096222926 0.68599999 0.030069664 8.4729498e-39 328 215
0.010840859 0.68699998 0.030113498 9.0261235e-39 329 215
0.012045399 0.68699998 0.030113498 9.3055999e-39 330 215
0.013249939 0.68699998 0.030113498 9.4903499e-39 331 215
0.014454478 0.68699998 0.030113498 9.5803917e-39 332 215
-0.024055731 0.68599999 0.02886688 1.1707788e-38 300 216
-0.022852944 0.68599999 0.02886688 1.3275473e-38 301 216
-0.02158704 0.68400002 0.02878272 1.3733591e-38 302 216
-0.020357953 0.68300003 0.028740639 1.3457363e-38 303 216
-0.019160427 0.68300003 0.028740639 1.1245706e-38 304 216
-0.017936599 0.68199998 0.02869856 9.0326508e-39 305 216
-0.016740825 0.68199998 0.02869856 8.5709131e-39 306 216
-0.015567848 0.68300003 0.028740639 8.9396943e-39 307 216
-0.014370319 0.68300003 0.028740639 8.6645493e-39 308 216
-0.013172794 0.68300003 0.028740639 8.9414963e-39 309 216
-0.011975267 0.68300003 0.028740639 8.7603645e-39 310 216
-0.01077774 0.68300003 0.028740639 9.5901252e-39 311 216
-0.009566186 0.68199998 0.02869856 1.0143665e-38 312 216
-0.0083704125 0.68199998 0.02869856 1.0789034e-38 313 216
-0.00717464 0.68199998 0.02869856 1.0420961e-38 314 216
-0.005978866 0.68199998 0.02869856 9.7755912e-39 315 216
-0.0047690663 0.68000001 0.028614398 9.5901224e-39 316 216
-0.0035767998 0.68000001 0.028614398 9.8667078e-39 317 216
-0.0023845332 0.68000001 0.028614398 9.4990211e-39 318 216
-0.0011922666 0.68000001 0.028614398 9.4990211e-39 319 216
0 0.68000001 0.028614398 1.19876e-38 320 216
0.0011922666 0.68000001 0.028614398 1.2540773e-38 321 216
0.0023845332 0.68000001 0.028614398 1.2265278e-38 322 216
0.0035767998 0.68000001 0.028614398 1.2357474e-38 323 216
0.004783093 0.68199998 0.02869856 1.3457688e-38 324 216
0.0059876335 0.68300003 0.028740639 1.1890722e-38 325 216
0.0071851597 0.68300003 0.028740639 1.0871486e-38 326 216
0.0084195063 0.68599999 0.02886688 9.9495316e-39 327 216
0.0096222926 0.68599999 0.02886688 9.6711258e-39 328 216
0.010840859 0.68699998 0.028908957 9.5789302e-39 329 216
0.012045399 0.68699998 0.028908957 9.6700594e-39 330 216
0.013249939 0.68699998 0.028908957 9.5775051e-39 331 216
-0.02158704 0.68400002 0.027583439 1.1790588e-38 302 217
-0.020387759 0.68400002 0.027583439 1.1606197e-38 303 217
-0.019160427 0.68300003 0.027543113 1.1146276e-38 304 217
-0.017936599 0.68199998 0.027502786 1.0500906e-38 305 217
-0.016740825 0.68199998 0.027502786 9.7654766e-39 306 217
-0.015567848 0.68300003 0.027543113 9.673281e-39 307 217
-0.014370319 0.68300003 0.027543113 9.1226436e-39 308 217
-0.013172794 0.68300003 0.027543113 9.3992305e-39 309 217
-0.011975267 0.68300003 0.027543113 9.4928933e-39 310 217
-0.01077774 0.68300003 0.027543113 1.0691436e-38 311 217
-0.009566186 0.68199998 0.027502786 1.0880179e-38 312 217
-0.0083704125 0.68199998 0.027502786 1.2447506e-38 313 217
-0.00717464 0.68199998 0.027502786 1.263299e-38 314 217
-0.005978866 0.68199998 0.027502786 1.2725187e-38 315 217
-0.0047690663 0.68000001 0.027422134 1.3091792e-38 316 217
-0.0035767998 0.68000001 0.027422134 1.2815565e-38 317 217
-0.0023845332 0.68000001 0.027422134 1.2723367e-38 318 217
-0.0011922666 0.68000001 0.027422134 1.2538974e-38 319 217
0 0.68000001 0.027422134 1.4565483e-38 320 217
0.0011922666 0.68000001 0.027422134 1.4749874e-38 321 217
0.0023845332 0.68000001 0.027422134 1.4381812e-38 322 217
0.0035767998 0.68000001 0.027422134 1.4566562e-38 323 217
0.004783093 0.68199998 0.027502786 1.5022476e-38 324 217
0.0059876335 0.68300003 0.027543113 1.327076e-38 325 217
0.0071851597 0.68300003 0.027543113 1.2159704e-38 326 217
0.0084195063 0.68599999 0.027664091 1.1698728e-38 327 217
0.0096363192 0.68699998 0.027704418 1.0868953e-38 328 217
0.010840859 0.68699998 0.027704418 9.5782141e-39 329 217
-0.019160427 0.68300003 0.026345588 1.1136174e-38 304 218
-0.017936599 0.68199998 0.026307013 1.1320924e-38 305 218
-0.016740825 0.68199998 0.026307013 1.0312527e-38 306 218
-0.015567848 0.68300003 0.026345588 1.0312527e-38 307 218
-0.014370319 0.68300003 0.026345588 9.7615236e-39 308 218
-0.013172794 0.68300003 0.026345588 9.7615236e-39 309 218
-0.011975267 0.68300003 0.026345588 9.9477351e-39 310 218
-0.01077774 0.68300003 0.026345588 1.1606898e-38 311 218
-0.009566186 0.68199998 0.026307013 1.2164434e-38 312 218
-0.0083704125 0.68199998 0.026307013 1.3731761e-38 313 218
-0.00717464 0.68199998 0.026307013 1.2261688e-38 314 218
-0.005978866 0.68199998 0.026307013 1.1616319e-38 315 218
-0.0047690663 0.68000001 0.026229866 1.1886766e-38 316 218
-0.0035715401 0.67900002 0.026191294 1.1241756e-38 317 218
-0.0023810267 0.67900002 0.026191294 1.1056273e-38 318 218
-0.0011957732 0.68199998 0.026307013 1.0318708e-38 319 218
0 0.68199998 0.026307013 1.0774644e-38 320 218
0.0011957732 0.68199998 0.026307013 1.022147e-38 321 218
0.0023915465 0.68199998 0.026307013 1.0860356e-38 322 218
0.00358732 0.68199998 0.026307013 1.141353e-38 323 218
0.0047901068 0.68300003 0.026345588 1.1231987e-38 324 218
-0.017936599 0.68199998 0.025111238 1.1319829e-38 305 219
-0.016740825 0.68199998 0.025111238 1.076812e-38 306 219
-0.015567848 0.68300003 0.02514806 1.0860315e-38 307 219
-0.014370319 0.68300003 0.02514806 1.040076e-38 308 219
-0.01319208 0.68400002 0.025184879 9.8475857e-39 309 219
-0.011975267 0.68300003 0.02514806 9.1136234e-39 310 219
-0.01077774 0.68300003 0.02514806 1.0957177e-38 311 219
-0.0095802136 0.68300003 0.02514806 1.1330688e-38 312 219
-0.0083704125 0.68199998 0.025111238 1.1699472e-38 313 219
-0.00717464 0.68199998 0.025111238 1.0505617e-38 314 219
-0.005978866 0.68199998 0.025111238 9.2148784e-39 315 219
-0.0047690663 0.68000001 0.025037598 9.3905957e-39 316 219
-0.0035715401 0.67900002 0.025000781 8.1920525e-39 317 219
-0.0023810267 0.67900002 0.025000781 8.4664533e-39 318 219
-0.0011957732 0.68199998 0.025111238 7.7288897e-39 319 219
0 0.68199998 0.025111238 8.0922856e-39 320 219
0.0011957732 0.68199998 0.025111238 7.6313145e-39 321 219
0.0023915465 0.68199998 0.025111238 8.6404288e-39 322 219
0.00358732 0.68199998 0.025111238 9.1935941e-39 323 219
-0.01439136 0.68400002 0.0239856 1.0400394e-38 308 220
-0.01319208 0.68400002 0.0239856 1.0308198e-38 309 220
-0.0119928 0.68400002 0.0239856 1.0215662e-38 310 220
-0.01077774 0.68300003 0.023950534 1.1045781e-38 311 220
-0.0095802136 0.68300003 0.023950534 1.0683499e-38 312 220
-0.0083826864 0.68300003 0.023950534 1.0868249e-38 313 220
-0.0071851597 0.68300003 0.023950534 9.8537402e-39 314 220
-0.005978866 0.68199998 0.023915464 8.5630014e-39 315 220
-0.004783093 0.68199998 0.023915464 9.7543335e-39 316 220
-0.0035767998 0.68000001 0.023845334 9.5699423e-39 317 220
-0.0023845332 0.68000001 0.023845334 1.0304977e-38 318 220
-0.021776399 0.69 0.019356798 1.187476e-38 302 224
-0.020506985 0.68800002 0.019300694 1.187476e-38 303 224
-0.019300694 0.68800002 0.019300694 1.1598191e-38 304 224
-0.01701084 0.69300002 0.01944096 1.1136158e-38 306 224
-0.015795778 0.69300002 0.01944096 1.1043961e-38 307 224
-0.014580719 0.69300002 0.01944096 1.0859573e-38 308 224
-0.021776399 0.69 0.018146999 1.1876195e-38 302 225
-0.020506985 0.68800002 0.0180944 1.1784001e-38 303 225
-0.019300694 0.68800002 0.0180944 1.1598191e-38 304 225
-0.018146999 0.69 0.018146999 1.1321606e-38 305 225
-0.016961746 0.69099998 0.0181733 1.113688e-38 306 225
-0.015795778 0.69300002 0.018225901 1.0768097e-38 307 225
-0.014580719 0.69300002 0.018225901 1.0859573e-38 308 225
-0.01336566 0.69300002 0.018225901 1.0675183e-38 309 225
-0.012150601 0.69300002 0.018225901 1.0766693e-38 310 225
-0.010935539 0.69300002 0.018225901 1.1688291e-38 311 225
-0.021807959 0.69099998 0.016961746 1.2334655e-38 302 226
-0.020566599 0.69 0.0169372 1.2150267e-38 303 226
-0.019356798 0.69 0.0169372 1.1781135e-38 304 226
-0.018146999 0.69 0.0169372 1.168894e-38 305 226
-0.016961746 0.69099998 0.016961746 1.1412372e-38 306 226
-0.015795778 0.69300002 0.01701084 1.1320175e-38 307 226
-0.014580719 0.69300002 0.01701084 1.1227264e-38 308 226
-0.013327086 0.69099998 0.016961746 1.1227264e-38 309 226
-0.012115533 0.69099998 0.016961746 1.1316955e-38 310 226
-0.010935539 0.69300002 0.01701084 1.1777933e-38 311 226
-0.0097345067 0.69400001 0.017035386 1.1597878e-38 312 226
-0.021807959 0.69099998 0.015750192 1.2243896e-38 302 227
-0.020566599 0.69 0.015727401 1.2151702e-38 303 227
-0.019356798 0.69 0.015727401 1.1600341e-38 304 227
-0.018146999 0.69 0.015727401 1.1415948e-38 305 227
-0.016961746 0.69099998 0.015750192 1.1415242e-38 306 227
-0.015795778 0.69300002 0.015795778 1.104682e-38 307 227
-0.014580719 0.69300002 0.015795778 1.1137936e-38 308 227
-0.013327086 0.69099998 0.015750192 1.1045739e-38 309 227
-0.012115533 0.69099998 0.015750192 1.1319824e-38 310 227
-0.010935539 0.69300002 0.015795778 1.1412378e-38 311 227
-0.0097204801 0.69300002 0.015795778 1.1136174e-38 312 227
-0.019384852 0.69099998 0.014538639 1.2152419e-38 304 228
-0.0181733 0.69099998 0.014538639 1.1968389e-38 305 228
-0.016961746 0.69099998 0.014538639 1.178436e-38 306 228
-0.015795778 0.69300002 0.014580719 1.1507777e-38 307 228
-0.014580719 0.69300002 0.014580719 1.1506343e-38 308 228
-0.013327086 0.69099998 0.014538639 1.1322312e-38 309 228
-0.012115533 0.69099998 0.014538639 1.1229782e-38 310 228
-0.010935539 0.69300002 0.014580719 1.1229782e-38 311 228
-0.0097204801 0.69300002 0.014580719 1.1228009e-38 312 228
-0.0085176928 0.69400001 0.01460176 1.1043258e-38 313 228
-0.01944096 0.69300002 0.01336566 1.1969472e-38 304 229
-0.018225901 0.69300002 0.01336566 1.1969472e-38 305 229
-0.01701084 0.69300002 0.01336566 1.1693611e-38 306 229
-0.015795778 0.69300002 0.01336566 1.1601057e-38 307 229
-0.014580719 0.69300002 0.01336566 1.1416676e-38 308 229
-0.0133078 0.69 0.0133078 1.1232283e-38 309 229
-0.012097999 0.69 0.0133078 1.1231224e-38 310 229
-0.010888199 0.69 0.0133078 1.1231224e-38 311 229
-0.0096924258 0.69099998 0.013327086 1.1045766e-38 312 229
-0.0084686 0.69 0.0133078 1.0953212e-38 313 229
-0.0072587994 0.69 0.0133078 1.113364e-38 314 229
-0.032047424 0.70300001 0.012325933 1.3259471e-38 294 230
-0.030858666 0.704 0.012343466 1.3443861e-38 295 230
-0.029624319 0.704 0.012343466 1.3167632e-38 296 230
-0.028349647 0.70300001 0.012325933 1.3075437e-38 297 230
-0.027117053 0.70300001 0.012325933 1.2981091e-38 298 230
-0.02199732 0.69700003 0.012220734 1.2612321e-38 302 230
-0.01944096 0.69300002 0.012150601 1.2151713e-38 304 230
-0.018225901 0.69300002 0.012150601 1.2151713e-38 305 230
-0.01701084 0.69300002 0.012150601 1.1784735e-38 306 230
-0.015795778 0.69300002 0.012150601 1.1692539e-38 307 230
-0.014580719 0.69300002 0.012150601 1.1416323e-38 308 230
-0.0133078 0.69 0.012097999 1.1324126e-38 309 230
-0.012097999 0.69 0.012097999 1.1323423e-38 310 230
-0.010888199 0.69 0.012097999 1.1231226e-38 311 230
-0.0096783992 0.69 0.012097999 1.1137959e-38 312 230
-0.0084686 0.69 0.012097999 1.0861372e-38 313 230
-0.0072587994 0.69 0.012097999 1.1225836e-38 314 230
0.006119133 0.69800001 0.012238266 1.049511e-38 325 230
0.0073429602 0.69800001 0.012238266 1.0676621e-38 326 230
0.0085667865 0.69800001 0.012238266 1.0400394e-38 327 230
0.0097765867 0.69700003 0.012220734 1.0858854e-38 328 230
0.01099866 0.69700003 0.012220734 1.1043245e-38 329 230
0.012220734 0.69700003 0.012220734 1.0862091e-38 330 230
0.013442807 0.69700003 0.012220734 1.1138678e-38 331 230
0.01466488 0.69700003 0.012220734 1.1231942e-38 332 230
-0.033280019 0.70300001 0.01109334 1.3259477e-38 293 231
-0.032047424 0.70300001 0.01109334 1.326019e-38 294 231
-0.030858666 0.704 0.011109119 1.3167995e-38 295 231
-0.029624319 0.704 0.011109119 1.3167632e-38 296 231
-0.028349647 0.70300001 0.01109334 1.2983243e-38 297 231
-0.027117053 0.70300001 0.01109334 1.2980732e-38 298 231
-0.023219392 0.69700003 0.01099866 1.2887103e-38 301 231
-0.02199732 0.69700003 0.01099866 1.2611602e-38 302 231
-0.020775247 0.69700003 0.01099866 1.2519406e-38 303 231
-0.01944096 0.69300002 0.010935539 1.2150641e-38 304 231
-0.018225901 0.69300002 0.010935539 1.2058445e-38 305 231
-0.01701084 0.69300002 0.010935539 1.1874427e-38 306 231
-0.015818574 0.69400001 0.01095132 1.1874427e-38 307 231
-0.014580719 0.69300002 0.010935539 1.1690407e-38 308 231
-0.0133078 0.69 0.010888199 1.1506015e-38 309 231
-0.012097999 0.69 0.010888199 1.1321993e-38 310 231
-0.010888199 0.69 0.010888199 1.1321993e-38 311 231
-0.0096783992 0.69 0.010888199 1.1229078e-38 312 231
-0.0084686 0.69 0.010888199 1.1044328e-38 313 231
-0.0072693196 0.69099998 0.01090398 1.1316952e-38 314 231
0.0012238267 0.69800001 0.01101444 1.0953921e-38 321 231
0.0024476533 0.69800001 0.01101444 1.1045413e-38 322 231
0.0036714801 0.69800001 0.01101444 1.1413835e-38 323 231
0.0049093333 0.69999999 0.011045999 1.0955728e-38 324 231
0.006119133 0.69800001 0.01101444 1.0771337e-38 325 231
0.0073429602 0.69800001 0.01101444 1.1044317e-38 326 231
0.0085667865 0.69800001 0.01101444 1.0859567e-38 327 231
0.0097765867 0.69700003 0.01099866 1.0858851e-38 328 231
0.01099866 0.69700003 0.01099866 1.0858851e-38 329 231
0.012220734 0.69700003 0.01099866 1.0768471e-38 330 231
0.013442807 0.69700003 0.01099866 1.1137255e-38 331 231
0.01466488 0.69700003 0.01099866 1.104865e-38 332 231
0.015909746 0.69800001 0.01101444 1.0956454e-38 333 231
-0.034512613 0.70300001 0.0098607466 1.3167644e-38 292 232
-0.033280019 0.70300001 0.0098607466 1.3167644e-38 293 232
-0.032047424 0.70300001 0.0098607466 1.3168349e-38 294 232
-0.030814834 0.70300001 0.0098607466 1.3076155e-38 295 232
-0.029582238 0.70300001 0.0098607466 1.316799e-38 296 232
-0.028349647 0.70300001 0.0098607466 1.2891049e-38 297 232
-0.027117053 0.70300001 0.0098607466 1.2888538e-38 298 232
-0.025884461 0.70300001 0.0098607466 1.2703791e-38 299 232
-0.02199732 0.69700003 0.0097765867 1.2519769e-38 302 232
-0.020775247 0.69700003 0.0097765867 1.2243543e-38 303 232
-0.019525118 0.69599998 0.0097625591 1.2149925e-38 304 232
-0.018304799 0.69599998 0.0097625591 1.2057728e-38 305 232
-0.017035386 0.69400001 0.0097345067 1.1782586e-38 306 232
-0.015818574 0.69400001 0.0097345067 1.1782586e-38 307 232
-0.014580719 0.69300002 0.0097204801 1.1597485e-38 308 232
-0.013327086 0.69099998 0.0096924258 1.150529e-38 309 232
-0.012097999 0.69 0.0096783992 1.1411669e-38 310 232
-0.010888199 0.69 0.0096783992 1.1411669e-38 311 232
-0.0096783992 0.69 0.0096783992 1.131912e-38 312 232
-0.0084686 0.69 0.0096783992 1.1226923e-38 313 232
-0.0072587994 0.69 0.0096783992 1.1133646e-38 314 232
-0.0060489997 0.69 0.0096783992 1.1225841e-38 315 232
-0.0012168133 0.69400001 0.0097345067 1.0772391e-38 319 232
0 0.69400001 0.0097345067 1.1137586e-38 320 232
0.0012238267 0.69800001 0.0097906133 1.0860999e-38 321 232
0.0024476533 0.69800001 0.0097906133 1.0953936e-38 322 232
0.0036714801 0.69800001 0.0097906133 1.1414916e-38 323 232
0.0048953067 0.69800001 0.0097906133 1.0864984e-38 324 232
0.0061366665 0.69999999 0.0098186666 1.0864984e-38 325 232
0.0073639993 0.69999999 0.0098186666 1.104576e-38 326 232
0.0085913334 0.69999999 0.0098186666 1.0769172e-38 327 232
0.0097906133 0.69800001 0.0097906133 1.0859201e-38 328 232
0.01101444 0.69800001 0.0097906133 1.0767006e-38 329 232
0.012238266 0.69800001 0.0097906133 1.0858851e-38 330 232
0.013462093 0.69800001 0.0097906133 1.1412025e-38 331 232
0.01468592 0.69800001 0.0097906133 1.1323423e-38 332 232
-0.035643511 0.70099998 0.0086036054 1.142425e-38 291 233
-0.034414422 0.70099998 0.0086036054 1.2984329e-38 292 233
-0.03318534 0.70099998 0.0086036054 1.2984329e-38 293 233
-0.031956252 0.70099998 0.0086036054 1.3076155e-38 294 233
-0.030727165 0.70099998 0.0086036054 1.2891767e-38 295 233
-0.029498078 0.70099998 0.0086036054 1.3166197e-38 296 233
-0.028268991 0.70099998 0.0086036054 1.2981808e-38 297 233
-0.027001332 0.69999999 0.0085913334 1.2980732e-38 298 233
-0.025773998 0.69999999 0.0085913334 1.2796344e-38 299 233
-0.024476532 0.69800001 0.0085667865 1.2704508e-38 300 233
-0.023252707 0.69800001 0.0085667865 1.2612314e-38 301 233
-0.02199732 0.69700003 0.0085545136 1.2701997e-38 302 233
-0.020745439 0.69599998 0.0085422397 1.2609803e-38 303 233
-0.019525118 0.69599998 0.0085422397 1.2150275e-38 304 233
-0.018304799 0.69599998 0.0085422397 1.2150275e-38 305 233
-0.017084479 0.69599998 0.0085422397 1.187513e-38 306 233
-0.015864158 0.69599998 0.0085422397 1.187513e-38 307 233
-0.01460176 0.69400001 0.0085176928 1.187405e-38 308 233
-0.01336566 0.69300002 0.0085054198 1.1597823e-38 309 233
-0.012097999 0.69 0.0084686 1.1597119e-38 310 233
-0.010888199 0.69 0.0084686 1.1504924e-38 311 233
-0.0096783992 0.69 0.0084686 1.1412022e-38 312 233
-0.0084686 0.69 0.0084686 1.1043598e-38 313 233
-0.0072587994 0.69 0.0084686 1.1225836e-38 314 233
-0.0060314666 0.68800002 0.0084440531 1.1225836e-38 315 233
-0.0048251734 0.68800002 0.0084440531 1.0861369e-38 316 233
-0.0036451798 0.69300002 0.0085054198 1.1138315e-38 317 233
-0.00243012 0.69300002 0.0085054198 1.1046835e-38 318 233
-0.0012168133 0.69400001 0.0085176928 1.095464e-38 319 233
0 0.69400001 0.0085176928 1.1136514e-38 320 233
0.0012238267 0.69800001 0.0085667865 1.1136514e-38 321 233
0.0024476533 0.69800001 0.0085667865 1.1046129e-38 322 233
0.0036714801 0.69800001 0.0085667865 1.1691498e-38 323 233
0.0048953067 0.69800001 0.0085667865 1.1049729e-38 324 233
0.0061366665 0.69999999 0.0085913334 1.0957533e-38 325 233
0.0073639993 0.69999999 0.0085913334 1.1139731e-38 326 233
0.0085913334 0.69999999 0.0085913334 1.0586558e-38 327 233
0.0098186666 0.69999999 0.0085913334 1.1135054e-38 328 233
0.011045999 0.69999999 0.0085913334 1.104286e-38 329 233
0.012273333 0.69999999 0.0085913334 1.0675186e-38 330 233
0.013500666 0.69999999 0.0085913334 1.1043608e-38 331 233
-0.035643511 0.70099998 0.0073745195 1.2068207e-38 291 234
-0.034414422 0.70099998 0.0073745195 1.2986515e-38 292 234
-0.03318534 0.70099998 0.0073745195 1.2525537e-38 293 234
-0.031956252 0.70099998 0.0073745195 1.3167997e-38 294 234
-0.030727165 0.70099998 0.0073745195 1.2891769e-38 295 234
-0.029498078 0.70099998 0.0073745195 1.3166556e-38 296 234
-0.028268991 0.70099998 0.0073745195 1.2890332e-38 297 234
-0.027001332 0.69999999 0.0073639993 1.2889973e-38 298 234
-0.025700359 0.69800001 0.0073429602 1.2889973e-38 299 234
-0.024476532 0.69800001 0.0073429602 1.2613754e-38 300 234
-0.023252707 0.69800001 0.0073429602 1.2521557e-38 301 234
-0.02199732 0.69700003 0.00733244 1.2519769e-38 302 234
-0.020745439 0.69599998 0.0073219193 1.2335738e-38 303 234
-0.019525118 0.69599998 0.0073219193 1.2151716e-38 304 234
-0.018304799 0.69599998 0.0073219193 1.2151716e-38 305 234
-0.017084479 0.69599998 0.0073219193 1.178616e-38 306 234
-0.015864158 0.69599998 0.0073219193 1.178616e-38 307 234
-0.01460176 0.69400001 0.0073008798 1.1601765e-38 308 234
-0.01336566 0.69300002 0.0072903596 1.1417735e-38 309 234
-0.012115533 0.69099998 0.0072693196 1.1508147e-38 310 234
-0.01090398 0.69099998 0.0072693196 1.1323397e-38 311 234
-0.0096924258 0.69099998 0.0072693196 1.1229782e-38 312 234
-0.0084686 0.69 0.0072587994 1.1137586e-38 313 234
-0.0072587994 0.69 0.0072587994 1.1043598e-38 314 234
-0.0060314666 0.68800002 0.0072377604 1.1043598e-38 315 234
-0.0048251734 0.68800002 0.0072377604 1.1227982e-38 316 234
-0.0036346598 0.69099998 0.0072693196 1.1412375e-38 317 234
-0.0024231065 0.69099998 0.0072693196 1.1137233e-38 318 234
-0.00121506 0.69300002 0.0072903596 1.1045037e-38 319 234
0 0.69300002 0.0072903596 1.122871e-38 320 234
0.00121506 0.69300002 0.0072903596 1.1320905e-38 321 234
0.0024336267 0.69400001 0.0073008798 1.0862814e-38 322 234
0.0036819996 0.69999999 0.0073639993 1.1323792e-38 323 234
0.0049093333 0.69999999 0.0073639993 1.1050467e-38 324 234
0.0061366665 0.69999999 0.0073639993 1.0866076e-38 325 234
0.0073745195 0.70099998 0.0073745195 1.1231596e-38 326 234
0.0086036054 0.70099998 0.0073745195 1.0862814e-38 327 234
0.0098326923 0.70099998 0.0073745195 1.0952466e-38 328 234
0.011061779 0.70099998 0.0073745195 1.0584044e-38 329 234
0.012290866 0.70099998 0.0073745195 1.0949599e-38 330 234
0.013519952 0.70099998 0.0073745195 1.1226545e-38 331 234
0.014749039 0.70099998 0.0073745195 1.1043964e-38 332 234
-0.035643511 0.70099998 0.0061454331 1.2252957e-38 291 235
-0.034414422 0.70099998 0.0061454331 1.3446054e-38 292 235
-0.03318534 0.70099998 0.0061454331 1.3169107e-38 293 235
-0.031956252 0.70099998 0.0061454331 1.3260912e-38 294 235
-0.030683333 0.69999999 0.0061366665 1.2799934e-38 295 235
-0.029455997 0.69999999 0.0061366665 1.2982526e-38 296 235
-0.028268991 0.70099998 0.0061454331 1.2982526e-38 297 235
-0.027039904 0.70099998 0.0061454331 1.2982526e-38 298 235
-0.025700359 0.69800001 0.006119133 1.2982526e-38 299 235
-0.024476532 0.69800001 0.006119133 1.2798139e-38 300 235
-0.023252707 0.69800001 0.006119133 1.2798139e-38 301 235
-0.02199732 0.69700003 0.0061103669 1.2612321e-38 302 235
-0.020775247 0.69700003 0.0061103669 1.2520125e-38 303 235
-0.019525118 0.69599998 0.0061015999 1.2061671e-38 304 235
-0.018304799 0.69599998 0.0061015999 1.1969117e-38 305 235
-0.017109027 0.69700003 0.0061103669 1.2061665e-38 306 235
-0.015864158 0.69599998 0.0061015999 1.196947e-38 307 235
-0.01460176 0.69400001 0.0060840664 1.1969826e-38 308 235
-0.01336566 0.69300002 0.0060753003 1.1785436e-38 309 235
-0.012115533 0.69099998 0.0060577663 1.1692893e-38 310 235
-0.01090398 0.69099998 0.0060577663 1.1508141e-38 311 235
-0.0096924258 0.69099998 0.0060577663 1.1597838e-38 312 235
-0.0084686 0.69 0.0060489997 1.1321612e-38 313 235
-0.0072587994 0.69 0.0060489997 1.1319103e-38 314 235
-0.0060489997 0.69 0.0060489997 1.1226908e-38 315 235
-0.0048391996 0.69 0.0060489997 1.1043598e-38 316 235
-0.0036346598 0.69099998 0.0060577663 1.1043598e-38 317 235
-0.0024231065 0.69099998 0.0060577663 1.1227279e-38 318 235
-0.00121506 0.69300002 0.0060753003 1.1319476e-38 319 235
0 0.69300002 0.0060753003 1.1046479e-38 320 235
0.00121506 0.69300002 0.0060753003 1.1046479e-38 321 235
0.0024336267 0.69400001 0.0060840664 1.1046132e-38 322 235
0.0036609597 0.69599998 0.0061015999 1.132272e-38 323 235
0.0048812795 0.69599998 0.0061015999 1.0866432e-38 324 235
0.0061629666 0.70300001 0.0061629666 1.0681682e-38 325 235
0.0073745195 0.70099998 0.0061454331 1.1138675e-38 326 235
0.0086036054 0.70099998 0.0061454331 1.0862088e-38 327 235
0.0098326923 0.70099998 0.0061454331 1.095175e-38 328 235
0.011061779 0.70099998 0.0061454331 1.0767359e-38 329 235
0.012290866 0.70099998 0.0061454331 1.076629e-38 330 235
0.013519952 0.70099998 0.0061454331 1.1134712e-38 331 235
0.014791119 0.70300001 0.0061629666 1.0768822e-38 332 235
0.016023712 0.70300001 0.0061629666 1.0953214e-38 333 235
-0.034512613 0.70300001 0.0049303733 1.3537206e-38 292 236
-0.03318534 0.70099998 0.0049163462 1.362976e-38 293 236
-0.031956252 0.70099998 0.0049163462 1.3170553e-38 294 236
-0.030683333 0.69999999 0.0049093333 1.2432988e-38 295 236
-0.029455997 0.69999999 0.0049093333 1.2980732e-38 296 236
-0.028268991 0.70099998 0.0049163462 1.3165123e-38 297 236
-0.027039904 0.70099998 0.0049163462 1.2982886e-38 298 236
-0.025810819 0.70099998 0.0049163462 1.2982886e-38 299 236
-0.024546666 0.69999999 0.0049093333 1.2706316e-38 300 236
-0.023319334 0.69999999 0.0049093333 1.2706316e-38 301 236
-0.02202888 0.69800001 0.0048953067 1.2521218e-38 302 236
-0.020775247 0.69700003 0.0048882933 1.2521218e-38 303 236
-0.019553173 0.69700003 0.0048882933 1.2062045e-38 304 236
-0.018331099 0.69700003 0.0048882933 1.1969848e-38 305 236
-0.017133573 0.69800001 0.0048953067 1.215316e-38 306 236
-0.015864158 0.69599998 0.0048812795 1.2060965e-38 307 236
-0.01460176 0.69400001 0.0048672534 1.187765e-38 308 236
-0.013384946 0.69400001 0.0048672534 1.187765e-38 309 236
-0.012150601 0.69300002 0.00486024 1.1693258e-38 310 236
-0.010935539 0.69300002 0.00486024 1.123228e-38 311 236
-0.0096924258 0.69099998 0.0048462129 1.1322681e-38 312 236
-0.0084686 0.69 0.0048391996 1.1137931e-38 313 236
-0.0072587994 0.69 0.0048391996 1.1502771e-38 314 236
-0.0060489997 0.69 0.0048391996 1.1502771e-38 315 236
-0.0048391996 0.69 0.0048391996 1.1225836e-38 316 236
-0.0036451798 0.69300002 0.00486024 1.1225836e-38 317 236
-0.00243012 0.69300002 0.00486024 1.1042889e-38 318 236
-0.00121506 0.69300002 0.00486024 1.1411672e-38 319 236
0 0.69300002 0.00486024 1.0955728e-38 320 236
0.00121506 0.69300002 0.00486024 1.0863533e-38 321 236
0.0024336267 0.69400001 0.0048672534 1.0768466e-38 322 236
0.0036504399 0.69400001 0.0048672534 1.0860663e-38 323 236
0.0048812795 0.69599998 0.0048812795 1.0770636e-38 324 236
0.0061629666 0.70300001 0.0049303733 1.0770636e-38 325 236
0.0073955595 0.70300001 0.0049303733 1.1044331e-38 326 236
0.0086281532 0.70300001 0.0049303733 1.0860299e-38 327 236
0.0098607466 0.70300001 0.0049303733 1.09514e-38 328 236
