# .PCD v.7 - Point Cloud Data file format
FIELDS x y z rgb imX imY
SIZE 4 4 4 4 4 4
TYPE F F F F F F
COUNT 1 1 1 1 1 1
WIDTH 834
HEIGHT 1
VIEWPOINT 0 0 0 1 0 0 0
POINTS 834
DATA ascii
-0.011835 0.67500001 -0.047339998 1.0234438e-38 310 280
-0.0106515 0.67500001 -0.047339998 1.0142242e-38 311 280
-0.0094820261 0.676 -0.047410134 1.0785071e-38 312 280
-0.0082967728 0.676 -0.047410134 1.060068e-38 313 280
-0.0071325595 0.67799997 -0.047550395 1.0876153e-38 314 280
-0.0059525664 0.67900002 -0.047620531 9.4932184e-39 315 280
-0.0047690663 0.68000001 -0.047690667 8.7531198e-39 316 280
-0.00358732 0.68199998 -0.047830928 8.2921416e-39 317 280
-0.0023915465 0.68199998 -0.047830928 8.0162932e-39 318 280
-0.00119928 0.68400002 -0.0479712 8.2928801e-39 319 280
0 0.68699998 -0.048181597 8.7549317e-39 320 280
0.0012062934 0.68800002 -0.048251733 8.9393229e-39 321 280
0.0024231065 0.69099998 -0.04846213 9.5821546e-39 322 280
0.0036451798 0.69300002 -0.048602402 9.1211764e-39 323 280
0.00486024 0.69300002 -0.048602402 8.1048763e-39 324 280
0.0060840664 0.69400001 -0.048672531 6.8141375e-39 325 280
0.0073219193 0.69599998 -0.048812799 5.0649583e-39 326 280
0.0085422397 0.69599998 -0.048812799 7.4620432e-39 327 280
0.0097765867 0.69700003 -0.048882935 8.4765707e-39 328 280
0.01101444 0.69800001 -0.048953064 9.5825595e-39 329 280
0.012290866 0.70099998 -0.049163464 1.013826e-38 330 280
0.013577812 0.704 -0.049373865 1.0691434e-38 331 280
0.01487528 0.70700002 -0.049584266 1.0140781e-38 332 280
0.01613768 0.708 -0.049654398 9.8638352e-39 333 280
0.017428132 0.70999998 -0.049794663 9.7727185e-39 334 280
0.018672999 0.70999998 -0.049794663 9.6805229e-39 335 280
0.01994592 0.71100003 -0.049864799 9.9560364e-39 336 280
0.021252153 0.713 -0.050005067 9.9560364e-39 337 280
0.022533838 0.71399999 -0.050075196 1.0139346e-38 338 280
0.023852346 0.71600002 -0.050215468 1.0324096e-38 339 280
0.025212931 0.71899998 -0.050425861 1.0322668e-38 340 280
0.026510401 0.72000003 -0.050496001 9.8616884e-39 341 280
0.027849946 0.722 -0.050636265 9.4950737e-39 342 280
0.029156178 0.72299999 -0.050706398 9.402878e-39 343 280
0.030508002 0.72500002 -0.050846666 9.0351717e-39 344 280
0.03186683 0.727 -0.050986931 9.1273674e-39 345 280
0.033187091 0.72799999 -0.051057063 8.9436767e-39 346 280
0.034463517 0.72799999 -0.051057063 8.4826986e-39 347 280
-0.085127831 0.71399999 -0.05132708 1.9542587e-38 252 281
-0.083875954 0.71399999 -0.05132708 1.9542587e-38 253 281
-0.082508355 0.713 -0.051255193 1.7054396e-38 254 281
-0.08125823 0.713 -0.051255193 1.5855853e-38 255 281
-0.079783678 0.71100003 -0.051111419 1.3831881e-38 256 281
-0.078537062 0.71100003 -0.051111419 1.3924076e-38 257 281
-0.077181734 0.70999998 -0.051039528 1.3648934e-38 258 281
-0.07561601 0.70700002 -0.050823875 1.3464903e-38 259 281
-0.074271195 0.70599997 -0.050751984 1.3372352e-38 260 281
-0.072826453 0.704 -0.050608214 1.3280156e-38 261 281
-0.071490414 0.70300001 -0.050536323 1.3280156e-38 262 281
-0.069957994 0.69999999 -0.050320663 1.3095763e-38 263 281
-0.068534292 0.69800001 -0.050176892 1.327871e-38 264 281
-0.067214034 0.69700003 -0.050105009 1.3186514e-38 265 281
-0.065897278 0.69599998 -0.050033119 1.20852e-38 266 281
-0.064491108 0.69400001 -0.049889345 1.1808972e-38 267 281
-0.063183114 0.69300002 -0.049817458 1.1899373e-38 268 281
-0.061699796 0.69 -0.049601797 1.1899373e-38 269 281
-0.060314666 0.68800002 -0.049458027 1.2174164e-38 270 281
-0.059022456 0.68699998 -0.049386136 1.2358195e-38 271 281
-0.057733759 0.68599999 -0.049314249 1.2358198e-38 272 281
-0.056366164 0.68400002 -0.049170479 1.2173808e-38 273 281
-0.055086225 0.68300003 -0.049098592 1.2266727e-38 274 281
-0.053809796 0.68199998 -0.049026705 1.2358923e-38 275 281
-0.052614026 0.68199998 -0.049026705 1.2084137e-38 276 281
-0.051192071 0.67900002 -0.048811045 1.2176332e-38 277 281
-0.050001562 0.67900002 -0.048811045 1.2359644e-38 278 281
-0.048739154 0.67799997 -0.048739154 1.2359644e-38 279 281
-0.047410134 0.676 -0.048595384 1.2176332e-38 280 281
-0.0461565 0.67500001 -0.048523501 1.2176332e-38 281 281
-0.044906374 0.67400002 -0.048451614 1.2267449e-38 282 281
-0.043594878 0.67199999 -0.04830784 1.2359644e-38 283 281
-0.042353518 0.671 -0.048235953 1.2267446e-38 284 281
-0.041177034 0.671 -0.048235953 1.2267446e-38 285 281
-0.039940935 0.67000002 -0.048164066 1.1991582e-38 286 281
-0.038650475 0.66799998 -0.048020288 1.1991582e-38 287 281
-0.037423145 0.667 -0.047948405 1.1991582e-38 288 281
-0.03619932 0.66600001 -0.047876518 1.1991582e-38 289 281
-0.0349264 0.66399997 -0.047732744 1.1991582e-38 290 281
-0.033762183 0.66399997 -0.047732744 1.1991582e-38 291 281
-0.032548878 0.66299999 -0.047660857 1.1991938e-38 292 281
-0.031339079 0.662 -0.047588971 1.1991938e-38 293 281
-0.030178372 0.662 -0.047588971 1.162423e-38 294 281
-0.028973831 0.66100001 -0.047517084 1.1163254e-38 295 281
-0.02781488 0.66100001 -0.047517084 1.1161452e-38 296 281
-0.026655925 0.66100001 -0.047517084 1.0700832e-38 297 281
-0.025535546 0.662 -0.047588971 1.079123e-38 298 281
-0.024374841 0.662 -0.047588971 1.079123e-38 299 281
-0.023214132 0.662 -0.047588971 1.0699394e-38 300 281
-0.022053426 0.662 -0.047588971 1.0699394e-38 301 281
-0.020955838 0.66399997 -0.047732744 1.0607202e-38 302 281
-0.019791625 0.66399997 -0.047732744 1.0330975e-38 303 281
-0.018683519 0.66600001 -0.047876518 1.0146579e-38 304 281
-0.017568398 0.66799998 -0.048020288 9.9618294e-39 305 281
-0.016446266 0.67000002 -0.048164066 9.6859558e-39 306 281
-0.015271533 0.67000002 -0.048164066 9.5937587e-39 307 281
-0.01411784 0.671 -0.048235953 1.0142964e-38 308 281
-0.012960639 0.67199999 -0.04830784 1.0050768e-38 309 281
-0.011835 0.67500001 -0.048523501 1.0508487e-38 310 281
-0.0106515 0.67500001 -0.048523501 1.0416291e-38 311 281
-0.0094820261 0.676 -0.048595384 1.087438e-38 312 281
-0.0083213197 0.67799997 -0.048739154 1.0782185e-38 313 281
-0.0071430802 0.67900002 -0.048811045 1.0782182e-38 314 281
-0.0059613334 0.68000001 -0.048882935 1.0597789e-38 315 281
-0.004783093 0.68199998 -0.049026705 1.0688537e-38 316 281
-0.0035925799 0.68300003 -0.049098592 1.0504506e-38 317 281
-0.0023985601 0.68400002 -0.049170479 9.9545693e-39 318 281
-0.0012027866 0.68599999 -0.049314249 9.9545693e-39 319 281
0 0.68699998 -0.049386136 1.0140386e-38 320 281
0.0012062934 0.68800002 -0.049458027 9.8637987e-39 321 281
0.0024231065 0.69099998 -0.049673684 9.5886328e-39 322 281
0.0036451798 0.69300002 -0.049817458 9.8655784e-39 323 281
0.00486024 0.69300002 -0.049817458 1.105586e-38 324 281
0.0060840664 0.69400001 -0.049889345 9.6729251e-39 325 281
0.0073219193 0.69599998 -0.050033119 7.9240976e-39 326 281
0.0085545136 0.69700003 -0.050105009 7.831902e-39 327 281
0.0097765867 0.69700003 -0.050105009 8.3840037e-39 328 281
0.011045999 0.69999999 -0.050320663 8.8449805e-39 329 281
0.012290866 0.70099998 -0.050392549 8.6649263e-39 330 281
0.013577812 0.704 -0.050608214 9.125903e-39 331 281
0.01487528 0.70700002 -0.050823875 9.9513617e-39 332 281
0.01613768 0.708 -0.050895758 9.9513617e-39 333 281
0.017428132 0.70999998 -0.051039528 9.9513617e-39 334 281
0.0186993 0.71100003 -0.051111419 9.8591647e-39 335 281
0.020002026 0.713 -0.051255193 9.9517176e-39 336 281
0.021281958 0.71399999 -0.05132708 9.9517176e-39 337 281
0.022533838 0.71399999 -0.05132708 9.6762027e-39 338 281
0.02388566 0.71700001 -0.051542737 9.3996158e-39 339 281
0.025212931 0.71899998 -0.05168651 9.1230359e-39 340 281
0.026510401 0.72000003 -0.051758397 8.9382845e-39 341 281
0.02788852 0.72299999 -0.051974058 9.1205304e-39 342 281
0.029156178 0.72299999 -0.051974058 9.0283348e-39 343 281
0.030508002 0.72500002 -0.052117832 9.2127261e-39 344 281
0.03186683 0.727 -0.052261602 9.5815086e-39 345 281
-0.085127831 0.71399999 -0.052578956 1.9633706e-38 252 282
-0.083875954 0.71399999 -0.052578956 1.9725902e-38 253 282
-0.082508355 0.713 -0.052505318 1.6870728e-38 254 282
-0.08125823 0.713 -0.052505318 1.5672185e-38 255 282
-0.080008104 0.713 -0.052505318 1.3923723e-38 256 282
-0.078537062 0.71100003 -0.052358042 1.3923723e-38 257 282
-0.077181734 0.70999998 -0.052284397 1.3740414e-38 258 282
-0.075722955 0.708 -0.052137118 1.3555664e-38 259 282
-0.074376404 0.70700002 -0.05206348 1.3280156e-38 260 282
-0.07303334 0.70599997 -0.051989835 1.3095763e-38 261 282
-0.071490414 0.70300001 -0.051768921 1.3095763e-38 262 282
-0.070057929 0.70099998 -0.051621638 1.318796e-38 263 282
-0.068730667 0.69999999 -0.051547997 1.3188311e-38 264 282
-0.06731046 0.69800001 -0.051400717 1.3188311e-38 265 282
-0.06599196 0.69700003 -0.051327083 1.2636212e-38 266 282
-0.064676955 0.69599998 -0.051253434 1.2636212e-38 267 282
-0.063274294 0.69400001 -0.051106159 1.2359629e-38 268 282
-0.061699796 0.69 -0.050811596 1.2359629e-38 269 282
-0.060314666 0.68800002 -0.050664321 1.2450388e-38 270 282
-0.059022456 0.68699998 -0.050590675 1.2174162e-38 271 282
-0.057733759 0.68599999 -0.050517038 1.2082332e-38 272 282
-0.056366164 0.68400002 -0.050369758 1.1990136e-38 273 282
-0.055086225 0.68300003 -0.05029612 1.1807187e-38 274 282
-0.053888701 0.68300003 -0.05029612 1.1899741e-38 275 282
-0.052614026 0.68199998 -0.050222475 1.1899385e-38 276 282
-0.051267464 0.68000001 -0.050075196 1.1991582e-38 277 282
-0.050001562 0.67900002 -0.050001562 1.2083781e-38 278 282
-0.048739154 0.67799997 -0.049927916 1.2175976e-38 279 282
-0.047410134 0.676 -0.049780637 1.2176332e-38 280 282
-0.0461565 0.67500001 -0.049706999 1.2176332e-38 281 282
-0.044906374 0.67400002 -0.049633358 1.2359642e-38 282 282
-0.043724626 0.67400002 -0.049633358 1.2359642e-38 283 282
-0.042416636 0.67199999 -0.049486078 1.2451118e-38 284 282
-0.041177034 0.671 -0.049412437 1.2358923e-38 285 282
-0.039940935 0.67000002 -0.049338799 1.2267449e-38 286 282
-0.038650475 0.66799998 -0.04919152 1.2175253e-38 287 282
-0.037423145 0.667 -0.049117878 1.1991582e-38 288 282
-0.03619932 0.66600001 -0.04904424 1.1991582e-38 289 282
-0.035031598 0.66600001 -0.04904424 1.1991582e-38 290 282
-0.033762183 0.66399997 -0.048896957 1.1991582e-38 291 282
-0.032548878 0.66299999 -0.048823316 1.1991938e-38 292 282
-0.031339079 0.662 -0.048749682 1.1991938e-38 293 282
-0.030178372 0.662 -0.048749682 1.1899019e-38 294 282
-0.029017664 0.662 -0.048749682 1.1622433e-38 295 282
-0.027856959 0.662 -0.048749682 1.1436599e-38 296 282
-0.026696252 0.662 -0.048749682 1.1159654e-38 297 282
-0.025535546 0.662 -0.048749682 1.0790874e-38 298 282
-0.024374841 0.662 -0.048749682 1.0698678e-38 299 282
-0.023214132 0.662 -0.048749682 1.0331338e-38 300 282
-0.022120051 0.66399997 -0.048896957 1.0331338e-38 301 282
-0.02101896 0.66600001 -0.04904424 1.042317e-38 302 282
-0.019851239 0.66600001 -0.04904424 1.0330975e-38 303 282
-0.018711573 0.667 -0.049117878 1.0238409e-38 304 282
-0.017568398 0.66799998 -0.04919152 1.0053659e-38 305 282
-0.016446266 0.67000002 -0.049338799 1.0050412e-38 306 282
-0.015294326 0.671 -0.049412437 1.0050412e-38 307 282
-0.01411784 0.671 -0.049412437 1.0600337e-38 308 282
-0.012999214 0.67400002 -0.049633358 1.0507781e-38 309 282
-0.011835 0.67500001 -0.049706999 1.0691431e-38 310 282
-0.01066728 0.676 -0.049780637 1.0599235e-38 311 282
-0.0094820261 0.676 -0.049780637 1.0506674e-38 312 282
-0.0083213197 0.67799997 -0.049927916 1.0506674e-38 313 282
-0.0071430802 0.67900002 -0.050001562 1.0873654e-38 314 282
-0.0059613334 0.68000001 -0.050075196 1.096585e-38 315 282
-0.0047901068 0.68300003 -0.05029612 1.0507743e-38 316 282
-0.00359784 0.68400002 -0.050369758 1.032335e-38 317 282
-0.0024055731 0.68599999 -0.050517038 1.0139679e-38 318 282
-0.0012027866 0.68599999 -0.050517038 1.0047484e-38 319 282
0 0.68800002 -0.050664321 1.0139664e-38 320 282
0.0012115532 0.69099998 -0.050885238 9.9552727e-39 321 282
0.0024231065 0.69099998 -0.050885238 1.0414431e-38 322 282
0.0036451798 0.69300002 -0.051032521 1.0414431e-38 323 282
0.00486024 0.69300002 -0.051032521 1.0874701e-38 324 282
0.0060840664 0.69400001 -0.051106159 1.0045301e-38 325 282
0.0073219193 0.69599998 -0.051253434 9.0315241e-39 326 282
0.0085545136 0.69700003 -0.051327083 8.8471329e-39 327 282
0.0097906133 0.69800001 -0.051400717 9.1204884e-39 328 282
0.011045999 0.69999999 -0.051547997 9.1204884e-39 329 282
0.012290866 0.70099998 -0.051621638 8.1128399e-39 330 282
0.013577812 0.704 -0.051842559 8.4819825e-39 331 282
0.01487528 0.70700002 -0.05206348 8.7567926e-39 332 282
0.016183265 0.70999998 -0.052284397 8.7567926e-39 333 282
0.01745268 0.71100003 -0.052358042 8.6642382e-39 334 282
0.018751899 0.713 -0.052505318 8.6642382e-39 335 282
0.020002026 0.713 -0.052505318 8.6645913e-39 336 282
0.021281958 0.71399999 -0.052578956 8.5723957e-39 337 282
0.022596961 0.71600002 -0.052726239 8.2968808e-39 338 282
0.02388566 0.71700001 -0.052799881 8.2968808e-39 339 282
0.025212931 0.71899998 -0.05294716 8.2039691e-39 340 282
0.026510401 0.72000003 -0.053020801 8.1117735e-39 341 282
0.02788852 0.72299999 -0.053241719 8.2950886e-39 342 282
0.029156178 0.72299999 -0.053241719 8.2950886e-39 343 282
-0.085127831 0.71399999 -0.053830836 1.9633706e-38 252 283
-0.083875954 0.71399999 -0.053830836 1.9725902e-38 253 283
-0.082624078 0.71399999 -0.053830836 1.6962924e-38 254 283
-0.081372194 0.71399999 -0.053830836 1.5856216e-38 255 283
-0.080008104 0.713 -0.053755447 1.3924079e-38 256 283
-0.078757972 0.713 -0.053755447 1.3924079e-38 257 283
-0.077290438 0.71100003 -0.053604662 1.3648215e-38 258 283
-0.075722955 0.708 -0.053378478 1.355602e-38 259 283
-0.074376404 0.70700002 -0.053303085 1.3188313e-38 260 283
-0.07303334 0.70599997 -0.053227689 1.2358193e-38 261 283
-0.071490414 0.70300001 -0.053001512 1.2082332e-38 262 283
-0.070057929 0.70099998 -0.052850723 1.2727701e-38 263 283
-0.068730667 0.69999999 -0.052775331 1.2636231e-38 264 283
-0.06731046 0.69800001 -0.052624546 1.2636231e-38 265 283
-0.06599196 0.69700003 -0.052549154 1.2452912e-38 266 283
-0.064676955 0.69599998 -0.052473757 1.2452912e-38 267 283
-0.063456632 0.69599998 -0.052473757 1.2452546e-38 268 283
-0.061789215 0.69099998 -0.052096792 1.2452546e-38 269 283
-0.060489997 0.69 -0.052021399 1.263514e-38 270 283
-0.059108373 0.68800002 -0.051870614 1.2450388e-38 271 283
-0.057817914 0.68699998 -0.051795214 1.2358195e-38 272 283
-0.056530971 0.68599999 -0.051719822 1.2081969e-38 273 283
-0.055166878 0.68400002 -0.051569041 1.2082332e-38 274 283
-0.053888701 0.68300003 -0.051493648 1.1990136e-38 275 283
-0.052614026 0.68199998 -0.051418249 1.1898666e-38 276 283
-0.051267464 0.68000001 -0.051267464 1.1990862e-38 277 283
-0.050001562 0.67900002 -0.051192071 1.2267093e-38 278 283
-0.048739154 0.67799997 -0.051116679 1.2267093e-38 279 283
-0.047410134 0.676 -0.050965894 1.2176332e-38 280 283
-0.0461565 0.67500001 -0.050890498 1.2176332e-38 281 283
-0.044906374 0.67400002 -0.050815105 1.2176332e-38 282 283
-0.043724626 0.67400002 -0.050815105 1.2176332e-38 283 283
-0.042416636 0.67199999 -0.050664317 1.2359644e-38 284 283
-0.041177034 0.671 -0.050588924 1.2267449e-38 285 283
-0.039940935 0.67000002 -0.050513536 1.1991582e-38 286 283
-0.038650475 0.66799998 -0.050362743 1.1991582e-38 287 283
-0.037479252 0.66799998 -0.050362743 1.1991582e-38 288 283
-0.036253672 0.667 -0.050287351 1.1991582e-38 289 283
-0.035031598 0.66600001 -0.050211959 1.1991582e-38 290 283
-0.033762183 0.66399997 -0.05006117 1.1991582e-38 291 283
-0.03259797 0.66399997 -0.05006117 1.1991582e-38 292 283
-0.031386416 0.66299999 -0.049985778 1.1991582e-38 293 283
-0.030178372 0.662 -0.049910385 1.1899741e-38 294 283
-0.029017664 0.662 -0.049910385 1.153096e-38 295 283
-0.027856959 0.662 -0.049910385 1.1528439e-38 296 283
-0.026696252 0.662 -0.049910385 1.1159657e-38 297 283
-0.025535546 0.662 -0.049910385 1.06994e-38 298 283
-0.024374841 0.662 -0.049910385 1.0422815e-38 299 283
-0.0232492 0.66299999 -0.049985778 1.0239142e-38 300 283
-0.022120051 0.66399997 -0.05006117 1.005511e-38 301 283
-0.02101896 0.66600001 -0.050211959 1.0330972e-38 302 283
-0.019851239 0.66600001 -0.050211959 1.0238775e-38 303 283
-0.018711573 0.667 -0.050287351 1.0330229e-38 304 283
-0.017568398 0.66799998 -0.050362743 9.9614468e-39 305 283
-0.016446266 0.67000002 -0.050513536 1.0140428e-38 306 283
-0.015294326 0.671 -0.050588924 1.0232623e-38 307 283
-0.01413888 0.67199999 -0.050664317 1.078255e-38 308 283
-0.0130185 0.67500001 -0.050890498 1.078255e-38 309 283
-0.011835 0.67500001 -0.050890498 1.0691058e-38 310 283
-0.01066728 0.676 -0.050965894 1.0691058e-38 311 283
-0.0095100794 0.67799997 -0.051116679 1.0507374e-38 312 283
-0.0083335936 0.67900002 -0.051192071 1.0415177e-38 313 283
-0.0071535995 0.68000001 -0.051267464 1.069069e-38 314 283
-0.005978866 0.68199998 -0.051418249 1.0598493e-38 315 283
-0.0047971201 0.68400002 -0.051569041 1.0415191e-38 316 283
-0.00360836 0.68599999 -0.051719822 1.0322994e-38 317 283
-0.0024055731 0.68599999 -0.051719822 9.9563699e-39 318 283
-0.0012045399 0.68699998 -0.051795214 9.8641743e-39 319 283
0 0.69 -0.052021399 1.0139316e-38 320 283
0.0012115532 0.69099998 -0.052096792 9.9549252e-39 321 283
0.0024231065 0.69099998 -0.052096792 1.0228988e-38 322 283
0.0036451798 0.69300002 -0.05224758 1.0228988e-38 323 283
0.00486024 0.69300002 -0.05224758 1.0228986e-38 324 283
0.0060840664 0.69400001 -0.052322973 1.0044953e-38 325 283
0.0073219193 0.69599998 -0.052473757 9.7708814e-39 326 283
0.0085545136 0.69700003 -0.052549154 9.4942946e-39 327 283
0.0098186666 0.69999999 -0.052775331 9.583263e-39 328 283
0.011061779 0.70099998 -0.052850723 9.3992305e-39 329 283
0.012325933 0.70300001 -0.053001512 8.4819825e-39 330 283
0.013577812 0.704 -0.053076904 8.7582093e-39 331 283
0.01487528 0.70700002 -0.053303085 8.392319e-39 332 283
0.016183265 0.70999998 -0.053529263 8.392319e-39 333 283
0.01745268 0.71100003 -0.053604662 8.5763488e-39 334 283
0.018751899 0.713 -0.053755447 8.5763488e-39 335 283
0.020030079 0.71399999 -0.053830836 8.3926722e-39 336 283
0.021341572 0.71600002 -0.053981625 8.3926722e-39 337 283
0.022596961 0.71600002 -0.053981625 8.3923162e-39 338 283
0.023952285 0.71899998 -0.054207806 8.5770676e-39 339 283
0.025248 0.72000003 -0.054283202 8.301201e-39 340 283
0.026584039 0.722 -0.054433983 8.3933966e-39 341 283
-0.085127831 0.71399999 -0.05508272 1.9542587e-38 252 284
-0.083875954 0.71399999 -0.05508272 1.9726618e-38 253 284
-0.082624078 0.71399999 -0.05508272 1.7239507e-38 254 284
-0.08125823 0.713 -0.055005573 1.5948768e-38 255 284
-0.080008104 0.713 -0.055005573 1.3740764e-38 256 284
-0.078757972 0.713 -0.055005573 1.3740764e-38 257 284
-0.077290438 0.71100003 -0.054851279 1.34649e-38 258 284
-0.075936861 0.70999998 -0.054774132 1.34649e-38 259 284
-0.074481599 0.708 -0.054619838 1.3188311e-38 260 284
-0.073136792 0.70700002 -0.054542694 1.2174517e-38 261 284
-0.071592107 0.704 -0.054311249 1.116397e-38 262 284
-0.070257813 0.70300001 -0.054234106 1.1717142e-38 263 284
-0.068828844 0.70099998 -0.054079808 1.2542238e-38 264 284
-0.067503333 0.69999999 -0.054002665 1.2634433e-38 265 284
-0.066086642 0.69800001 -0.053848371 1.2910297e-38 266 284
-0.064769886 0.69700003 -0.053771228 1.3094689e-38 267 284
-0.063456632 0.69599998 -0.053694077 1.3003565e-38 268 284
-0.061789215 0.69099998 -0.053308345 1.3003565e-38 269 284
-0.060577665 0.69099998 -0.053308345 1.2728054e-38 270 284
-0.059280202 0.69 -0.053231198 1.2451827e-38 271 284
-0.057902083 0.68800002 -0.053076908 1.2542588e-38 272 284
-0.056613375 0.68699998 -0.052999757 1.2358195e-38 273 284
-0.055328183 0.68599999 -0.05292261 1.1991215e-38 274 284
-0.053967599 0.68400002 -0.05276832 1.1899019e-38 275 284
-0.052691177 0.68300003 -0.052691177 1.1991218e-38 276 284
-0.051418249 0.68199998 -0.052614026 1.1991218e-38 277 284
-0.050075196 0.68000001 -0.052459732 1.2176332e-38 278 284
-0.048811045 0.67900002 -0.052382588 1.2176332e-38 279 284
-0.047550395 0.67799997 -0.052305438 1.245184e-38 280 284
-0.046224877 0.676 -0.052151144 1.2359644e-38 281 284
-0.044972997 0.67500001 -0.052074 1.2176332e-38 282 284
-0.043789499 0.67500001 -0.052074 1.2176332e-38 283 284
-0.042416636 0.67199999 -0.051842555 1.2084137e-38 284 284
-0.041238401 0.67199999 -0.051842555 1.2084137e-38 285 284
-0.040000543 0.671 -0.051765412 1.2267446e-38 286 284
-0.038766202 0.67000002 -0.051688269 1.2267446e-38 287 284
-0.037479252 0.66799998 -0.051533967 1.1991582e-38 288 284
-0.036253672 0.667 -0.051456824 1.1991582e-38 289 284
-0.035031598 0.66600001 -0.051379681 1.1991582e-38 290 284
-0.03386388 0.66600001 -0.051379681 1.1991582e-38 291 284
-0.03259797 0.66399997 -0.051225383 1.2175253e-38 292 284
-0.031386416 0.66299999 -0.051148236 1.2175253e-38 293 284
-0.030223956 0.66299999 -0.051148236 1.1807187e-38 294 284
-0.029017664 0.662 -0.051071092 1.1438764e-38 295 284
-0.027856959 0.662 -0.051071092 1.1436246e-38 296 284
-0.026696252 0.662 -0.051071092 1.1067104e-38 297 284
-0.025535546 0.662 -0.051071092 1.0423533e-38 298 284
-0.024411658 0.66299999 -0.051148236 1.005511e-38 299 284
-0.023284266 0.66399997 -0.051225383 1.0146223e-38 300 284
-0.02218668 0.66600001 -0.051379681 1.0054028e-38 301 284
-0.02101896 0.66600001 -0.051379681 1.0146574e-38 302 284
-0.019851239 0.66600001 -0.051379681 1.0054378e-38 303 284
-0.018711573 0.667 -0.051456824 1.0329861e-38 304 284
-0.017568398 0.66799998 -0.051533967 1.0052914e-38 305 284
-0.016470812 0.671 -0.051765412 1.0509559e-38 306 284
-0.015294326 0.671 -0.051765412 1.0232974e-38 307 284
-0.01413888 0.67199999 -0.051842555 1.041592e-38 308 284
-0.0130185 0.67500001 -0.052074 1.0231529e-38 309 284
-0.011835 0.67500001 -0.052074 1.0414827e-38 310 284
-0.01066728 0.676 -0.052151144 1.0507024e-38 311 284
-0.009524107 0.67900002 -0.052382588 1.0324784e-38 312 284
-0.0083335936 0.67900002 -0.052382588 1.023223e-38 313 284
-0.0071535995 0.68000001 -0.052459732 1.0323348e-38 314 284
-0.0059876335 0.68300003 -0.052691177 1.0139316e-38 315 284
-0.0047971201 0.68400002 -0.05276832 1.0322278e-38 316 284
-0.00360836 0.68599999 -0.05292261 1.0230083e-38 317 284
-0.0024055731 0.68599999 -0.05292261 1.0321557e-38 318 284
-0.0012045399 0.68699998 -0.052999757 1.0321557e-38 319 284
0 0.69 -0.053231198 1.0230077e-38 320 284
0.0012115532 0.69099998 -0.053308345 9.8616548e-39 321 284
0.0024231065 0.69099998 -0.053308345 1.0045323e-38 322 284
0.0036451798 0.69300002 -0.053462639 9.9527672e-39 323 284
0.00486024 0.69300002 -0.053462639 9.9534762e-39 324 284
0.0060840664 0.69400001 -0.053539783 1.0045673e-38 325 284
0.0073219193 0.69599998 -0.053694077 1.0046389e-38 326 284
0.0085545136 0.69700003 -0.053771228 9.7701612e-39 327 284
0.0098186666 0.69999999 -0.054002665 9.6772565e-39 328 284
0.011061779 0.70099998 -0.054079808 9.5850609e-39 329 284
0.012325933 0.70300001 -0.054234106 8.7578436e-39 330 284
0.013577812 0.704 -0.054311249 8.8500392e-39 331 284
0.01489632 0.708 -0.054619838 8.9465704e-39 332 284
0.016183265 0.70999998 -0.054774132 9.0387661e-39 333 284
0.017501773 0.713 -0.055005573 8.3966365e-39 334 284
0.018751899 0.713 -0.055005573 8.3966365e-39 335 284
0.020030079 0.71399999 -0.05508272 8.2133242e-39 336 284
0.021341572 0.71600002 -0.055237014 8.2133242e-39 337 284
0.02262852 0.71700001 -0.055314157 8.3966365e-39 338 284
0.023952285 0.71899998 -0.055468451 8.4888321e-39 339 284
-0.083875954 0.71399999 -0.0563346 1.9726621e-38 253 285
-0.082624078 0.71399999 -0.0563346 1.7330983e-38 254 285
-0.08125823 0.713 -0.056255698 1.613244e-38 255 285
-0.080008104 0.713 -0.056255698 1.3740761e-38 256 285
-0.078757972 0.713 -0.056255698 1.3740761e-38 257 285
-0.077290438 0.71100003 -0.056097899 1.3740411e-38 258 285
-0.075936861 0.70999998 -0.056018997 1.355602e-38 259 285
-0.074481599 0.708 -0.055861197 1.3463824e-38 260 285
-0.073136792 0.70700002 -0.055782299 1.3095042e-38 261 285
-0.071592107 0.704 -0.055545598 1.2359629e-38 262 285
-0.070257813 0.70300001 -0.0554667 1.1898291e-38 263 285
-0.068828844 0.70099998 -0.055308893 1.2080534e-38 264 285
-0.067503333 0.69999999 -0.055229999 1.2357479e-38 265 285
-0.066086642 0.69800001 -0.0550722 1.2449692e-38 266 285
-0.06486281 0.69800001 -0.0550722 1.2634083e-38 267 285
-0.06354782 0.69700003 -0.054993302 1.2634799e-38 268 285
-0.061789215 0.69099998 -0.054519895 1.2634799e-38 269 285
-0.060577665 0.69099998 -0.054519895 1.2544392e-38 270 285
-0.059280202 0.69 -0.054440998 1.2451837e-38 271 285
-0.057902083 0.68800002 -0.054283202 1.2634784e-38 272 285
-0.056613375 0.68699998 -0.054204296 1.2542588e-38 273 285
-0.055328183 0.68599999 -0.054125395 1.2542588e-38 274 285
-0.053967599 0.68400002 -0.053967599 1.2450391e-38 275 285
-0.052691177 0.68300003 -0.053888701 1.2267082e-38 276 285
-0.051418249 0.68199998 -0.053809796 1.2359279e-38 277 285
-0.050075196 0.68000001 -0.053652 1.2359642e-38 278 285
-0.048882935 0.68000001 -0.053652 1.2451837e-38 279 285
-0.047550395 0.67799997 -0.053494196 1.2451837e-38 280 285
-0.046224877 0.676 -0.053336397 1.2451837e-38 281 285
-0.044972997 0.67500001 -0.053257499 1.2359644e-38 282 285
-0.043789499 0.67500001 -0.053257499 1.2359644e-38 283 285
-0.042542879 0.67400002 -0.053178601 1.2359644e-38 284 285
-0.041238401 0.67199999 -0.053020798 1.2267449e-38 285 285
-0.040000543 0.671 -0.052941896 1.2267446e-38 286 285
-0.038766202 0.67000002 -0.052863002 1.2267446e-38 287 285
-0.037479252 0.66799998 -0.052705199 1.2175253e-38 288 285
-0.036308024 0.66799998 -0.052705199 1.2175253e-38 289 285
-0.035084199 0.667 -0.052626297 1.2175253e-38 290 285
-0.03386388 0.66600001 -0.052547399 1.2175253e-38 291 285
-0.03259797 0.66399997 -0.052389596 1.226673e-38 292 285
-0.031386416 0.66299999 -0.052310698 1.226673e-38 293 285
-0.030223956 0.66299999 -0.052310698 1.1991215e-38 294 285
-0.029017664 0.662 -0.0522318 1.1714628e-38 295 285
-0.027856959 0.662 -0.0522318 1.1436243e-38 296 285
-0.026696252 0.662 -0.0522318 1.088307e-38 297 285
-0.025574118 0.66299999 -0.052310698 1.0330619e-38 298 285
-0.024411658 0.66299999 -0.052310698 1.0054031e-38 299 285
-0.023284266 0.66399997 -0.052389596 1.0145505e-38 300 285
-0.02218668 0.66600001 -0.052547399 9.9611133e-39 301 285
-0.02101896 0.66600001 -0.052547399 1.0054015e-38 302 285
-0.019851239 0.66600001 -0.052547399 1.0054015e-38 303 285
-0.018739626 0.66799998 -0.052705199 1.0421331e-38 304 285
-0.017620999 0.67000002 -0.052863002 1.0328775e-38 305 285
-0.016470812 0.671 -0.052941896 1.0695371e-38 306 285
-0.01531712 0.67199999 -0.053020798 1.0326948e-38 307 285
-0.01418096 0.67400002 -0.053178601 1.0508093e-38 308 285
-0.0130185 0.67500001 -0.053257499 1.0323701e-38 309 285
-0.011835 0.67500001 -0.053257499 1.0414824e-38 310 285
-0.01066728 0.676 -0.053336397 1.0507021e-38 311 285
-0.009524107 0.67900002 -0.053573098 1.0232232e-38 312 285
-0.0083458666 0.68000001 -0.053652 1.0324428e-38 313 285
-0.0071851597 0.68300003 -0.053888701 1.0415898e-38 314 285
-0.0059964 0.68400002 -0.053967599 1.0323701e-38 315 285
-0.0048111463 0.68599999 -0.054125395 1.0322629e-38 316 285
-0.00360836 0.68599999 -0.054125395 1.0138237e-38 317 285
-0.0024090798 0.68699998 -0.054204296 1.0320478e-38 318 285
-0.0012062934 0.68800002 -0.054283202 1.0320478e-38 319 285
0 0.69 -0.054440998 1.0045689e-38 320 285
0.0012115532 0.69099998 -0.054519895 9.8616576e-39 321 285
0.00243012 0.69300002 -0.054677699 1.004532e-38 322 285
0.0036451798 0.69300002 -0.054677699 1.004532e-38 323 285
0.0048672534 0.69400001 -0.054756597 9.862361e-39 324 285
0.0060840664 0.69400001 -0.054756597 9.862361e-39 325 285
0.00733244 0.69700003 -0.054993302 9.9531231e-39 326 285
0.0085667865 0.69800001 -0.0550722 9.8609275e-39 327 285
0.0098186666 0.69999999 -0.055229999 9.9527728e-39 328 285
0.011061779 0.70099998 -0.055308893 9.5839917e-39 329 285
0.012325933 0.70300001 -0.0554667 8.4787357e-39 330 285
0.013577812 0.704 -0.055545598 7.7411707e-39 331 285
0.01489632 0.708 -0.055861197 8.3008479e-39 332 285
0.01620606 0.71100003 -0.056097899 9.407194e-39 333 285
0.017501773 0.713 -0.056255698 8.6735975e-39 334 285
0.018751899 0.713 -0.056255698 8.6735975e-39 335 285
0.020030079 0.71399999 -0.0563346 8.9487368e-39 336 285
0.021341572 0.71600002 -0.056492399 8.9487368e-39 337 285
0.02262852 0.71700001 -0.056571297 9.2246035e-39 338 285
-0.082624078 0.71399999 -0.057586476 1.7423179e-38 254 286
-0.081372194 0.71399999 -0.057586476 1.6316471e-38 255 286
-0.080008104 0.713 -0.057505824 1.3923358e-38 256 286
-0.078757972 0.713 -0.057505824 1.4015553e-38 257 286
-0.077507854 0.713 -0.057505824 1.3464903e-38 258 286
-0.076043822 0.71100003 -0.057344519 1.3464903e-38 259 286
-0.074691996 0.70999998 -0.057263866 1.3372708e-38 260 286
-0.073240235 0.708 -0.057102561 1.3372708e-38 261 286
-0.071795486 0.70599997 -0.056941248 1.3463821e-38 262 286
-0.070357755 0.704 -0.056779943 1.3002843e-38 263 286
-0.069025226 0.70300001 -0.056699295 1.2084484e-38 264 286
-0.067599766 0.70099998 -0.056537982 1.1900091e-38 265 286
-0.066275999 0.69999999 -0.056457333 1.1806468e-38 266 286
-0.06486281 0.69800001 -0.056296028 1.1806468e-38 267 286
-0.06354782 0.69700003 -0.056215372 1.2447521e-38 268 286
-0.062325738 0.69700003 -0.056215372 1.2908499e-38 269 286
-0.060752999 0.69300002 -0.055892758 1.2819897e-38 270 286
-0.059366114 0.69099998 -0.055731449 1.2727701e-38 271 286
-0.057902083 0.68800002 -0.055489492 1.2910294e-38 272 286
-0.056613375 0.68699998 -0.055408835 1.2910294e-38 273 286
-0.055408835 0.68699998 -0.055408835 1.2451118e-38 274 286
-0.053967599 0.68400002 -0.055166878 1.2358923e-38 275 286
-0.05276832 0.68400002 -0.055166878 1.2084131e-38 276 286
-0.051493648 0.68300003 -0.055086225 1.2268881e-38 277 286
-0.050222475 0.68199998 -0.055005573 1.2452193e-38 278 286
-0.048882935 0.68000001 -0.054844268 1.2452193e-38 279 286
-0.047620531 0.67900002 -0.054763615 1.2451121e-38 280 286
-0.046361636 0.67799997 -0.054682959 1.2451121e-38 281 286
-0.045039624 0.676 -0.054521654 1.2359289e-38 282 286
-0.043854371 0.676 -0.054521654 1.2359289e-38 283 286
-0.042542879 0.67400002 -0.054360349 1.2359289e-38 284 286
-0.041361131 0.67400002 -0.054360349 1.2267093e-38 285 286
-0.040060159 0.67199999 -0.054199036 1.2267449e-38 286 286
-0.038824059 0.671 -0.054118387 1.2267449e-38 287 286
-0.037591465 0.67000002 -0.054037735 1.226673e-38 288 286
-0.036308024 0.66799998 -0.053876422 1.226673e-38 289 286
-0.035084199 0.667 -0.05379577 1.226673e-38 290 286
-0.03386388 0.66600001 -0.053715117 1.226673e-38 291 286
-0.032696161 0.66600001 -0.053715117 1.226673e-38 292 286
-0.031433757 0.66399997 -0.053553808 1.226673e-38 293 286
-0.030269546 0.66399997 -0.053553808 1.1899741e-38 294 286
-0.029061496 0.66299999 -0.053473156 1.1438764e-38 295 286
-0.027899038 0.66299999 -0.053473156 1.1068903e-38 296 286
-0.026736578 0.66299999 -0.053473156 1.0515729e-38 297 286
-0.025574118 0.66299999 -0.053473156 1.0237703e-38 298 286
-0.024448479 0.66399997 -0.053553808 1.0145507e-38 299 286
-0.023354398 0.66600001 -0.053715117 1.0236258e-38 300 286
-0.02218668 0.66600001 -0.053715117 1.0236258e-38 301 286
-0.02101896 0.66600001 -0.053715117 1.0236962e-38 302 286
-0.019851239 0.66600001 -0.053715117 1.0329157e-38 303 286
-0.018795732 0.67000002 -0.054037735 1.0696841e-38 304 286
-0.017620999 0.67000002 -0.054037735 1.0512451e-38 305 286
-0.016470812 0.671 -0.054118387 1.0421677e-38 306 286
-0.01531712 0.67199999 -0.054199036 1.014545e-38 307 286
-0.01418096 0.67400002 -0.054360349 1.0419147e-38 308 286
-0.0130185 0.67500001 -0.054441001 1.01422e-38 309 286
-0.011852534 0.676 -0.054521654 1.0415547e-38 310 286
-0.010714619 0.67900002 -0.054763615 1.032335e-38 311 286
-0.0095381327 0.68000001 -0.054844268 1.0414827e-38 312 286
-0.0083704125 0.68199998 -0.055005573 1.0507024e-38 313 286
-0.0071851597 0.68300003 -0.055086225 1.0232954e-38 314 286
-0.0060139326 0.68599999 -0.055328183 1.01404e-38 315 286
-0.0048111463 0.68599999 -0.055328183 9.9567202e-39 316 286
-0.0036136196 0.68699998 -0.055408835 9.772329e-39 317 286
-0.0024090798 0.68699998 -0.055408835 9.9556384e-39 318 286
-0.0012062934 0.68800002 -0.055489492 9.5872161e-39 319 286
0 0.69 -0.055650797 9.9520483e-39 320 286
0.0012115532 0.69099998 -0.055731449 1.0228635e-38 321 286
0.00243012 0.69300002 -0.055892758 1.0046042e-38 322 286
0.0036451798 0.69300002 -0.055892758 1.0230433e-38 323 286
0.0048672534 0.69400001 -0.055973411 9.6794145e-39 324 286
0.0060840664 0.69400001 -0.055973411 9.6794145e-39 325 286
0.00733244 0.69700003 -0.056215372 9.9527574e-39 326 286
0.0085667865 0.69800001 -0.056296028 9.860203e-39 327 286
0.0098326923 0.70099998 -0.056537982 9.5825427e-39 328 286
0.01109334 0.70300001 -0.056699295 8.9371733e-39 329 286
0.012325933 0.70300001 -0.056699295 7.1847571e-39 330 286
0.013577812 0.704 -0.056779943 6.4471921e-39 331 286
0.01489632 0.708 -0.057102561 6.73532e-39 332 286
0.016183265 0.70999998 -0.057263866 8.4870356e-39 333 286
0.017501773 0.713 -0.057505824 8.8558378e-39 334 286
0.018778199 0.71399999 -0.057586476 8.9480334e-39 335 286
-0.077290438 0.71100003 -0.058591139 1.3924079e-38 258 287
-0.076043822 0.71100003 -0.058591139 1.3831884e-38 259 287
-0.074691996 0.70999998 -0.058508728 1.3648213e-38 260 287
-0.073240235 0.708 -0.058343921 1.3556017e-38 261 287
-0.071795486 0.70599997 -0.058179103 1.3555651e-38 262 287
-0.070357755 0.704 -0.058014292 1.3463456e-38 263 287
-0.069025226 0.70300001 -0.057931885 1.3095392e-38 264 287
-0.067599766 0.70099998 -0.057767071 1.2911001e-38 265 287
-0.066275999 0.69999999 -0.05768466 1.2542221e-38 266 287
-0.06486281 0.69800001 -0.057519849 1.2265634e-38 267 287
-0.063638985 0.69800001 -0.057519849 1.1804659e-38 268 287
-0.062325738 0.69700003 -0.05743745 1.2080887e-38 269 287
-0.060840666 0.69400001 -0.057190225 1.2357842e-38 270 287
-0.059366114 0.69099998 -0.056942999 1.2542235e-38 271 287
-0.058070395 0.69 -0.0568606 1.2083781e-38 272 287
-0.056695789 0.68800002 -0.056695789 1.2175976e-38 273 287
-0.055408835 0.68699998 -0.056613375 1.2268881e-38 274 287
-0.054125395 0.68599999 -0.056530971 1.2268881e-38 275 287
-0.05276832 0.68400002 -0.056366164 1.245219e-38 276 287
-0.051493648 0.68300003 -0.056283753 1.245219e-38 277 287
-0.050222475 0.68199998 -0.056201346 1.2452193e-38 278 287
-0.049026705 0.68199998 -0.056201346 1.2452193e-38 279 287
-0.047690667 0.68000001 -0.056036532 1.2451118e-38 280 287
-0.046430022 0.67900002 -0.055954125 1.2635508e-38 281 287
-0.045172878 0.67799997 -0.055871718 1.2451121e-38 282 287
-0.043854371 0.676 -0.055706903 1.2451121e-38 283 287
-0.042606 0.67500001 -0.0556245 1.2359644e-38 284 287
-0.041422497 0.67500001 -0.0556245 1.2267449e-38 285 287
-0.040060159 0.67199999 -0.055377278 1.2358926e-38 286 287
-0.038824059 0.671 -0.055294871 1.2358926e-38 287 287
-0.037647571 0.671 -0.055294871 1.2267446e-38 288 287
-0.036416732 0.67000002 -0.055212468 1.2267446e-38 289 287
-0.035136797 0.66799998 -0.05504765 1.2358923e-38 290 287
-0.033914726 0.667 -0.054965243 1.2266727e-38 291 287
-0.032696161 0.66600001 -0.054882839 1.2266727e-38 292 287
-0.031433757 0.66399997 -0.054718021 1.2266727e-38 293 287
-0.030269546 0.66399997 -0.054718021 1.2174527e-38 294 287
-0.029061496 0.66299999 -0.054635618 1.189794e-38 295 287
-0.027899038 0.66299999 -0.054635618 1.1344045e-38 296 287
-0.026776904 0.66399997 -0.054718021 1.060648e-38 297 287
-0.025612691 0.66399997 -0.054718021 1.0421371e-38 298 287
-0.024448479 0.66399997 -0.054718021 1.0144426e-38 299 287
-0.023354398 0.66600001 -0.054882839 9.6856026e-39 300 287
-0.022219993 0.667 -0.054965243 9.5934056e-39 301 287
-0.021050518 0.667 -0.054965243 9.7770682e-39 302 287
-0.019881045 0.667 -0.054965243 9.8692638e-39 303 287
-0.018795732 0.67000002 -0.055212468 1.0145115e-38 304 287
-0.017620999 0.67000002 -0.055212468 1.0145115e-38 305 287
-0.01649536 0.67199999 -0.055377278 1.0513159e-38 306 287
-0.015362706 0.67400002 -0.055542093 1.0420605e-38 307 287
-0.01418096 0.67400002 -0.055542093 1.0879768e-38 308 287
-0.013037786 0.676 -0.055706903 1.0787573e-38 309 287
-0.011887599 0.67799997 -0.055871718 1.0785405e-38 310 287
-0.0107304 0.68000001 -0.056036532 1.0324428e-38 311 287
-0.0095381327 0.68000001 -0.056036532 1.050774e-38 312 287
-0.0083704125 0.68199998 -0.056201346 1.0323348e-38 313 287
-0.0071956799 0.68400002 -0.056366164 1.032335e-38 314 287
-0.0060139326 0.68599999 -0.056530971 1.032335e-38 315 287
-0.0048111463 0.68599999 -0.056530971 1.0140388e-38 316 287
-0.0036136196 0.68699998 -0.056613375 9.9556384e-39 317 287
-0.0024125867 0.68800002 -0.056695789 9.9552727e-39 318 287
-0.0012062934 0.68800002 -0.056695789 9.7708814e-39 319 287
0 0.69 -0.0568606 9.9531231e-39 320 287
0.0012115532 0.69099998 -0.056942999 9.9531231e-39 321 287
0.00243012 0.69300002 -0.057107817 9.770178e-39 322 287
0.0036451798 0.69300002 -0.057107817 9.9545693e-39 323 287
0.0048672534 0.69400001 -0.057190225 9.8627239e-39 324 287
0.0061015999 0.69599998 -0.057355035 9.7705283e-39 325 287
0.0073429602 0.69800001 -0.057519849 9.6776096e-39 326 287
0.0085913334 0.69999999 -0.05768466 8.7556533e-39 327 287
0.0098326923 0.70099998 -0.057767071 8.3840037e-39 328 287
0.01109334 0.70300001 -0.057931885 7.0010679e-39 329 287
0.012343466 0.704 -0.058014292 5.8972609e-39 330 287
0.013635674 0.70700002 -0.05826151 5.4362827e-39 331 287
0.01489632 0.708 -0.058343921 7.1030264e-39 332 287
0.016183265 0.70999998 -0.058508728 8.3015696e-39 333 287
-0.073240235 0.708 -0.059585281 1.3556017e-38 261 288
-0.071897186 0.70700002 -0.059501119 1.3463824e-38 262 288
-0.070557632 0.70599997 -0.059416957 1.3463824e-38 263 288
-0.06912341 0.704 -0.059248637 1.3095758e-38 264 288
-0.067599766 0.70099998 -0.058996156 1.2819531e-38 265 288
-0.066275999 0.69999999 -0.058911994 1.2544739e-38 266 288
-0.06486281 0.69800001 -0.058743682 1.2544739e-38 267 288
-0.063638985 0.69800001 -0.058743682 1.2909201e-38 268 288
-0.062325738 0.69700003 -0.05865952 1.2632975e-38 269 288
-0.061015997 0.69599998 -0.058575355 1.1897575e-38 270 288
-0.059623852 0.69400001 -0.058407038 1.1897575e-38 271 288
-0.058070395 0.69 -0.058070395 1.1714272e-38 272 288
-0.056695789 0.68800002 -0.057902083 1.1991218e-38 273 288
-0.055408835 0.68699998 -0.057817914 1.226673e-38 274 288
-0.054125395 0.68599999 -0.057733759 1.2358926e-38 275 288
-0.05292261 0.68599999 -0.057733759 1.2451118e-38 276 288
-0.051569041 0.68400002 -0.057565439 1.2358923e-38 277 288
-0.05029612 0.68300003 -0.057481278 1.2451118e-38 278 288
-0.049026705 0.68199998 -0.05739712 1.2451118e-38 279 288
-0.047830928 0.68199998 -0.05739712 1.2451118e-38 280 288
-0.046498399 0.68000001 -0.057228796 1.2451118e-38 281 288
-0.045172878 0.67799997 -0.057060476 1.2451121e-38 282 288
-0.043854371 0.676 -0.056892153 1.2451121e-38 283 288
-0.042606 0.67500001 -0.056808002 1.2267449e-38 284 288
-0.041422497 0.67500001 -0.056808002 1.2267449e-38 285 288
-0.040060159 0.67199999 -0.056555521 1.2267449e-38 286 288
-0.038824059 0.671 -0.056471359 1.2267449e-38 287 288
-0.037647571 0.671 -0.056471359 1.2084134e-38 288 288
-0.036416732 0.67000002 -0.056387197 1.2084134e-38 289 288
-0.035136797 0.66799998 -0.056218877 1.2267446e-38 290 288
-0.033914726 0.667 -0.056134716 1.217525e-38 291 288
-0.032696161 0.66600001 -0.056050558 1.217525e-38 292 288
-0.031528439 0.66600001 -0.056050558 1.217525e-38 293 288
-0.030269546 0.66399997 -0.055882234 1.1899738e-38 294 288
-0.02910533 0.66399997 -0.055882234 1.1346566e-38 295 288
-0.027941117 0.66399997 -0.055882234 1.0517881e-38 296 288
-0.026776904 0.66399997 -0.055882234 9.6881194e-39 297 288
-0.025612691 0.66399997 -0.055882234 1.0144782e-38 298 288
-0.02452212 0.66600001 -0.056050558 9.9603916e-39 299 288
-0.023354398 0.66600001 -0.056050558 9.9593112e-39 300 288
-0.022219993 0.667 -0.056134716 9.9593112e-39 301 288
-0.021082079 0.66799998 -0.056218877 9.9596616e-39 302 288
-0.019910853 0.66799998 -0.056218877 1.0052216e-38 303 288
-0.018795732 0.67000002 -0.056387197 1.014404e-38 304 288
-0.0176473 0.671 -0.056471359 1.014404e-38 305 288
-0.01649536 0.67199999 -0.056555521 1.0695046e-38 306 288
-0.015362706 0.67400002 -0.056723841 1.0695046e-38 307 288
-0.014202001 0.67500001 -0.056808002 1.0696115e-38 308 288
-0.013037786 0.676 -0.056892153 1.060392e-38 309 288
-0.011905133 0.67900002 -0.057144642 1.0695377e-38 310 288
-0.0107304 0.68000001 -0.057228796 1.0326594e-38 311 288
-0.0095381327 0.68000001 -0.057228796 1.041698e-38 312 288
-0.0083826864 0.68300003 -0.057481278 1.023223e-38 313 288
-0.0071956799 0.68400002 -0.057565439 1.0505944e-38 314 288
-0.0060139326 0.68599999 -0.057733759 1.0505944e-38 315 288
-0.0048111463 0.68599999 -0.057733759 9.9545693e-39 316 288
-0.0036136196 0.68699998 -0.057817914 9.8623736e-39 317 288
-0.0024125867 0.68800002 -0.057902083 1.0044967e-38 318 288
-0.0012097999 0.69 -0.058070395 1.0137163e-38 319 288
0 0.69099998 -0.058154557 9.6790614e-39 320 288
0.00121506 0.69300002 -0.058322877 9.5868657e-39 321 288
0.00243012 0.69300002 -0.058322877 9.8623736e-39 322 288
0.0036504399 0.69400001 -0.058407038 9.770178e-39 323 288
0.0048672534 0.69400001 -0.058407038 9.7694549e-39 324 288
0.0061103669 0.69700003 -0.05865952 9.5850637e-39 325 288
0.0073429602 0.69800001 -0.058743682 9.030092e-39 326 288
0.0086036054 0.70099998 -0.058996156 7.6471576e-39 327 288
0.0098607466 0.70300001 -0.059164476 6.4497088e-39 328 288
0.01109334 0.70300001 -0.059164476 5.8043394e-39 329 288
0.012343466 0.704 -0.059248637 6.3582615e-39 330 288
0.013654959 0.708 -0.059585281 7.7411959e-39 331 288
-0.070557632 0.70599997 -0.060654808 1.3095042e-38 263 289
-0.06912341 0.704 -0.060482983 1.2820253e-38 264 289
-0.067599766 0.70099998 -0.060225245 1.2912448e-38 265 289
-0.066275999 0.69999999 -0.060139328 1.3187237e-38 266 289
-0.065048665 0.69999999 -0.060139328 1.3187237e-38 267 289
-0.063638985 0.69800001 -0.059967503 1.2911004e-38 268 289
-0.062415157 0.69800001 -0.059967503 1.2726254e-38 269 289
-0.061015997 0.69599998 -0.059795678 1.2265631e-38 270 289
-0.059623852 0.69400001 -0.059623852 1.2173436e-38 271 289
-0.058154557 0.69099998 -0.059366114 1.1713909e-38 272 289
-0.056695789 0.68800002 -0.059108373 1.1990136e-38 273 289
-0.055489492 0.68800002 -0.059108373 1.1804673e-38 274 289
-0.054204296 0.68699998 -0.059022456 1.208126e-38 275 289
-0.05292261 0.68599999 -0.058936544 1.2174533e-38 276 289
-0.051569041 0.68400002 -0.058764715 1.2174533e-38 277 289
-0.05029612 0.68300003 -0.05867881 1.2267449e-38 278 289
-0.049026705 0.68199998 -0.058592889 1.2359644e-38 279 289
-0.047830928 0.68199998 -0.058592889 1.2634789e-38 280 289
-0.046498399 0.68000001 -0.058421064 1.2634789e-38 281 289
-0.045239504 0.67900002 -0.058335152 1.2359644e-38 282 289
-0.043984115 0.67799997 -0.058249239 1.2359644e-38 283 289
-0.042669121 0.676 -0.058077414 1.2267449e-38 284 289
-0.041422497 0.67500001 -0.057991501 1.2267449e-38 285 289
-0.040179387 0.67400002 -0.057905588 1.2267446e-38 286 289
-0.03888192 0.67199999 -0.057733759 1.2267446e-38 287 289
-0.037647571 0.671 -0.057647847 1.2267446e-38 288 289
-0.036416732 0.67000002 -0.057561934 1.2359642e-38 289 289
-0.035241999 0.67000002 -0.057561934 1.2267446e-38 290 289
-0.033914726 0.667 -0.057304189 1.2267446e-38 291 289
-0.032745253 0.667 -0.057304189 1.1991938e-38 292 289
-0.031528439 0.66600001 -0.057218276 1.1991938e-38 293 289
-0.030360719 0.66600001 -0.057218276 1.1899738e-38 294 289
-0.029192999 0.66600001 -0.057218276 1.1254369e-38 295 289
-0.028025279 0.66600001 -0.057218276 1.0148742e-38 296 289
-0.026857559 0.66600001 -0.057218276 9.5033722e-39 297 289
-0.02568984 0.66600001 -0.057218276 9.8689177e-39 298 289
-0.02452212 0.66600001 -0.057218276 9.5001352e-39 299 289
-0.023389466 0.667 -0.057304189 9.5004911e-39 300 289
-0.022219993 0.667 -0.057304189 9.4082955e-39 301 289
-0.0211452 0.67000002 -0.057561934 9.5004855e-39 302 289
-0.019970467 0.67000002 -0.057561934 9.5004855e-39 303 289
-0.018823786 0.671 -0.057647847 9.9600147e-39 304 289
-0.017673599 0.67199999 -0.057733759 9.9600147e-39 305 289
-0.016544454 0.67400002 -0.057905588 1.0327352e-38 306 289
-0.0153855 0.67500001 -0.057991501 1.0327352e-38 307 289
-0.014223038 0.676 -0.058077414 1.0695046e-38 308 289
-0.013076359 0.67799997 -0.058249239 1.0602851e-38 309 289
-0.011905133 0.67900002 -0.058335152 1.0696822e-38 310 289
-0.0107304 0.68000001 -0.058421064 1.051243e-38 311 289
-0.009566186 0.68199998 -0.058592889 1.0785772e-38 312 289
-0.0083826864 0.68300003 -0.05867881 1.0417348e-38 313 289
-0.0071956799 0.68400002 -0.058764715 1.0324431e-38 314 289
-0.0060139326 0.68599999 -0.058936544 1.0047484e-38 315 289
-0.0048111463 0.68599999 -0.058936544 1.0045689e-38 316 289
-0.0036136196 0.68699998 -0.059022456 1.0045689e-38 317 289
-0.0024125867 0.68800002 -0.059108373 9.8623764e-39 318 289
-0.0012115532 0.69099998 -0.059366114 9.9545721e-39 319 289
0 0.69099998 -0.059366114 9.9549224e-39 320 289
0.00121506 0.69300002 -0.05953794 9.8627268e-39 321 289
0.0024336267 0.69400001 -0.059623852 9.7698109e-39 322 289
0.0036609597 0.69599998 -0.059795678 9.6772565e-39 323 289
0.0048812795 0.69599998 -0.059795678 9.4006724e-39 324 289
0.0061103669 0.69700003 -0.05988159 8.3865205e-39 325 289
0.0073639993 0.69999999 -0.060139328 8.4736995e-39 326 289
0.0086036054 0.70099998 -0.060225245 7.1829606e-39 327 289
0.0098607466 0.70300001 -0.06039707 5.9901964e-39 328 289
0.011109119 0.704 -0.060482983 6.7281202e-39 329 289
0.012343466 0.704 -0.060482983 7.1023131e-39 330 289
-0.06912341 0.704 -0.061717331 1.1438764e-38 264 290
-0.067792632 0.70300001 -0.061629668 1.2729503e-38 265 290
-0.066370681 0.70099998 -0.06145433 1.2912095e-38 266 290
-0.065048665 0.69999999 -0.061366666 1.28199e-38 267 290
-0.063638985 0.69800001 -0.061191335 1.2728054e-38 268 290
-0.062415157 0.69800001 -0.061191335 1.2728054e-38 269 290
-0.061103668 0.69700003 -0.061103668 1.281773e-38 270 290
-0.059623852 0.69400001 -0.060840666 1.281773e-38 271 290
-0.058154557 0.69099998 -0.060577665 1.2450028e-38 272 290
-0.0568606 0.69 -0.060489997 1.2265278e-38 273 290
-0.055489492 0.68800002 -0.060314666 1.1252215e-38 274 290
-0.054204296 0.68699998 -0.060226995 1.1529161e-38 275 290
-0.05292261 0.68599999 -0.060139328 1.1621361e-38 276 290
-0.051569041 0.68400002 -0.059964001 1.1897587e-38 277 290
-0.05029612 0.68300003 -0.059876334 1.217525e-38 278 290
-0.049098592 0.68300003 -0.059876334 1.217525e-38 279 290
-0.047830928 0.68199998 -0.059788663 1.2358923e-38 280 290
-0.046498399 0.68000001 -0.059613332 1.2451118e-38 281 290
-0.045239504 0.67900002 -0.059525665 1.2359642e-38 282 290
-0.043984115 0.67799997 -0.059437994 1.2359642e-38 283 290
-0.042669121 0.676 -0.059262663 1.2267446e-38 284 290
-0.041483864 0.676 -0.059262663 1.2267446e-38 285 290
-0.040238999 0.67500001 -0.059175 1.2358923e-38 286 290
-0.038997639 0.67400002 -0.059087332 1.2358923e-38 287 290
-0.037703678 0.67199999 -0.058911994 1.2267446e-38 288 290
-0.036471087 0.671 -0.058824331 1.217525e-38 289 290
-0.035241999 0.67000002 -0.058736663 1.2175253e-38 290 290
-0.033965573 0.66799998 -0.058561329 1.2175253e-38 291 290
-0.032745253 0.667 -0.058473662 1.1991938e-38 292 290
-0.03157578 0.667 -0.058473662 1.1991938e-38 293 290
-0.030360719 0.66600001 -0.058385998 1.1991938e-38 294 290
-0.029192999 0.66600001 -0.058385998 1.1254372e-38 295 290
-0.028025279 0.66600001 -0.058385998 9.7799619e-39 296 290
-0.026857559 0.66600001 -0.058385998 9.2271482e-39 297 290
-0.02568984 0.66600001 -0.058385998 9.5926867e-39 298 290
-0.02452212 0.66600001 -0.058385998 9.4082955e-39 299 290
-0.023389466 0.667 -0.058473662 9.3168159e-39 300 290
-0.022253305 0.66799998 -0.058561329 9.3168159e-39 301 290
-0.0211452 0.67000002 -0.058736663 9.1327848e-39 302 290
-0.019970467 0.67000002 -0.058736663 9.4090115e-39 303 290
-0.018823786 0.671 -0.058824331 9.5930371e-39 304 290
-0.017673599 0.67199999 -0.058911994 9.5930371e-39 305 290
-0.016544454 0.67400002 -0.059087332 1.005221e-38 306 290
-0.0153855 0.67500001 -0.059175 1.005221e-38 307 290
-0.014265119 0.67799997 -0.059437994 1.0235157e-38 308 290
-0.013095647 0.67900002 -0.059525665 1.0327352e-38 309 290
-0.011922667 0.68000001 -0.059613332 1.032878e-38 310 290
-0.0107304 0.68000001 -0.059613332 1.032878e-38 311 290
-0.009566186 0.68199998 -0.059788663 1.0512074e-38 312 290
