# .PCD v.7 - Point Cloud Data file format
FIELDS x y z rgb imX imY
SIZE 4 4 4 4 4 4
TYPE F F F F F F
COUNT 1 1 1 1 1 1
WIDTH 828
HEIGHT 1
VIEWPOINT 0 0 0 1 0 0 0
POINTS 828
DATA ascii
0.024052227 0.722 -0.027849946 5.354552e-39 339 262
0.025353199 0.72299999 -0.02788852 2.9519753e-41 340 262
0.026620859 0.72299999 -0.02788852 6.2069885e-39 341 262
0.027965667 0.72500002 -0.027965667 1.2999976e-38 342 262
0.029357811 0.72799999 -0.028081384 1.2999976e-38 343 262
0.03076048 0.73100001 -0.028197108 1.1804659e-38 344 262
0.032042164 0.73100001 -0.028197108 1.1159289e-38 345 262
0.033323854 0.73100001 -0.028197108 1.1528066e-38 346 262
0.034605537 0.73100001 -0.028197108 1.1528066e-38 347 262
0.035985414 0.73299998 -0.028274251 1.106457e-38 348 262
0.037270606 0.73299998 -0.028274251 9.4972443e-39 349 262
0.038555797 0.73299998 -0.028274251 5.9171215e-39 350 262
0.039895348 0.73400003 -0.028312827 8.4064035e-39 351 262
0.041182294 0.73400003 -0.028312827 1.181297e-38 352 262
0.042469237 0.73400003 -0.028312827 1.6975925e-38 353 262
0.043756187 0.73400003 -0.028312827 2.0732533e-38 354 262
0.045043133 0.73400003 -0.028312827 1.2527122e-38 355 262
0.046266954 0.73299998 -0.028274251 2.3056713e-39 356 262
0.04755215 0.73299998 -0.028274251 1.7524975e-39 357 262
0.048504211 0.72799999 -0.028081384 8.9512998e-39 358 262
0.049780637 0.72799999 -0.028081384 1.2915712e-38 359 262
0.051197331 0.73000002 -0.028158534 1.6939172e-38 360 262
0.078636996 0.69 -0.026615599 7.4613944e-39 385 262
0.079615362 0.68800002 -0.026538454 4.5252243e-39 386 262
0.080821648 0.68800002 -0.026538454 3.6029093e-39 387 262
0.081908718 0.68699998 -0.026499879 2.5884099e-39 388 262
0.083113261 0.68699998 -0.026499879 2.6809656e-39 389 262
0.084440529 0.68800002 -0.026538454 2.2210749e-39 390 262
0.085522331 0.68699998 -0.026499879 2.4054675e-39 391 262
0.086726874 0.68699998 -0.026499879 2.0402962e-39 392 262
0.087419443 0.68300003 -0.026345588 2.4090801e-39 393 262
0.088616975 0.68300003 -0.026345588 1.6701236e-39 394 262
0.089946002 0.68400002 -0.02638416 8.4414219e-42 395 262
0.091145277 0.68400002 -0.02638416 7.6696344e-39 396 262
0.092344552 0.68400002 -0.02638416 1.5598401e-38 397 262
0.093817353 0.68599999 -0.026461305 1.6407573e-38 398 262
0.095020145 0.68599999 -0.026461305 1.2904499e-38 399 262
-0.13871671 0.69400001 -0.027986705 5.3592351e-39 206 263
-0.1374999 0.69400001 -0.027986705 6.7421696e-39 207 263
-0.13667583 0.69599998 -0.028067358 6.3669481e-39 208 263
-0.13565014 0.69700003 -0.028107686 6.8279263e-39 209 263
-0.13442807 0.69700003 -0.028107686 7.1992479e-39 210 263
-0.1333971 0.69800001 -0.028148014 8.4899867e-39 211 263
-0.13217328 0.69800001 -0.028148014 7.7563902e-39 212 263
-0.13094945 0.69800001 -0.028148014 7.3872489e-39 213 263
-0.12972562 0.69800001 -0.028148014 3.9814182e-39 214 263
-0.1285018 0.69800001 -0.028148014 4.2583653e-39 215 263
-0.12727797 0.69800001 -0.028148014 4.1654634e-39 216 263
-0.12641533 0.69999999 -0.028228667 1.7687357e-39 217 263
-0.12518799 0.69999999 -0.028228667 2.3114418e-41 218 263
-0.12396066 0.69999999 -0.028228667 3.6191027e-39 219 263
-0.12273333 0.69999999 -0.028228667 8.6697159e-39 220 263
-0.12150599 0.69999999 -0.028228667 9.0381383e-39 221 263
-0.12027866 0.69999999 -0.028228667 5.8238721e-39 222 263
-0.11905133 0.69999999 -0.028228667 2.5044707e-39 223 263
-0.11782399 0.69999999 -0.028228667 3.3252154e-39 224 263
-0.11659666 0.69999999 -0.028228667 2.9564315e-39 225 263
-0.11536932 0.69999999 -0.028228667 2.590886e-39 226 263
-0.11414199 0.69999999 -0.028228667 3.3288097e-39 227 263
-0.11291467 0.69999999 -0.028228667 4.6191954e-39 228 263
-0.11168733 0.69999999 -0.028228667 4.8957837e-39 229 263
-0.11046 0.69999999 -0.028228667 5.4496792e-39 230 263
-0.10923266 0.69999999 -0.028228667 6.1872442e-39 231 263
-0.10800533 0.69999999 -0.028228667 5.9135454e-39 232 263
-0.106778 0.69999999 -0.028228667 5.7291527e-39 233 263
-0.10555066 0.69999999 -0.028228667 2.6968031e-39 234 263
-0.10432333 0.69999999 -0.028228667 1.9592381e-39 235 263
-0.10309599 0.69999999 -0.028228667 2.7846603e-41 236 263
-0.10186866 0.69999999 -0.028228667 2.5325667e-41 237 263
-0.10064133 0.69999999 -0.028228667 2.4618011e-41 238 263
-0.099413998 0.69999999 -0.028228667 2.4618011e-41 239 263
-0.097906128 0.69800001 -0.028148014 2.1020878e-41 240 263
-0.09668231 0.69800001 -0.028148014 2.0659343e-41 241 263
-0.095458478 0.69800001 -0.028148014 1.956633e-41 242 263
-0.094234653 0.69800001 -0.028148014 1.3445459e-41 243 263
-0.093010828 0.69800001 -0.028148014 8.0056181e-42 244 263
-0.091787003 0.69800001 -0.028148014 7.8511166e-39 245 263
-0.090563171 0.69800001 -0.028148014 1.4111031e-38 246 263
-0.089339346 0.69800001 -0.028148014 4.9836633e-39 247 263
-0.088115521 0.69800001 -0.028148014 2.9539372e-42 248 263
-0.086767212 0.69700003 -0.028107686 1.2036579e-39 249 263
-0.08554513 0.69700003 -0.028107686 3.0680841e-39 250 263
-0.084323063 0.69700003 -0.028107686 9.1529957e-39 251 263
-0.083100989 0.69700003 -0.028107686 1.7803155e-38 252 263
-0.081996389 0.69800001 -0.028148014 2.1397669e-38 253 263
-0.080772556 0.69800001 -0.028148014 2.3506614e-38 254 263
-0.079776667 0.69999999 -0.028228667 1.9540041e-38 255 263
-0.078549333 0.69999999 -0.028228667 1.3636964e-38 256 263
-0.077432454 0.70099998 -0.028268991 8.750596e-39 257 263
-0.076203369 0.70099998 -0.028268991 6.7367227e-39 258 263
-0.074974284 0.70099998 -0.028268991 1.1162113e-38 259 263
-0.073745191 0.70099998 -0.028268991 1.1801436e-38 260 263
-0.072516106 0.70099998 -0.028268991 6.6384805e-39 261 263
-0.071287021 0.70099998 -0.028268991 3.5985793e-39 262 263
-0.070057929 0.70099998 -0.028268991 1.4777211e-39 263 263
-0.069025226 0.70300001 -0.028349647 6.9989589e-39 264 263
-0.068853401 0.71399999 -0.028793238 9.7648278e-39 265 263
-0.067601517 0.71399999 -0.028793238 1.749621e-38 266 263
-0.066070862 0.71100003 -0.028672259 1.8602918e-38 267 263
-0.064824238 0.71100003 -0.028672259 1.6476278e-38 268 263
-0.063577622 0.71100003 -0.028672259 1.6015301e-38 269 263
-0.062506333 0.713 -0.028752912 1.6200767e-38 270 263
-0.061256204 0.713 -0.028752912 2.0533962e-38 271 263
-0.060006075 0.713 -0.028752912 2.1469184e-38 272 263
-0.058755953 0.713 -0.028752912 2.350253e-38 273 263
-0.057505824 0.713 -0.028752912 2.3506074e-38 274 263
-0.056255698 0.713 -0.028752912 1.8155485e-38 275 263
-0.055005573 0.713 -0.028752912 1.6746419e-38 276 263
-0.053604662 0.71100003 -0.028672259 1.232103e-38 277 263
-0.052358042 0.71100003 -0.028672259 8.3902129e-39 278 263
-0.051039528 0.70999998 -0.028631933 1.2631212e-38 279 263
-0.049654398 0.708 -0.02855128 1.576516e-38 280 263
-0.048413038 0.708 -0.02855128 1.3368073e-38 281 263
-0.047105055 0.70700002 -0.028510952 7.2824584e-39 282 263
-0.045865446 0.70700002 -0.028510952 2.2117002e-39 283 263
-0.044562716 0.70599997 -0.028470624 2.2476827e-42 284 263
-0.043324865 0.70599997 -0.028470624 2.5902091e-39 285 263
-0.042087011 0.70599997 -0.028470624 9.0517729e-39 286 263
-0.040849157 0.70599997 -0.028470624 1.7810345e-38 287 263
-0.039667413 0.70700002 -0.028510952 1.5134912e-38 288 263
-0.038373452 0.70599997 -0.028470624 7.0213377e-39 289 263
-0.037135597 0.70599997 -0.028470624 2.4241595e-39 290 263
-0.035897743 0.70599997 -0.028470624 5.0978327e-39 291 263
-0.034659892 0.70599997 -0.028470624 1.9266757e-38 292 263
-0.033422034 0.70599997 -0.028470624 2.3509886e-38 293 263
-0.032093015 0.704 -0.028389972 2.3509886e-38 294 263
-0.030858666 0.704 -0.028389972 2.3509886e-38 295 263
-0.029582238 0.70300001 -0.028349647 2.3509886e-38 296 263
-0.028349647 0.70300001 -0.028349647 2.3509886e-38 297 263
-0.027155625 0.704 -0.028389972 2.3509886e-38 298 263
-0.02592128 0.704 -0.028389972 2.3509886e-38 299 263
-0.024651866 0.70300001 -0.028349647 2.3509886e-38 300 263
-0.023419274 0.70300001 -0.028349647 2.3509886e-38 301 263
-0.02218668 0.70300001 -0.028349647 2.3509886e-38 302 263
-0.020954086 0.70300001 -0.028349647 2.3509886e-38 303 263
-0.019665385 0.70099998 -0.028268991 2.3509886e-38 304 263
-0.018409999 0.69999999 -0.028228667 2.3509886e-38 305 263
-0.017182667 0.69999999 -0.028228667 2.3509886e-38 306 263
-0.015978126 0.70099998 -0.028268991 2.3509886e-38 307 263
-0.014727999 0.69999999 -0.028228667 2.3509886e-38 308 263
-0.013500666 0.69999999 -0.028228667 2.3509886e-38 309 263
-0.012273333 0.69999999 -0.028228667 2.3509886e-38 310 263
-0.011045999 0.69999999 -0.028228667 2.3509886e-38 311 263
-0.0098186666 0.69999999 -0.028228667 2.3509886e-38 312 263
-0.0086281532 0.70300001 -0.028349647 2.3509886e-38 313 263
-0.0073955595 0.70300001 -0.028349647 2.3509886e-38 314 263
-0.0061629666 0.70300001 -0.028349647 2.2864519e-38 315 263
-0.0049303733 0.70300001 -0.028349647 2.2957079e-38 316 263
-0.0036977797 0.70300001 -0.028349647 2.2496106e-38 317 263
-0.0024651866 0.70300001 -0.028349647 8.944128e-39 318 263
-0.0012343467 0.704 -0.028389972 6.7262326e-44 319 263
0 0.704 -0.028389972 1.1229541e-38 320 263
0.0012343467 0.704 -0.028389972 1.5655291e-38 321 263
0.0024686933 0.704 -0.028389972 1.9709944e-38 322 263
0.0037030398 0.704 -0.028389972 1.7773836e-38 323 263
0.0049514128 0.70599997 -0.028470624 1.0687715e-38 324 263
0.0061892662 0.70599997 -0.028470624 9.3048012e-39 325 263
0.0074271196 0.70599997 -0.028470624 8.1285218e-39 326 263
0.0086649731 0.70599997 -0.028470624 1.2462077e-38 327 263
0.0099168532 0.70700002 -0.028510952 1.6506085e-38 328 263
0.011156459 0.70700002 -0.028510952 1.7704628e-38 329 263
0.012448666 0.70999998 -0.028631933 1.852827e-38 330 263
0.013751393 0.713 -0.028752912 1.7514476e-38 331 263
0.015022559 0.71399999 -0.028793238 1.6766121e-38 332 263
0.016274439 0.71399999 -0.028793238 1.141917e-38 333 263
0.017575413 0.71600002 -0.028873893 1.1051139e-38 334 263
0.018857099 0.71700001 -0.028914221 1.4554212e-38 335 263
0.020170346 0.71899998 -0.028994869 1.4476133e-38 336 263
0.021460801 0.72000003 -0.029035201 1.5674677e-38 337 263
0.022723202 0.72000003 -0.029035201 1.3376278e-38 338 263
0.0239856 0.72000003 -0.029035201 6.3694116e-39 339 263
0.025318133 0.722 -0.029115854 5.8169567e-39 340 263
0.026620859 0.72299999 -0.029156178 1.0057956e-38 341 263
0.02788852 0.72299999 -0.029156178 9.6812852e-39 342 263
0.029236834 0.72500002 -0.029236834 7.560427e-39 343 263
0.030718399 0.73000002 -0.029438468 6.1789247e-39 344 263
0.031998333 0.73000002 -0.029438468 5.9945334e-39 345 263
0.033278264 0.73000002 -0.029438468 3.979902e-39 346 263
0.034605537 0.73100001 -0.029478792 5.2706409e-39 347 263
0.035887226 0.73100001 -0.029478792 8.4899265e-39 348 263
0.037168913 0.73100001 -0.029478792 8.3055352e-39 349 263
0.038555797 0.73299998 -0.029559445 7.0133517e-39 350 263
0.039840993 0.73299998 -0.029559445 5.9991997e-39 351 263
0.041126184 0.73299998 -0.029559445 5.0783379e-39 352 263
0.042411376 0.73299998 -0.029559445 7.6598155e-39 353 263
0.043696571 0.73299998 -0.029559445 1.3365164e-38 354 263
0.044981763 0.73299998 -0.029559445 1.2074426e-38 355 263
0.046266954 0.73299998 -0.029559445 5.0690417e-39 356 263
0.047422405 0.73100001 -0.029478792 4.5926016e-40 357 263
0.048504211 0.72799999 -0.029357811 2.7788996e-39 358 263
0.049780637 0.72799999 -0.029357811 9.2325937e-39 359 263
0.051197331 0.73000002 -0.029438468 1.7042534e-38 360 263
0.078409068 0.68800002 -0.027744746 6.3651082e-39 385 263
0.079499632 0.68699998 -0.027704418 2.6838327e-39 386 263
0.080704175 0.68699998 -0.027704418 1.7615176e-39 387 263
0.081789486 0.68599999 -0.027664091 1.7600981e-39 388 263
0.082992278 0.68599999 -0.027664091 1.9444894e-39 389 263
0.084317796 0.68699998 -0.027704418 1.211246e-39 390 263
0.085397847 0.68599999 -0.027664091 1.4874727e-39 391 263
0.086600631 0.68599999 -0.027664091 1.6722367e-39 392 263
0.087291449 0.68199998 -0.027502786 1.3034542e-39 393 263
0.088487223 0.68199998 -0.027502786 9.3435919e-40 394 263
0.089682996 0.68199998 -0.027502786 1.1684027e-41 395 263
0.090878762 0.68199998 -0.027502786 7.1189844e-39 396 263
0.092074543 0.68199998 -0.027502786 1.6338466e-38 397 263
0.093954116 0.68699998 -0.027704418 2.1111004e-38 398 263
-0.14053844 0.69700003 -0.02932976 1.0229023e-38 205 264
-0.13911647 0.69599998 -0.029287677 6.3683704e-39 206 264
-0.13789615 0.69599998 -0.029287677 1.1162903e-38 207 264
-0.13667583 0.69599998 -0.029287677 1.2539385e-38 208 264
-0.13565014 0.69700003 -0.02932976 1.1433039e-38 209 264
-0.13442807 0.69700003 -0.02932976 9.5012618e-39 210 264
-0.1333971 0.69800001 -0.029371841 8.9484468e-39 211 264
-0.13217328 0.69800001 -0.029371841 6.0079298e-39 212 264
-0.13094945 0.69800001 -0.029371841 5.6391473e-39 213 264
-0.12972562 0.69800001 -0.029371841 4.8101153e-39 214 264
-0.1285018 0.69800001 -0.029371841 4.1647459e-39 215 264
-0.12727797 0.69800001 -0.029371841 2.4158932e-39 216 264
-0.12641533 0.69999999 -0.029455997 8.485689e-40 217 264
-0.12518799 0.69999999 -0.029455997 3.0587263e-39 218 264
-0.12396066 0.69999999 -0.029455997 6.8387471e-39 219 264
-0.12273333 0.69999999 -0.029455997 1.0512174e-38 220 264
-0.12150599 0.69999999 -0.029455997 8.7608157e-39 221 264
-0.12027866 0.69999999 -0.029455997 4.62351e-39 222 264
-0.11905133 0.69999999 -0.029455997 1.7654441e-39 223 264
-0.11782399 0.69999999 -0.029455997 4.5215964e-39 224 264
-0.11626352 0.69800001 -0.029371841 5.6275838e-39 225 264
-0.1150397 0.69800001 -0.029371841 5.4471428e-39 226 264
-0.11381588 0.69800001 -0.029371841 5.8155666e-39 227 264
-0.11259206 0.69800001 -0.029371841 6.2776237e-39 228 264
-0.11168733 0.69999999 -0.029455997 6.7386005e-39 229 264
-0.11046 0.69999999 -0.029455997 6.6467776e-39 230 264
-0.10923266 0.69999999 -0.029455997 6.6467776e-39 231 264
-0.10800533 0.69999999 -0.029455997 6.0964905e-39 232 264
-0.106778 0.69999999 -0.029455997 6.0964905e-39 233 264
-0.10555066 0.69999999 -0.029455997 3.7977529e-39 234 264
-0.10432333 0.69999999 -0.029455997 2.3226228e-39 235 264
-0.10309599 0.69999999 -0.029455997 2.6763399e-41 236 264
-0.10186866 0.69999999 -0.029455997 2.4602597e-41 237 264
-0.10064133 0.69999999 -0.029455997 2.2464216e-41 238 264
-0.099413998 0.69999999 -0.029455997 2.2104082e-41 239 264
-0.097906128 0.69800001 -0.029371841 2.1026483e-41 240 264
-0.09668231 0.69800001 -0.029371841 2.0306216e-41 241 264
-0.095458478 0.69800001 -0.029371841 1.9580343e-41 242 264
-0.094234653 0.69800001 -0.029371841 1.4178338e-41 243 264
-0.093010828 0.69800001 -0.029371841 7.6594974e-42 244 264
-0.091787003 0.69800001 -0.029371841 6.6522273e-39 245 264
-0.090563171 0.69800001 -0.029371841 1.4107065e-38 246 264
-0.089339346 0.69800001 -0.029371841 7.5611753e-39 247 264
-0.087989278 0.69700003 -0.02932976 6.5728605e-40 248 264
-0.086767212 0.69700003 -0.02932976 1.3026555e-39 249 264
-0.08554513 0.69700003 -0.02932976 1.518447e-41 250 264
-0.084323063 0.69700003 -0.02932976 1.698654e-41 251 264
-0.083100989 0.69700003 -0.02932976 7.1189213e-39 252 264
-0.081878915 0.69700003 -0.02932976 1.431018e-38 253 264
-0.080656841 0.69700003 -0.02932976 2.3509886e-38 254 264
-0.079434767 0.69700003 -0.02932976 2.3325497e-38 255 264
-0.078324907 0.69800001 -0.029371841 2.0000987e-38 256 264
-0.077321991 0.69999999 -0.029455997 1.3270706e-38 257 264
-0.076203369 0.70099998 -0.029498078 8.8474776e-39 258 264
-0.07486733 0.69999999 -0.029455997 1.1982128e-38 259 264
-0.073639996 0.69999999 -0.029455997 1.0607202e-38 260 264
-0.072516106 0.70099998 -0.029498078 5.7211919e-39 261 264
-0.071287021 0.70099998 -0.029498078 2.956807e-39 262 264
-0.070057929 0.70099998 -0.029498078 8.3630754e-40 263 264
-0.069025226 0.70300001 -0.029582238 7.0904259e-39 264 264
-0.067792632 0.70300001 -0.029582238 9.1187298e-39 265 264
-0.066844068 0.70599997 -0.029708479 1.7680209e-38 266 264
-0.065699153 0.70700002 -0.029750559 1.8970948e-38 267 264
-0.06455072 0.708 -0.02979264 1.693866e-38 268 264
-0.063309364 0.708 -0.02979264 1.7123052e-38 269 264
-0.062243331 0.70999998 -0.029876797 1.9245725e-38 270 264
-0.060998458 0.70999998 -0.029876797 2.2380376e-38 271 264
-0.059837762 0.71100003 -0.029918881 2.2761346e-38 272 264
-0.058591139 0.71100003 -0.029918881 2.3500353e-38 273 264
-0.057344519 0.71100003 -0.029918881 2.3507864e-38 274 264
-0.056097899 0.71100003 -0.029918881 2.3321311e-38 275 264
-0.054851279 0.71100003 -0.029918881 2.1280117e-38 276 264
-0.053604662 0.71100003 -0.029918881 1.4365805e-38 277 264
-0.052284397 0.70999998 -0.029876797 1.1975689e-38 278 264
-0.050895758 0.708 -0.02979264 1.4464971e-38 279 264
-0.049584266 0.70700002 -0.029750559 1.5948475e-38 280 264
-0.048344657 0.70700002 -0.029750559 1.373614e-38 281 264
-0.047105055 0.70700002 -0.029750559 6.269045e-39 282 264
-0.04580057 0.70599997 -0.029708479 1.7514591e-39 283 264
-0.044562716 0.70599997 -0.029708479 4.0693707e-42 284 264
-0.043202132 0.704 -0.029624319 8.7511089e-42 285 264
-0.041967787 0.704 -0.029624319 6.5585476e-39 286 264
-0.040733438 0.704 -0.029624319 1.7898235e-38 287 264
-0.039499093 0.704 -0.029624319 1.4214411e-38 288 264
-0.038264744 0.704 -0.029624319 5.0870497e-39 289 264
-0.036977798 0.70300001 -0.029582238 6.198442e-39 290 264
-0.035643511 0.70099998 -0.029498078 1.6892708e-38 291 264
-0.034414422 0.70099998 -0.029498078 2.3509886e-38 292 264
-0.03318534 0.70099998 -0.029498078 2.3509886e-38 293 264
-0.031956252 0.70099998 -0.029498078 2.3509886e-38 294 264
-0.030814834 0.70300001 -0.029582238 2.3509886e-38 295 264
-0.029498078 0.70099998 -0.029498078 2.3509886e-38 296 264
-0.028268991 0.70099998 -0.029498078 2.3509886e-38 297 264
-0.027039904 0.70099998 -0.029498078 2.3509886e-38 298 264
-0.025810819 0.70099998 -0.029498078 2.3509886e-38 299 264
-0.024581732 0.70099998 -0.029498078 2.3509886e-38 300 264
-0.023352645 0.70099998 -0.029498078 2.3509886e-38 301 264
-0.022091998 0.69999999 -0.029455997 2.3509886e-38 302 264
-0.020864666 0.69999999 -0.029455997 2.3509886e-38 303 264
-0.019637333 0.69999999 -0.029455997 2.3509886e-38 304 264
-0.0183574 0.69800001 -0.029371841 2.3509886e-38 305 264
-0.017133573 0.69800001 -0.029371841 2.3509886e-38 306 264
-0.015909746 0.69800001 -0.029371841 2.3509886e-38 307 264
-0.014727999 0.69999999 -0.029455997 2.3509886e-38 308 264
-0.013500666 0.69999999 -0.029455997 2.3326212e-38 309 264
-0.012273333 0.69999999 -0.029455997 2.1947599e-38 310 264
-0.011045999 0.69999999 -0.029455997 2.2131989e-38 311 264
-0.0098186666 0.69999999 -0.029455997 2.3509886e-38 312 264
-0.0085913334 0.69999999 -0.029455997 2.3509886e-38 313 264
-0.0073639993 0.69999999 -0.029455997 2.3509886e-38 314 264
-0.0061366665 0.69999999 -0.029455997 2.240426e-38 315 264
-0.0049093333 0.69999999 -0.029455997 2.1759986e-38 316 264
-0.0036819996 0.69999999 -0.029455997 1.9731682e-38 317 264
-0.0024546667 0.69999999 -0.029455997 3.8780571e-39 318 264
-0.0012325933 0.70300001 -0.029582238 6.5861028e-44 319 264
0 0.70099998 -0.029498078 1.1229175e-38 320 264
0.0012290865 0.70099998 -0.029498078 1.3073086e-38 321 264
0.0024651866 0.70300001 -0.029582238 1.6559486e-38 322 264
0.0036977797 0.70300001 -0.029582238 1.2779842e-38 323 264
0.0049373866 0.704 -0.029624319 8.1733592e-39 324 264
0.0061717331 0.704 -0.029624319 6.9794977e-39 325 264
0.0074060797 0.704 -0.029624319 2.4852981e-39 326 264
0.0086649731 0.70599997 -0.029708479 1.069069e-38 327 264
0.0099028256 0.70599997 -0.029708479 1.2915918e-38 328 264
0.011156459 0.70700002 -0.029750559 1.5682147e-38 329 264
0.0124136 0.708 -0.02979264 1.8253859e-38 330 264
0.01371282 0.71100003 -0.029918881 1.8161663e-38 331 264
0.015001519 0.713 -0.030003037 1.8984193e-38 332 264
0.016274439 0.71399999 -0.030045118 1.6955889e-38 333 264
0.017575413 0.71600002 -0.03012928 1.2981814e-38 334 264
0.0188308 0.71600002 -0.03012928 1.2336449e-38 335 264
0.020114239 0.71700001 -0.030171359 1.3179264e-38 336 264
0.021371379 0.71700001 -0.030171359 1.5484515e-38 337 264
0.022691639 0.71899998 -0.030255521 1.4289266e-38 338 264
0.023952285 0.71899998 -0.030255521 1.1062419e-38 339 264
0.025212931 0.71899998 -0.030255521 1.0696864e-38 340 264
0.026510401 0.72000003 -0.0302976 7.9309948e-39 341 264
0.027849946 0.722 -0.030381758 2.68375e-39 342 264
0.029236834 0.72500002 -0.030508002 1.3930112e-39 343 264
0.030718399 0.73000002 -0.030718399 1.8496958e-39 344 264
0.031910665 0.72799999 -0.030634239 2.1262826e-39 345 264
0.033187091 0.72799999 -0.030634239 2.0427414e-39 346 264
0.034605537 0.73100001 -0.03076048 3.6100671e-39 347 264
0.035887226 0.73100001 -0.03076048 8.4856105e-39 348 264
0.037168913 0.73100001 -0.03076048 8.3934149e-39 349 264
0.038555797 0.73299998 -0.030844638 6.5458897e-39 350 264
0.039840993 0.73299998 -0.030844638 6.3614985e-39 351 264
0.041126184 0.73299998 -0.030844638 5.1640637e-39 352 264
0.042411376 0.73299998 -0.030844638 4.1502705e-39 353 264
0.043696571 0.73299998 -0.030844638 7.9346255e-39 354 264
0.044981763 0.73299998 -0.030844638 1.0608299e-38 355 264
0.046266954 0.73299998 -0.030844638 6.5441745e-39 356 264
0.047422405 0.73100001 -0.03076048 1.196828e-39 357 264
0.048704091 0.73100001 -0.03076048 1.1604153e-41 358 264
0.0499174 0.73000002 -0.030718399 2.4144527e-39 359 264
0.051197331 0.73000002 -0.030718399 1.5759011e-38 360 264
0.078409068 0.68800002 -0.028951041 7.2877764e-39 385 264
0.079499632 0.68699998 -0.028908957 5.0744268e-39 386 264
0.080704175 0.68699998 -0.028908957 2.5855036e-39 387 264
0.081789486 0.68599999 -0.02886688 2.5862617e-39 388 264
0.082992278 0.68599999 -0.02886688 2.5862617e-39 389 264
0.084195063 0.68599999 -0.02886688 1.6682654e-39 390 264
0.085024394 0.68300003 -0.028740639 1.9452111e-39 391 264
0.086095676 0.68199998 -0.02869856 2.4047669e-39 392 264
0.087035462 0.68000001 -0.028614398 1.7593975e-39 393 264
0.088227727 0.68000001 -0.028614398 1.4551083e-41 394 264
0.089419998 0.68000001 -0.028614398 1.0951147e-41 395 264
0.090612262 0.68000001 -0.028614398 6.0987186e-39 396 264
0.092074543 0.68199998 -0.02869856 1.5963591e-38 397 264
0.09340708 0.68300003 -0.028740639 2.2497184e-38 398 264
-0.1419639 0.69800001 -0.030595668 1.2167302e-38 204 265
-0.14053844 0.69700003 -0.030551834 1.4195606e-38 205 265
-0.13931635 0.69700003 -0.030551834 1.4475122e-38 206 265
-0.13809429 0.69700003 -0.030551834 1.5673665e-38 207 265
-0.13687222 0.69700003 -0.030551834 1.457056e-38 208 265
-0.13584477 0.69800001 -0.030595668 1.3279821e-38 209 265
-0.13462092 0.69800001 -0.030595668 1.0701593e-38 210 265
-0.1333971 0.69800001 -0.030595668 9.041713e-39 211 265
-0.13217328 0.69800001 -0.030595668 4.8119076e-39 212 265
-0.13094945 0.69800001 -0.030595668 4.3509294e-39 213 265
-0.12972562 0.69800001 -0.030595668 3.5222632e-39 214 265
-0.12887 0.69999999 -0.030683333 2.32372e-39 215 265
-0.12764266 0.69999999 -0.030683333 2.2387144e-41 216 265
-0.12641533 0.69999999 -0.030683333 3.7109326e-39 217 265
-0.12518799 0.69999999 -0.030683333 9.4122738e-39 218 265
-0.12396066 0.69999999 -0.030683333 9.5966664e-39 219 265
-0.12273333 0.69999999 -0.030683333 7.9360689e-39 220 265
-0.12150599 0.69999999 -0.030683333 5.8155694e-39 221 265
-0.12027866 0.69999999 -0.030683333 4.7092246e-39 222 265
-0.11905133 0.69999999 -0.030683333 3.9716596e-39 223 265
-0.11782399 0.69999999 -0.030683333 5.0747646e-39 224 265
-0.11626352 0.69800001 -0.030595668 5.8123296e-39 225 265
-0.1148749 0.69700003 -0.030551834 6.2740266e-39 226 265
-0.11365282 0.69700003 -0.030551834 6.2740266e-39 227 265
-0.11243074 0.69700003 -0.030551834 6.0932311e-39 228 265
-0.11136822 0.69800001 -0.030595668 6.3698194e-39 229 265
-0.1101444 0.69800001 -0.030595668 6.6460517e-39 230 265
-0.10923266 0.69999999 -0.030683333 6.4620206e-39 231 265
-0.10800533 0.69999999 -0.030683333 6.1872442e-39 232 265
-0.106778 0.69999999 -0.030683333 6.0950486e-39 233 265
-0.10555066 0.69999999 -0.030683333 3.4300493e-39 234 265
-0.10432333 0.69999999 -0.030683333 1.5861367e-39 235 265
-0.10309599 0.69999999 -0.030683333 2.6399062e-41 236 265
-0.10186866 0.69999999 -0.030683333 2.4599795e-41 237 265
-0.10064133 0.69999999 -0.030683333 2.2097075e-41 238 265
-0.099413998 0.69999999 -0.030683333 2.173554e-41 239 265
-0.097906128 0.69800001 -0.030595668 2.1023681e-41 240 265
-0.09668231 0.69800001 -0.030595668 2.0662146e-41 241 265
-0.095458478 0.69800001 -0.030595668 1.886428e-41 242 265
-0.094234653 0.69800001 -0.030595668 1.598321e-41 243 265
-0.093010828 0.69800001 -0.030595668 1.1625172e-41 244 265
-0.091787003 0.69800001 -0.030595668 3.9825197e-39 245 265
-0.090563171 0.69800001 -0.030595668 1.1623186e-38 246 265
-0.089339346 0.69800001 -0.030595668 8.5810908e-39 247 265
-0.087989278 0.69700003 -0.030551834 2.8717762e-39 248 265
-0.086767212 0.69700003 -0.030551834 2.5029937e-39 249 265
-0.08554513 0.69700003 -0.030551834 4.4322804e-39 250 265
-0.084323063 0.69700003 -0.030551834 3.879108e-39 251 265
-0.083100989 0.69700003 -0.030551834 8.4962828e-40 252 265
-0.081878915 0.69700003 -0.030551834 3.7995283e-39 253 265
-0.080309682 0.69400001 -0.030420333 6.3968126e-39 254 265
-0.079092868 0.69400001 -0.030420333 1.4233424e-38 255 265
-0.078212693 0.69700003 -0.030551834 2.3509165e-38 256 265
-0.077101074 0.69800001 -0.030595668 2.1386865e-38 257 265
-0.075877249 0.69800001 -0.030595668 1.6772735e-38 258 265
-0.074546471 0.69700003 -0.030551834 9.2123351e-39 259 265
-0.073324397 0.69700003 -0.030551834 5.7147039e-39 260 265
-0.072412662 0.69999999 -0.030683333 4.4239651e-39 261 265
-0.071287021 0.70099998 -0.030727165 5.6727785e-40 262 265
-0.070057929 0.70099998 -0.030727165 1.3022267e-41 263 265
-0.068828844 0.70099998 -0.030727165 6.7216518e-39 264 265
-0.067792632 0.70300001 -0.030814834 8.7499556e-39 265 265
-0.066654719 0.704 -0.030858666 1.6482747e-38 266 265
-0.065606222 0.70599997 -0.030946331 1.8972029e-38 267 265
-0.064368367 0.70599997 -0.030946331 1.9805361e-38 268 265
-0.063130513 0.70599997 -0.030946331 2.1003903e-38 269 265
-0.061980337 0.70700002 -0.030990168 2.2013719e-38 270 265
-0.060740728 0.70700002 -0.030990168 2.0169808e-38 271 265
-0.059585281 0.708 -0.031034 1.8794005e-38 272 265
-0.058343921 0.708 -0.031034 1.9807798e-38 273 265
-0.057263866 0.70999998 -0.031121666 2.2397573e-38 274 265
-0.056018997 0.70999998 -0.031121666 2.3508962e-38 275 265
-0.054774132 0.70999998 -0.031121666 2.2575917e-38 276 265
-0.053378478 0.708 -0.031034 1.5661244e-38 277 265
-0.052137118 0.708 -0.031034 1.3534026e-38 278 265
-0.050823875 0.70700002 -0.030990168 1.4640374e-38 279 265
-0.04951413 0.70599997 -0.030946331 1.5119788e-38 280 265
-0.048276275 0.70599997 -0.030946331 1.3091484e-38 281 265
-0.047038425 0.70599997 -0.030946331 3.4163755e-39 282 265
-0.045670826 0.704 -0.030858666 2.8172405e-40 283 265
-0.044436477 0.704 -0.030858666 6.9462365e-42 284 265
-0.043202132 0.704 -0.030858666 7.4811401e-40 285 265
-0.041908171 0.70300001 -0.030814834 8.6689676e-39 286 265
-0.040675577 0.70300001 -0.030814834 1.9916822e-38 287 265
-0.039442986 0.70300001 -0.030814834 1.4214411e-38 288 265
-0.038101684 0.70099998 -0.030727165 4.810816e-39 289 265
-0.036872596 0.70099998 -0.030727165 2.9780759e-39 290 265
-0.035592664 0.69999999 -0.030683333 1.3672367e-38 291 265
-0.034365334 0.69999999 -0.030683333 2.3509886e-38 292 265
-0.033137999 0.69999999 -0.030683333 2.3509886e-38 293 265
-0.031910665 0.69999999 -0.030683333 2.3509886e-38 294 265
-0.030683333 0.69999999 -0.030683333 2.3509886e-38 295 265
-0.029455997 0.69999999 -0.030683333 2.3509886e-38 296 265
-0.028228667 0.69999999 -0.030683333 2.3509886e-38 297 265
-0.027001332 0.69999999 -0.030683333 2.3509886e-38 298 265
-0.025773998 0.69999999 -0.030683333 2.3509886e-38 299 265
-0.024476532 0.69800001 -0.030595668 2.3509886e-38 300 265
-0.023252707 0.69800001 -0.030595668 2.3509886e-38 301 265
-0.02202888 0.69800001 -0.030595668 2.3509886e-38 302 265
-0.020805053 0.69800001 -0.030595668 2.3509886e-38 303 265
-0.019581227 0.69800001 -0.030595668 2.3509886e-38 304 265
-0.0183574 0.69800001 -0.030595668 2.3509886e-38 305 265
-0.017133573 0.69800001 -0.030595668 2.3509886e-38 306 265
-0.015909746 0.69800001 -0.030595668 2.2495734e-38 307 265
-0.01468592 0.69800001 -0.030595668 1.7704798e-38 308 265
-0.013462093 0.69800001 -0.030595668 1.6414059e-38 309 265
-0.012238266 0.69800001 -0.030595668 1.5313832e-38 310 265
-0.01101444 0.69800001 -0.030595668 1.8448484e-38 311 265
-0.0097906133 0.69800001 -0.030595668 2.2128043e-38 312 265
-0.0085667865 0.69800001 -0.030595668 2.3326215e-38 313 265
-0.0073429602 0.69800001 -0.030595668 2.3141109e-38 314 265
-0.006119133 0.69800001 -0.030595668 2.2679772e-38 315 265
-0.0048953067 0.69800001 -0.030595668 2.111462e-38 316 265
-0.0036714801 0.69800001 -0.030595668 1.7887772e-38 317 265
-0.0024476533 0.69800001 -0.030595668 3.3227183e-39 318 265
-0.0012273333 0.69999999 -0.030683333 5.8854536e-44 319 265
0 0.69999999 -0.030683333 1.085317e-38 320 265
0.0012273333 0.69999999 -0.030683333 1.398782e-38 321 265
0.0024581731 0.70099998 -0.030727165 2.016227e-38 322 265
0.0036872597 0.70099998 -0.030727165 2.016227e-38 323 265
0.0049163462 0.70099998 -0.030727165 1.8684985e-38 324 265
0.0061629666 0.70300001 -0.030814834 1.4997167e-38 325 265
0.0073955595 0.70300001 -0.030814834 1.1582393e-38 326 265
0.0086404262 0.704 -0.030858666 8.1733592e-39 327 265
0.0098747732 0.704 -0.030858666 4.2614425e-39 328 265
0.011140679 0.70599997 -0.030946331 1.1176475e-38 329 265
0.0124136 0.708 -0.031034 1.733374e-38 330 265
0.01371282 0.71100003 -0.031165501 1.7979109e-38 331 265
0.015001519 0.713 -0.031253166 1.8527919e-38 332 265
0.016251646 0.713 -0.031253166 1.8159495e-38 333 265
0.017526319 0.71399999 -0.031296998 1.7873198e-38 334 265
0.0188308 0.71600002 -0.031384666 1.4277569e-38 335 265
0.020086186 0.71600002 -0.031384666 1.3628332e-38 336 265
0.021371379 0.71700001 -0.031428497 1.6855179e-38 337 265
0.02262852 0.71700001 -0.031428497 1.630855e-38 338 265
0.02388566 0.71700001 -0.031428497 1.3634876e-38 339 265
0.0251428 0.71700001 -0.031428497 8.949806e-39 340 265
0.02639994 0.71700001 -0.031428497 2.1276895e-39 341 265
0.027657079 0.71700001 -0.031428497 1.8565131e-39 342 265
0.028914221 0.71700001 -0.031428497 3.42348e-39 343 265
0.030634239 0.72799999 -0.031910665 5.3516821e-39 344 265
0.031910665 0.72799999 -0.031910665 6.9193666e-39 345 265
0.033187091 0.72799999 -0.031910665 1.3093241e-38 346 265
0.034463517 0.72799999 -0.031910665 1.4476534e-38 347 265
0.035445385 0.722 -0.031647664 1.5299435e-38 348 265
0.03671129 0.722 -0.031647664 1.2072588e-38 349 265
0.0379772 0.722 -0.031647664 8.3865625e-39 350 265
0.039297458 0.72299999 -0.031691495 8.7553436e-39 351 265
0.040565118 0.72299999 -0.031691495 8.020322e-39 352 265
0.042411376 0.73299998 -0.032129832 7.3749525e-39 353 265
0.043696571 0.73299998 -0.032129832 8.9491348e-39 354 265
0.044981763 0.73299998 -0.032129832 1.1253665e-38 355 265
0.046266954 0.73299998 -0.032129832 7.2824556e-39 356 265
0.04755215 0.73299998 -0.032129832 2.0273047e-39 357 265
0.048704091 0.73100001 -0.032042164 8.3657518e-42 358 265
0.0499174 0.73000002 -0.031998333 1.9671848e-40 359 265
0.051197331 0.73000002 -0.031998333 1.2259552e-38 360 265
0.078409068 0.68800002 -0.030157333 1.1244267e-38 385 265
0.079499632 0.68699998 -0.030113498 1.0506731e-38 386 265
0.080586702 0.68599999 -0.030069664 8.9390455e-39 387 265
0.081551038 0.68400002 -0.029982001 7.55866e-39 388 265
0.082629345 0.68300003 -0.029938167 6.5441479e-39 389 265
0.08382687 0.68300003 -0.029938167 4.0606533e-39 390 265
0.084899902 0.68199998 -0.029894331 2.4011319e-39 391 265
0.086095676 0.68199998 -0.029894331 2.8930227e-40 392 265
0.086907476 0.67900002 -0.029762832 1.2355249e-41 393 265
0.08809799 0.67900002 -0.029762832 5.6879966e-40 394 265
0.089288503 0.67900002 -0.029762832 1.5829502e-39 395 265
0.090612262 0.68000001 -0.029806666 4.7200847e-39 396 265
0.092074543 0.68199998 -0.029894331 1.3109874e-38 397 265
0.09340708 0.68300003 -0.029938167 2.1483765e-38 398 265
-0.1419639 0.69800001 -0.031819493 1.0784741e-38 204 266
-0.14074007 0.69800001 -0.031819493 1.6961846e-38 205 266
-0.13951623 0.69800001 -0.031819493 2.1109607e-38 206 266
-0.13829242 0.69800001 -0.031819493 1.9634487e-38 207 266
-0.13706858 0.69800001 -0.031819493 1.8160779e-38 208 266
-0.13584477 0.69800001 -0.031819493 1.5856247e-38 209 266
-0.13462092 0.69800001 -0.031819493 1.189761e-38 210 266
-0.1333971 0.69800001 -0.031819493 8.7633184e-39 211 266
-0.13217328 0.69800001 -0.031819493 3.6130085e-39 212 266
-0.13094945 0.69800001 -0.031819493 3.3367817e-39 213 266
-0.12972562 0.69800001 -0.031819493 2.3269598e-39 214 266
-0.12887 0.69999999 -0.031910665 1.128418e-39 215 266
-0.12764266 0.69999999 -0.031910665 3.1419214e-39 216 266
-0.12641533 0.69999999 -0.031910665 8.3970723e-39 217 266
-0.12518799 0.69999999 -0.031910665 1.1897234e-38 218 266
-0.12396066 0.69999999 -0.031910665 8.3941604e-39 219 266
-0.12273333 0.69999999 -0.031910665 2.6881052e-39 220 266
-0.12150599 0.69999999 -0.031910665 2.6881052e-39 221 266
-0.12027866 0.69999999 -0.031910665 4.70741e-39 222 266
-0.11905133 0.69999999 -0.031910665 5.1680294e-39 223 266
-0.11748736 0.69800001 -0.031819493 5.7183347e-39 224 266
-0.11626352 0.69800001 -0.031819493 5.902726e-39 225 266
-0.1148749 0.69700003 -0.03177391 5.4464366e-39 226 266
-0.11365282 0.69700003 -0.03177391 5.2620453e-39 227 266
-0.11243074 0.69700003 -0.03177391 5.2645648e-39 228 266
-0.11136822 0.69800001 -0.031819493 5.3567619e-39 229 266
-0.1101444 0.69800001 -0.031819493 5.9999663e-39 230 266
-0.10923266 0.69999999 -0.031910665 6.6453357e-39 231 266
-0.10800533 0.69999999 -0.031910665 7.1070397e-39 232 266
-0.106778 0.69999999 -0.031910665 6.4616703e-39 233 266
-0.10555066 0.69999999 -0.031910665 3.1545414e-39 234 266
-0.10432333 0.69999999 -0.031910665 1.2184332e-39 235 266
-0.10309599 0.69999999 -0.031910665 2.5320062e-41 236 266
-0.10186866 0.69999999 -0.031910665 2.4239661e-41 237 266
-0.10064133 0.69999999 -0.031910665 2.1374005e-41 238 266
-0.099413998 0.69999999 -0.031910665 2.1013872e-41 239 266
-0.097906128 0.69800001 -0.031819493 1.9944681e-41 240 266
-0.09668231 0.69800001 -0.031819493 1.9944681e-41 241 266
-0.095458478 0.69800001 -0.031819493 1.8506949e-41 242 266
-0.094234653 0.69800001 -0.031819493 1.8506949e-41 243 266
-0.093010828 0.69800001 -0.031819493 1.5946777e-41 244 266
-0.091787003 0.69800001 -0.031819493 1.3110072e-39 245 266
-0.090563171 0.69800001 -0.031819493 8.6758171e-39 246 266
-0.089211352 0.69700003 -0.03177391 9.5059365e-39 247 266
-0.087989278 0.69700003 -0.03177391 6.1836316e-39 248 266
-0.086767212 0.69700003 -0.03177391 2.8642302e-39 249 266
-0.08554513 0.69700003 -0.03177391 3.5157065e-39 250 266
-0.084202074 0.69599998 -0.031728316 5.0826735e-39 251 266
-0.082981758 0.69599998 -0.031728316 9.4108122e-40 252 266
-0.081761435 0.69599998 -0.031728316 1.4444585e-41 253 266
-0.080309682 0.69400001 -0.031637147 2.7777939e-41 254 266
-0.079092868 0.69400001 -0.031637147 5.5634772e-39 255 266
-0.077876054 0.69400001 -0.031637147 2.0194839e-38 256 266
-0.07665924 0.69400001 -0.031637147 2.2867037e-38 257 266
-0.075442426 0.69400001 -0.031637147 2.2863064e-38 258 266
-0.074439511 0.69599998 -0.031728316 1.6686317e-38 259 266
-0.073219195 0.69599998 -0.031728316 6.9132275e-39 260 266
-0.072205767 0.69800001 -0.031819493 1.1967383e-39 261 266
-0.07098195 0.69800001 -0.031819493 1.4923829e-42 262 266
-0.069957994 0.69999999 -0.031910665 9.9090018e-41 263 266
-0.068730667 0.69999999 -0.031910665 4.0541218e-39 264 266
-0.067599766 0.70099998 -0.031956252 6.7277951e-39 265 266
-0.066560037 0.70300001 -0.032047424 1.4644242e-38 266 266
-0.065420374 0.704 -0.032093015 1.7225719e-38 267 266
-0.064368367 0.70599997 -0.032184184 1.9991854e-38 268 266
-0.063130513 0.70599997 -0.032184184 2.0176606e-38 269 266
-0.061892662 0.70599997 -0.032184184 2.0355936e-38 270 266
-0.060654808 0.70599997 -0.032184184 1.8788611e-38 271 266
-0.059416957 0.70599997 -0.032184184 1.6201073e-38 272 266
-0.058179103 0.70599997 -0.032184184 1.832154e-38 273 266
-0.056941248 0.70599997 -0.032184184 2.0641956e-38 274 266
-0.055703394 0.70599997 -0.032184184 2.3502183e-38 275 266
-0.054465543 0.70599997 -0.032184184 2.0828905e-38 276 266
-0.053303085 0.70700002 -0.032229774 1.3822395e-38 277 266
-0.05206348 0.70700002 -0.032229774 1.2433074e-38 278 266
-0.050751984 0.70599997 -0.032184184 1.2617105e-38 279 266
-0.04951413 0.70599997 -0.032184184 1.3555316e-38 280 266
-0.048276275 0.70599997 -0.032184184 1.3002143e-38 281 266
-0.047038425 0.70599997 -0.032184184 7.4672042e-39 282 266
-0.045670826 0.704 -0.032093015 3.1336495e-39 283 266
-0.04437336 0.70300001 -0.032047424 5.4888861e-42 284 266
-0.043140765 0.70300001 -0.032047424 1.9433964e-39 285 266
-0.041788943 0.70099998 -0.031956252 9.0373774e-39 286 266
-0.040502001 0.69999999 -0.031910665 1.9916462e-38 287 266
-0.039274666 0.69999999 -0.031910665 1.4583177e-38 288 266
-0.038047329 0.69999999 -0.031910665 6.1011792e-39 289 266
-0.036819998 0.69999999 -0.031910665 2.9963965e-41 290 266
-0.035490975 0.69800001 -0.031819493 4.8291772e-39 291 266
-0.034267146 0.69800001 -0.031819493 2.3324421e-38 292 266
-0.033043321 0.69800001 -0.031819493 2.3509886e-38 293 266
-0.031819493 0.69800001 -0.031819493 2.3509886e-38 294 266
-0.030595668 0.69800001 -0.031819493 2.3509886e-38 295 266
-0.029371841 0.69800001 -0.031819493 2.3509886e-38 296 266
-0.028148014 0.69800001 -0.031819493 2.3509886e-38 297 266
-0.026924185 0.69800001 -0.031819493 2.3509886e-38 298 266
-0.025700359 0.69800001 -0.031819493 2.3509886e-38 299 266
-0.024441468 0.69700003 -0.03177391 2.3509886e-38 300 266
-0.023219392 0.69700003 -0.03177391 2.3509886e-38 301 266
-0.02199732 0.69700003 -0.03177391 2.3325138e-38 302 266
-0.020775247 0.69700003 -0.03177391 2.3509886e-38 303 266
-0.019553173 0.69700003 -0.03177391 2.3509886e-38 304 266
-0.018331099 0.69700003 -0.03177391 2.3509886e-38 305 266
-0.017109027 0.69700003 -0.03177391 2.3509886e-38 306 266
-0.015886955 0.69700003 -0.03177391 2.2034046e-38 307 266
-0.01466488 0.69700003 -0.03177391 9.3207816e-39 308 266
-0.013442807 0.69700003 -0.03177391 6.0017389e-39 309 266
-0.012238266 0.69800001 -0.031819493 5.5508221e-39 310 266
-0.01101444 0.69800001 -0.031819493 1.3664038e-38 311 266
-0.0097906133 0.69800001 -0.031819493 2.1666692e-38 312 266
-0.0085545136 0.69700003 -0.03177391 2.2035835e-38 313 266
-0.00733244 0.69700003 -0.03177391 2.2035479e-38 314 266
-0.006119133 0.69800001 -0.031819493 2.2496457e-38 315 266
-0.0048953067 0.69800001 -0.031819493 2.010191e-38 316 266
-0.00366622 0.69700003 -0.03177391 1.5492128e-38 317 266
-0.0024441467 0.69700003 -0.03177391 2.5880189e-39 318 266
-0.0012238267 0.69800001 -0.031819493 3.6601916e-42 319 266
0 0.69800001 -0.031819493 1.2043059e-38 320 266
0.0012238267 0.69800001 -0.031819493 1.5638328e-38 321 266
0.0024546667 0.69999999 -0.031910665 2.238573e-38 322 266
0.0036819996 0.69999999 -0.031910665 2.3491718e-38 323 266
0.0049093333 0.69999999 -0.031910665 2.2294935e-38 324 266
0.0061454331 0.70099998 -0.031956252 1.9344674e-38 325 266
0.0073745195 0.70099998 -0.031956252 1.6661701e-38 326 266
0.0086281532 0.70300001 -0.032047424 9.8396712e-39 327 266
0.0098747732 0.704 -0.032093015 1.0209524e-39 328 266
0.011109119 0.704 -0.032093015 9.5029069e-39 329 266
0.012396066 0.70700002 -0.032229774 1.319253e-38 330 266
0.013693533 0.70999998 -0.032366529 1.5958399e-38 331 266
0.015001519 0.713 -0.032503292 1.8068759e-38 332 266
0.016251646 0.713 -0.032503292 1.8160954e-38 333 266
0.017526319 0.71399999 -0.032548878 1.8526102e-38 334 266
0.0188308 0.71600002 -0.032640055 1.7050972e-38 335 266
0.020086186 0.71600002 -0.032640055 1.4646405e-38 336 266
0.021341572 0.71600002 -0.032640055 1.5660917e-38 337 266
0.022596961 0.71600002 -0.032640055 1.7687846e-38 338 266
0.02388566 0.71700001 -0.032685637 1.5936488e-38 339 266
0.025107734 0.71600002 -0.032640055 1.0322647e-38 340 266
0.026363119 0.71600002 -0.032640055 3.4079761e-39 341 266
0.027618507 0.71600002 -0.032640055 3.3276775e-39 342 266
0.028873893 0.71600002 -0.032640055 4.9871988e-39 343 266
0.030171359 0.71700001 -0.032685637 8.3890806e-39 344 266
0.031428497 0.71700001 -0.032685637 1.1339339e-38 345 266
0.032640055 0.71600002 -0.032640055 1.7608994e-38 346 266
0.03389544 0.71600002 -0.032640055 1.871534e-38 347 266
0.035150826 0.71600002 -0.032640055 1.7790147e-38 348 266
0.036406212 0.71600002 -0.032640055 1.5300865e-38 349 266
0.037661601 0.71600002 -0.032640055 1.2349896e-38 350 266
0.038971342 0.71700001 -0.032685637 1.0690733e-38 351 266
0.040565118 0.72299999 -0.032959159 7.4725348e-39 352 266
0.042584959 0.736 -0.033551786 7.5647304e-39 353 266
0.043696571 0.73299998 -0.033415023 9.684902e-39 354 266
0.044981763 0.73299998 -0.033415023 1.0975641e-38 355 266
0.046266954 0.73299998 -0.033415023 7.4700769e-39 356 266
0.047422405 0.73100001 -0.033323854 3.0446867e-39 357 266
0.048704091 0.73100001 -0.033323854 2.6730301e-39 358 266
0.0499174 0.73000002 -0.033278264 1.3822913e-39 359 266
0.051197331 0.73000002 -0.033278264 8.4802589e-39 360 266
0.078409068 0.68800002 -0.031363625 1.1613386e-38 385 266
0.079499632 0.68699998 -0.031318039 1.1982541e-38 386 266
0.080586702 0.68599999 -0.031272452 1.1982541e-38 387 266
0.081431814 0.68300003 -0.031135695 1.0231216e-38 388 266
0.082508355 0.68199998 -0.031090107 9.4014557e-39 389 266
0.083704129 0.68199998 -0.031090107 8.0217835e-39 390 266
0.084650926 0.68000001 -0.030998932 7.0994685e-39 391 266
0.085716955 0.67900002 -0.030953348 5.8995268e-39 392 266
0.086779475 0.67799997 -0.030907756 4.424038e-39 393 266
0.087708741 0.676 -0.030816587 3.5118501e-39 394 266
0.088893995 0.676 -0.030816587 4.2497739e-39 395 266
0.090079248 0.676 -0.030816587 4.2626967e-39 396 266
0.092074543 0.68199998 -0.031090107 1.0993336e-38 397 266
0.093270317 0.68199998 -0.031090107 2.0100835e-38 398 266
-0.14237066 0.69999999 -0.033137999 1.1064224e-38 204 267
-0.14074007 0.69800001 -0.033043321 1.8808297e-38 205 267
-0.13951623 0.69800001 -0.033043321 2.258328e-38 206 267
-0.13829242 0.69800001 -0.033043321 2.1661338e-38 207 267
-0.13706858 0.69800001 -0.033043321 2.2304186e-38 208 267
-0.13584477 0.69800001 -0.033043321 2.0829078e-38 209 267
-0.13462092 0.69800001 -0.033043321 1.5675861e-38 210 267
-0.1333971 0.69800001 -0.033043321 1.337061e-38 211 267
-0.13217328 0.69800001 -0.033043321 5.8235582e-39 212 267
-0.13094945 0.69800001 -0.033043321 3.5190262e-39 213 267
-0.12972562 0.69800001 -0.033043321 7.6502628e-40 214 267
-0.12887 0.69999999 -0.033137999 1.1965688e-40 215 267
-0.12764266 0.69999999 -0.033137999 7.6559073e-39 216 267
-0.12641533 0.69999999 -0.033137999 1.1344093e-38 217 267
-0.12518799 0.69999999 -0.033137999 1.0239533e-38 218 267
-0.12396066 0.69999999 -0.033137999 2.6798516e-39 219 267
-0.12273333 0.69999999 -0.033137999 1.9137533e-41 220 267
-0.12150599 0.69999999 -0.033137999 2.6938912e-39 221 267
-0.12027866 0.69999999 -0.033137999 5.1720007e-39 222 267
-0.11905133 0.69999999 -0.033137999 5.079805e-39 223 267
-0.11748736 0.69800001 -0.033043321 5.446061e-39 224 267
-0.11626352 0.69800001 -0.033043321 4.8928872e-39 225 267
-0.1150397 0.69800001 -0.033043321 5.6257859e-39 226 267
-0.11365282 0.69700003 -0.03299598 5.6257859e-39 227 267
-0.11243074 0.69700003 -0.03299598 5.4442715e-39 228 267
-0.11136822 0.69800001 -0.033043321 5.6283041e-39 229 267
-0.1101444 0.69800001 -0.033043321 6.1836316e-39 230 267
-0.10923266 0.69999999 -0.033137999 8.7647506e-39 231 267
-0.10800533 0.69999999 -0.033137999 9.5898477e-39 232 267
-0.106778 0.69999999 -0.033137999 7.5615438e-39 233 267
-0.10555066 0.69999999 -0.033137999 2.6949982e-39 234 267
-0.10432333 0.69999999 -0.033137999 5.7449874e-40 235 267
-0.10309599 0.69999999 -0.033137999 2.4232654e-41 236 267
-0.10186866 0.69999999 -0.033137999 2.3513788e-41 237 267
-0.10064133 0.69999999 -0.033137999 2.2445999e-41 238 267
-0.099413998 0.69999999 -0.033137999 2.1006865e-41 239 267
-0.097906128 0.69800001 -0.033043321 1.8861477e-41 240 267
-0.09668231 0.69800001 -0.033043321 1.8861477e-41 241 267
-0.095458478 0.69800001 -0.033043321 1.8144013e-41 242 267
-0.094234653 0.69800001 -0.033043321 1.8144013e-41 243 267
-0.093010828 0.69800001 -0.033043321 1.7048197e-41 244 267
-0.0916555 0.69700003 -0.03299598 1.4887395e-41 245 267
-0.090433426 0.69700003 -0.03299598 1.0430271e-39 246 267
-0.089211352 0.69700003 -0.03299598 7.4041654e-39 247 267
-0.087989278 0.69700003 -0.03299598 9.4061795e-39 248 267
-0.086767212 0.69700003 -0.03299598 4.058833e-39 249 267
-0.085176937 0.69400001 -0.032853961 1.8601607e-39 250 267
-0.083960123 0.69400001 -0.032853961 3.3352907e-39 251 267
-0.082743309 0.69400001 -0.032853961 5.8105499e-39 252 267
-0.081526496 0.69400001 -0.032853961 5.2573762e-39 253 267
-0.080309682 0.69400001 -0.032853961 1.4953634e-39 254 267
-0.079092868 0.69400001 -0.032853961 2.9682024e-40 255 267
-0.077876054 0.69400001 -0.032853961 1.3221671e-40 256 267
-0.07665924 0.69400001 -0.032853961 1.0458124e-38 257 267
-0.075442426 0.69400001 -0.032853961 2.3509886e-38 258 267
-0.074225612 0.69400001 -0.032853961 2.3509886e-38 259 267
-0.073008798 0.69400001 -0.032853961 2.2398533e-38 260 267
-0.072102323 0.69700003 -0.03299598 1.2072666e-38 261 267
-0.070880257 0.69700003 -0.03299598 9.8104905e-42 262 267
-0.069758117 0.69800001 -0.033043321 8.2676609e-44 263 267
-0.068534292 0.69800001 -0.033043321 1.9053035e-40 264 267
-0.067503333 0.69999999 -0.033137999 3.0482361e-39 265 267
-0.066275999 0.69999999 -0.033137999 1.1513556e-38 266 267
-0.065420374 0.704 -0.03332736 1.5385772e-38 267 267
-0.064186029 0.704 -0.03332736 1.888657e-38 268 267
-0.062951677 0.704 -0.03332736 1.8701819e-38 269 267
-0.061717331 0.704 -0.03332736 1.8976946e-38 270 267
-0.060482983 0.704 -0.03332736 1.9437924e-38 271 267
-0.059248637 0.704 -0.03332736 2.00754e-38 272 267
-0.058014292 0.704 -0.03332736 1.6756391e-38 273 267
-0.056941248 0.70599997 -0.033422034 1.8419867e-38 274 267
-0.055703394 0.70599997 -0.033422034 2.2937452e-38 275 267
-0.054465543 0.70599997 -0.033422034 1.8061966e-38 276 267
-0.053227689 0.70599997 -0.033422034 1.2069251e-38 277 267
-0.051842559 0.704 -0.03332736 1.0597844e-38 278 267
-0.050608214 0.704 -0.03332736 1.216553e-38 279 267
-0.049373865 0.704 -0.03332736 1.2268912e-38 280 267
-0.048139516 0.704 -0.03332736 1.2084881e-38 281 267
-0.046905171 0.704 -0.03332736 1.1793914e-38 282 267
-0.04560595 0.70300001 -0.033280019 5.9855889e-39 283 267
-0.044247117 0.70099998 -0.03318534 1.5246127e-42 284 267
-0.043018032 0.70099998 -0.03318534 2.7673935e-39 285 267
-0.041729331 0.69999999 -0.033137999 9.2199764e-39 286 267
-0.040386278 0.69800001 -0.033043321 2.0190893e-38 287 267
-0.039162453 0.69800001 -0.033043321 1.4675376e-38 288 267
-0.037938625 0.69800001 -0.033043321 6.7465515e-39 289 267
-0.036662199 0.69700003 -0.03299598 1.3067108e-41 290 267
-0.035440128 0.69700003 -0.03299598 1.1626573e-41 291 267
-0.034218054 0.69700003 -0.03299598 1.5500429e-38 292 267
-0.03299598 0.69700003 -0.03299598 2.1765011e-38 293 267
-0.031728316 0.69599998 -0.032948639 2.3509886e-38 294 267
-0.030507999 0.69599998 -0.032948639 2.3509886e-38 295 267
-0.029287677 0.69599998 -0.032948639 2.3509886e-38 296 267
-0.028067358 0.69599998 -0.032948639 2.3509886e-38 297 267
-0.026847038 0.69599998 -0.032948639 2.3509886e-38 298 267
-0.025626717 0.69599998 -0.032948639 2.3509886e-38 299 267
-0.024336265 0.69400001 -0.032853961 2.3509886e-38 300 267
-0.023119451 0.69400001 -0.032853961 2.3509886e-38 301 267
-0.021902639 0.69400001 -0.032853961 2.3509886e-38 302 267
-0.020685827 0.69400001 -0.032853961 2.3509886e-38 303 267
-0.019469013 0.69400001 -0.032853961 2.3509886e-38 304 267
-0.018304799 0.69599998 -0.032948639 2.3509527e-38 305 267
-0.017035386 0.69400001 -0.032853961 2.3509886e-38 306 267
-0.015818574 0.69400001 -0.032853961 1.9452219e-38 307 267
-0.014643839 0.69599998 -0.032948639 3.2860449e-42 308 267
-0.013423519 0.69599998 -0.032948639 3.5032462e-44 309 267
-0.0122032 0.69599998 -0.032948639 1.6951508e-41 310 267
-0.01099866 0.69700003 -0.03299598 1.2465882e-38 311 267
-0.0097765867 0.69700003 -0.03299598 2.2035131e-38 312 267
-0.0085545136 0.69700003 -0.03299598 2.1942935e-38 313 267
