# .PCD v.7 - Point Cloud Data file format
FIELDS x y z rgb imX imY
SIZE 4 4 4 4 4 4
TYPE F F F F F F
COUNT 1 1 1 1 1 1
WIDTH 832
HEIGHT 1
VIEWPOINT 0 0 0 1 0 0 0
POINTS 832
DATA ascii
-0.021776399 0.69 -0.015727401 1.0394047e-39 302 253
-0.020477179 0.68699998 -0.015659019 9.472091e-40 303 253
-0.019272638 0.68699998 -0.015659019 3.2398721e-39 304 253
-0.018068098 0.68699998 -0.015659019 3.2398721e-39 305 253
-0.01686356 0.68699998 -0.015659019 3.6068596e-39 306 253
-0.015659019 0.68699998 -0.015659019 3.5146639e-39 307 253
-0.014454478 0.68699998 -0.015659019 2.6881459e-39 308 253
-0.013249939 0.68699998 -0.015659019 3.2413197e-39 309 253
-0.012027865 0.68599999 -0.015636226 4.6224562e-39 310 253
-0.010825079 0.68599999 -0.015636226 5.083433e-39 311 253
-0.0096222926 0.68599999 -0.015636226 3.7069641e-39 312 253
-0.0084195063 0.68599999 -0.015636226 3.5225729e-39 313 253
-0.0072167199 0.68599999 -0.015636226 3.3385375e-39 314 253
-0.0060139326 0.68599999 -0.015636226 3.6147657e-39 315 253
-0.0048111463 0.68599999 -0.015636226 4.7124841e-39 316 253
-0.00360836 0.68599999 -0.015636226 4.0671146e-39 317 253
-0.0024055731 0.68599999 -0.015636226 3.6075658e-39 318 253
-0.0012027866 0.68599999 -0.015636226 3.6997615e-39 319 253
0 0.68599999 -0.015636226 4.801786e-39 320 253
0.0012062934 0.68800002 -0.015681813 4.6173947e-39 321 253
0.0024125867 0.68800002 -0.015681813 4.3436819e-39 322 253
0.0036293997 0.69 -0.015727401 4.3436819e-39 323 253
0.0048462129 0.69099998 -0.015750192 4.4358804e-39 324 253
0.0060489997 0.69 -0.015727401 4.3436847e-39 325 253
0.0072587994 0.69 -0.015727401 3.2477642e-39 326 253
0.008480873 0.69099998 -0.015750192 5.4604607e-39 327 253
0.0096924258 0.69099998 -0.015750192 6.6521698e-39 328 253
0.010935539 0.69300002 -0.015795778 6.0068004e-39 329 253
0.012150601 0.69300002 -0.015795778 4.9036954e-39 330 253
0.01336566 0.69300002 -0.015795778 4.9958911e-39 331 253
0.01466488 0.69700003 -0.015886955 5.4536266e-39 332 253
0.015909746 0.69800001 -0.015909746 5.1770383e-39 333 253
0.017182667 0.69999999 -0.015955333 5.4518273e-39 334 253
0.018436298 0.70099998 -0.015978126 5.7284156e-39 335 253
0.019665385 0.70099998 -0.015978126 6.096831e-39 336 253
0.020954086 0.70300001 -0.016023712 6.3730592e-39 337 253
0.022218239 0.704 -0.016046507 6.9251413e-39 338 253
0.023452586 0.704 -0.016046507 7.1095312e-39 339 253
0.024686933 0.704 -0.016046507 8.6728912e-39 340 253
0.02592128 0.704 -0.016046507 1.0424608e-38 341 253
-0.048754938 0.713 -0.017501773 1.7977074e-38 281 254
-0.047371563 0.71100003 -0.01745268 1.6410475e-38 282 254
-0.046124939 0.71100003 -0.01745268 1.5580355e-38 283 254
-0.044815198 0.70999998 -0.017428132 1.2911411e-38 284 254
-0.043570329 0.70999998 -0.017428132 6.7343041e-39 285 254
-0.042206239 0.708 -0.017379038 2.9598226e-41 286 254
-0.040907022 0.70700002 -0.017354494 2.3391693e-39 287 254
-0.039611302 0.70599997 -0.017329946 4.7272299e-39 288 254
-0.038264744 0.704 -0.017280852 5.464795e-39 289 254
-0.036872596 0.70099998 -0.017207211 6.836917e-39 290 254
-0.035592664 0.69999999 -0.017182667 5.2692326e-39 291 254
-0.034267146 0.69800001 -0.017133573 4.9004556e-39 292 254
-0.03299598 0.69700003 -0.017109027 5.3610751e-39 293 254
-0.03177391 0.69700003 -0.017109027 5.0859357e-39 294 254
-0.030507999 0.69599998 -0.017084479 7.1142396e-39 295 254
-0.029203519 0.69400001 -0.017035386 9.142912e-39 296 254
-0.027986705 0.69400001 -0.017035386 8.4975426e-39 297 254
-0.026769891 0.69400001 -0.017035386 5.6495562e-39 298 254
-0.02551626 0.69300002 -0.01701084 6.4796756e-39 299 254
-0.024301201 0.69300002 -0.01701084 7.5791806e-39 300 254
-0.023019511 0.69099998 -0.016961746 3.8917141e-39 301 254
-0.021776399 0.69 -0.0169372 7.6352409e-40 302 254
-0.020506985 0.68800002 -0.016888106 7.6352409e-40 303 254
-0.019272638 0.68699998 -0.01686356 2.5977285e-39 304 254
-0.018068098 0.68699998 -0.01686356 2.5977285e-39 305 254
-0.01686356 0.68699998 -0.01686356 2.4147792e-39 306 254
-0.015659019 0.68699998 -0.01686356 2.7839218e-39 307 254
-0.014454478 0.68699998 -0.01686356 1.2223512e-39 308 254
-0.013249939 0.68699998 -0.01686356 9.4576436e-40 309 254
-0.012045399 0.68699998 -0.01686356 2.4158596e-39 310 254
-0.010825079 0.68599999 -0.016839013 2.7846407e-39 311 254
-0.0096222926 0.68599999 -0.016839013 2.5991718e-39 312 254
-0.0084195063 0.68599999 -0.016839013 2.5991718e-39 313 254
-0.0072167199 0.68599999 -0.016839013 1.2227072e-39 314 254
-0.0060139326 0.68599999 -0.016839013 2.1443047e-39 315 254
-0.0048111463 0.68599999 -0.016839013 3.1501778e-39 316 254
-0.0036136196 0.68699998 -0.01686356 2.4126128e-39 317 254
-0.0024090798 0.68699998 -0.01686356 3.9738274e-39 318 254
-0.0012045399 0.68699998 -0.01686356 4.5269998e-39 319 254
0 0.68800002 -0.016888106 4.8961396e-39 320 254
0.0012062934 0.68800002 -0.016888106 4.2507702e-39 321 254
0.0024195998 0.69 -0.0169372 3.7905081e-39 322 254
0.0036293997 0.69 -0.0169372 4.4358776e-39 323 254
0.0048462129 0.69099998 -0.016961746 4.6231625e-39 324 254
0.0060577663 0.69099998 -0.016961746 5.2685319e-39 325 254
0.0072693196 0.69099998 -0.016961746 4.8133117e-39 326 254
0.008480873 0.69099998 -0.016961746 6.1040491e-39 327 254
0.0097204801 0.69300002 -0.01701084 7.3879496e-39 328 254
0.010935539 0.69300002 -0.01701084 6.5585476e-39 329 254
0.012168133 0.69400001 -0.017035386 5.4557916e-39 330 254
0.013423519 0.69599998 -0.017084479 5.271399e-39 331 254
0.01466488 0.69700003 -0.017109027 5.637292e-39 332 254
0.015909746 0.69800001 -0.017133573 5.5450964e-39 333 254
0.017182667 0.69999999 -0.017182667 5.5443775e-39 334 254
0.018436298 0.70099998 -0.017207211 5.7287688e-39 335 254
0.019721493 0.70300001 -0.017256306 6.0046354e-39 336 254
0.020983893 0.704 -0.017280852 6.3730592e-39 337 254
0.022218239 0.704 -0.017280852 6.5581595e-39 338 254
0.023519212 0.70599997 -0.017329946 7.2035289e-39 339 254
0.024757065 0.70599997 -0.017329946 8.2151543e-39 340 254
0.025994917 0.70599997 -0.017329946 9.7828387e-39 341 254
-0.048754938 0.713 -0.018751899 1.7885958e-38 281 255
-0.047504812 0.713 -0.018751899 1.6593787e-38 282 255
-0.046124939 0.71100003 -0.0186993 1.5856222e-38 283 255
-0.044815198 0.70999998 -0.018672999 1.3279115e-38 284 255
-0.043570329 0.70999998 -0.018672999 7.1945634e-39 285 255
-0.042325463 0.70999998 -0.018672999 2.995836e-41 286 255
-0.041080594 0.70999998 -0.018672999 2.2466149e-39 287 255
-0.039611302 0.70599997 -0.018567799 5.0016686e-39 288 255
-0.038373452 0.70599997 -0.018567799 5.4626468e-39 289 255
-0.037030395 0.704 -0.018515198 6.9319937e-39 290 255
-0.035592664 0.69999999 -0.018409999 6.9319937e-39 291 255
-0.034365334 0.69999999 -0.018409999 7.112778e-39 292 255
-0.033043321 0.69800001 -0.0183574 6.8358324e-39 293 255
-0.03177391 0.69700003 -0.018331099 5.733819e-39 294 255
-0.030507999 0.69599998 -0.018304799 6.9323622e-39 295 255
-0.029203519 0.69400001 -0.0182522 7.8557731e-39 296 255
-0.027986705 0.69400001 -0.0182522 7.5788275e-39 297 255
-0.026769891 0.69400001 -0.0182522 6.9359748e-39 298 255
-0.025553079 0.69400001 -0.0182522 7.2129218e-39 299 255
-0.024301201 0.69300002 -0.018225901 7.3958655e-39 300 255
-0.02308614 0.69300002 -0.018225901 5.4597573e-39 301 255
-0.021807959 0.69099998 -0.0181733 4.6289008e-39 302 255
-0.020506985 0.68800002 -0.0180944 3.6147489e-39 303 255
-0.019300694 0.68800002 -0.0180944 5.6351396e-39 304 255
-0.0180944 0.68800002 -0.0180944 6.0042823e-39 305 255
-0.01686356 0.68699998 -0.018068098 4.3505343e-39 306 255
-0.015659019 0.68699998 -0.018068098 4.5349269e-39 307 255
-0.014454478 0.68699998 -0.018068098 4.3548573e-39 308 255
-0.013249939 0.68699998 -0.018068098 4.7236398e-39 309 255
-0.012045399 0.68699998 -0.018068098 6.6539831e-39 310 255
-0.010840859 0.68699998 -0.018068098 7.2993525e-39 311 255
-0.0096363192 0.68699998 -0.018068098 6.3784752e-39 312 255
-0.0084317802 0.68699998 -0.018068098 3.8891946e-39 313 255
-0.0072272392 0.68699998 -0.018068098 2.9733522e-39 314 255
-0.0060226996 0.68699998 -0.018068098 4.9094604e-39 315 255
-0.0048181596 0.68699998 -0.018068098 6.8365639e-39 316 255
-0.0036136196 0.68699998 -0.018068098 6.3752256e-39 317 255
-0.0024090798 0.68699998 -0.018068098 5.5443747e-39 318 255
-0.0012045399 0.68699998 -0.018068098 4.8068083e-39 319 255
0 0.69 -0.018146999 6.6478482e-39 320 255
0.0012097999 0.69 -0.018146999 5.8180861e-39 321 255
0.0024195998 0.69 -0.018146999 5.08197e-39 322 255
0.0036346598 0.69099998 -0.0181733 5.6351424e-39 323 255
0.0048462129 0.69099998 -0.0181733 5.4536392e-39 324 255
0.0060577663 0.69099998 -0.0181733 6.0990086e-39 325 255
0.0072903596 0.69300002 -0.018225901 4.9980589e-39 326 255
0.0085054198 0.69300002 -0.018225901 5.0902545e-39 327 255
0.0097345067 0.69400001 -0.0182522 5.6401885e-39 328 255
0.01095132 0.69400001 -0.0182522 5.3632415e-39 329 255
0.0122032 0.69599998 -0.018304799 5.3628757e-39 330 255
0.013442807 0.69700003 -0.018331099 5.5469068e-39 331 255
0.01468592 0.69800001 -0.0183574 5.6372948e-39 332 255
0.015955333 0.69999999 -0.018409999 5.5447404e-39 333 255
0.017207211 0.70099998 -0.018436298 5.5440216e-39 334 255
0.018436298 0.70099998 -0.018436298 5.7287716e-39 335 255
0.019721493 0.70300001 -0.018488899 6.2801461e-39 336 255
0.020983893 0.704 -0.018515198 6.4645387e-39 337 255
0.022218239 0.704 -0.018515198 6.9258658e-39 338 255
0.023519212 0.70599997 -0.018567799 7.1102571e-39 339 255
0.024757065 0.70599997 -0.018567799 7.8467305e-39 340 255
0.026252659 0.713 -0.018751899 9.5058931e-39 341 255
0.027502786 0.713 -0.018751899 1.4015906e-38 342 255
-0.048754938 0.713 -0.020002026 1.7885955e-38 281 256
-0.047504812 0.713 -0.020002026 1.6410475e-38 282 256
-0.046124939 0.71100003 -0.01994592 1.5580355e-38 283 256
-0.044815198 0.70999998 -0.019917866 1.3647177e-38 284 256
-0.043570329 0.70999998 -0.019917866 7.5626256e-39 285 256
-0.042325463 0.70999998 -0.019917866 2.995836e-41 286 256
-0.041080594 0.70999998 -0.019917866 2.3384504e-39 287 256
-0.039667413 0.70700002 -0.019833706 4.7261635e-39 288 256
-0.038373452 0.70599997 -0.019805651 5.3711742e-39 289 256
-0.037030395 0.704 -0.019749546 6.6564886e-39 290 256
-0.035643511 0.70099998 -0.019665385 6.7486842e-39 291 256
-0.034365334 0.69999999 -0.019637333 6.7479556e-39 292 256
-0.033043321 0.69800001 -0.019581227 6.4717274e-39 293 256
-0.03177391 0.69700003 -0.019553173 6.3813436e-39 294 256
-0.030507999 0.69599998 -0.019525118 6.8423218e-39 295 256
-0.029287677 0.69599998 -0.019525118 7.1189241e-39 296 256
-0.027986705 0.69400001 -0.019469013 7.1189241e-39 297 256
-0.026769891 0.69400001 -0.019469013 7.0278047e-39 298 256
-0.025553079 0.69400001 -0.019469013 7.1203604e-39 299 256
-0.024336265 0.69400001 -0.019469013 7.488064e-39 300 256
-0.02308614 0.69300002 -0.01944096 6.5661063e-39 301 256
-0.021807959 0.69099998 -0.019384852 5.6437786e-39 302 256
-0.020566599 0.69 -0.019356798 4.9062136e-39 303 256
-0.019300694 0.68800002 -0.019300694 6.1911945e-39 304 256
-0.0180944 0.68800002 -0.019300694 6.5596182e-39 305 256
-0.016888106 0.68800002 -0.019300694 5.0906202e-39 306 256
-0.015681813 0.68800002 -0.019300694 4.7218391e-39 307 256
-0.014475521 0.68800002 -0.019300694 4.9995176e-39 308 256
-0.013249939 0.68699998 -0.019272638 5.2764633e-39 309 256
-0.012045399 0.68699998 -0.019272638 6.3828052e-39 310 256
-0.010840859 0.68699998 -0.019272638 7.2129246e-39 311 256
-0.0096363192 0.68699998 -0.019272638 6.661183e-39 312 256
-0.0084317802 0.68699998 -0.019272638 4.3566523e-39 313 256
-0.0072272392 0.68699998 -0.019272638 4.9969869e-39 314 256
-0.0060226996 0.68699998 -0.019272638 6.3799213e-39 315 256
-0.0048181596 0.68699998 -0.019272638 6.9323622e-39 316 256
-0.0036136196 0.68699998 -0.019272638 6.3791885e-39 317 256
-0.0024125867 0.68800002 -0.019300694 6.6500048e-39 318 256
-0.0012062934 0.68800002 -0.019300694 5.8198854e-39 319 256
0 0.69 -0.019356798 6.0989932e-39 320 256
0.0012115532 0.69099998 -0.019384852 5.914602e-39 321 256
0.0024231065 0.69099998 -0.019384852 5.1802851e-39 322 256
0.0036346598 0.69099998 -0.019384852 5.0877308e-39 323 256
0.0048462129 0.69099998 -0.019384852 5.1781341e-39 324 256
0.0060753003 0.69300002 -0.01944096 5.5465565e-39 325 256
0.0072903596 0.69300002 -0.01944096 4.9980589e-39 326 256
0.0085176928 0.69400001 -0.019469013 5.0902545e-39 327 256
0.0097345067 0.69400001 -0.019469013 5.6401857e-39 328 256
0.010982879 0.69599998 -0.019525118 5.4557944e-39 329 256
0.012220734 0.69700003 -0.019553173 5.2735542e-39 330 256
0.013442807 0.69700003 -0.019553173 5.2735542e-39 331 256
0.01468592 0.69800001 -0.019581227 5.5468942e-39 332 256
0.015955333 0.69999999 -0.019637333 5.362503e-39 333 256
0.017207211 0.70099998 -0.019665385 5.6365759e-39 334 256
0.018488899 0.70300001 -0.019721493 5.7287716e-39 335 256
0.019721493 0.70300001 -0.019721493 6.2801461e-39 336 256
0.020983893 0.704 -0.019749546 6.5567344e-39 337 256
0.022281358 0.70599997 -0.019805651 6.925863e-39 338 256
0.023519212 0.70599997 -0.019805651 7.20281e-39 339 256
0.024827199 0.708 -0.01986176 8.3055506e-39 340 256
0.026252659 0.713 -0.020002026 9.7806821e-39 341 256
0.027618507 0.71600002 -0.020086186 1.4199219e-38 342 256
0.028873893 0.71600002 -0.020086186 1.7241674e-38 343 256
-0.048823316 0.71399999 -0.021281958 1.7885958e-38 281 257
-0.047571439 0.71399999 -0.021281958 1.6411193e-38 282 257
-0.046254687 0.713 -0.021252153 1.5489239e-38 283 257
-0.044878319 0.71100003 -0.021192541 1.3648255e-38 284 257
-0.043570329 0.70999998 -0.021162732 7.83993e-39 285 257
-0.042325463 0.70999998 -0.021162732 2.9595424e-41 286 257
-0.041080594 0.70999998 -0.021162732 2.4306433e-39 287 257
-0.039723519 0.708 -0.021103119 4.9112737e-39 288 257
-0.038373452 0.70599997 -0.021043506 5.3718931e-39 289 257
-0.037030395 0.704 -0.020983893 6.7483311e-39 290 257
-0.035643511 0.70099998 -0.020894472 6.7483311e-39 291 257
-0.034365334 0.69999999 -0.020864666 6.7472521e-39 292 257
-0.033137999 0.69999999 -0.020864666 6.7472521e-39 293 257
-0.03177391 0.69700003 -0.020775247 6.1058456e-39 294 257
-0.030551834 0.69700003 -0.020775247 6.1983999e-39 295 257
-0.029287677 0.69599998 -0.020745439 6.7490626e-39 296 257
-0.028067358 0.69599998 -0.020745439 6.933814e-39 297 257
-0.026847038 0.69599998 -0.020745439 7.0260096e-39 298 257
-0.025553079 0.69400001 -0.020685827 7.0260096e-39 299 257
-0.024336265 0.69400001 -0.020685827 7.0267285e-39 300 257
-0.023119451 0.69400001 -0.020685827 7.0267285e-39 301 257
-0.021871079 0.69300002 -0.020656019 6.1054798e-39 302 257
-0.020596405 0.69099998 -0.020596405 5.7366959e-39 303 257
-0.019356798 0.69 -0.020566599 6.563937e-39 304 257
-0.018146999 0.69 -0.020566599 7.0249138e-39 305 257
-0.016888106 0.68800002 -0.020506985 6.1051267e-39 306 257
-0.015681813 0.68800002 -0.020506985 6.1976811e-39 307 257
-0.014517599 0.69 -0.020566599 5.3690092e-39 308 257
-0.013269227 0.68800002 -0.020506985 5.6455961e-39 309 257
-0.012062933 0.68800002 -0.020506985 5.2811296e-39 310 257
-0.010856641 0.68800002 -0.020506985 5.6499121e-39 311 257
-0.0096363192 0.68699998 -0.020477179 6.107649e-39 312 257
-0.0084317802 0.68699998 -0.020477179 4.6321602e-39 313 257
-0.0072377604 0.68800002 -0.020506985 5.2742926e-39 314 257
-0.0060314666 0.68800002 -0.020506985 6.1036932e-39 315 257
-0.0048251734 0.68800002 -0.020506985 6.3817122e-39 316 257
-0.0036188802 0.68800002 -0.020506985 6.1051267e-39 317 257
-0.0024195998 0.69 -0.020566599 6.9276777e-39 318 257
-0.0012097999 0.69 -0.020566599 6.4670583e-39 319 257
0 0.69099998 -0.020596405 5.8242014e-39 320 257
0.0012115532 0.69099998 -0.020596405 5.9167558e-39 321 257
0.0024231065 0.69099998 -0.020596405 5.4575895e-39 322 257
0.0036346598 0.69099998 -0.020596405 5.2731982e-39 323 257
0.0048462129 0.69099998 -0.020596405 5.3635946e-39 324 257
0.0060753003 0.69300002 -0.020656019 5.548346e-39 325 257
0.0072903596 0.69300002 -0.020656019 5.6412605e-39 326 257
0.0085176928 0.69400001 -0.020685827 5.8256517e-39 327 257
0.0097345067 0.69400001 -0.020685827 6.0100402e-39 328 257
0.010982879 0.69599998 -0.020745439 6.1022358e-39 329 257
0.012220734 0.69700003 -0.020775247 5.5522864e-39 330 257
0.013462093 0.69800001 -0.020805053 5.2756995e-39 331 257
0.01468592 0.69800001 -0.020805053 5.6394458e-39 332 257
0.015955333 0.69999999 -0.020864666 5.4546958e-39 333 257
0.017207211 0.70099998 -0.020894472 5.5447404e-39 334 257
0.018488899 0.70300001 -0.020954086 5.7294904e-39 335 257
0.019749546 0.704 -0.020983893 6.4645387e-39 336 257
0.020983893 0.704 -0.020983893 6.7407655e-39 337 257
0.022281358 0.70599997 -0.021043506 7.0180614e-39 338 257
0.023552528 0.70700002 -0.021073313 7.2024541e-39 339 257
0.024827199 0.708 -0.021103119 8.5821417e-39 340 257
0.026289478 0.71399999 -0.021281958 9.8728806e-39 341 257
0.027618507 0.71600002 -0.021341572 1.4292137e-38 342 257
0.028873893 0.71600002 -0.021341572 1.7150202e-38 343 257
0.03012928 0.71600002 -0.021341572 1.7608646e-38 344 257
-0.048823316 0.71399999 -0.022533838 1.8069988e-38 281 258
-0.047571439 0.71399999 -0.022533838 1.6778896e-38 282 258
-0.046254687 0.713 -0.022502279 1.5580711e-38 283 258
-0.044878319 0.71100003 -0.022439159 1.3831923e-38 284 258
-0.043570329 0.70999998 -0.022407599 8.3923793e-39 285 258
-0.042325463 0.70999998 -0.022407599 3.0671621e-41 286 258
-0.040964879 0.708 -0.022344479 2.4313593e-39 287 258
-0.039667413 0.70700002 -0.022312919 5.4626496e-39 288 258
-0.038373452 0.70599997 -0.022281358 5.8314321e-39 289 258
-0.037030395 0.704 -0.022218239 6.7483339e-39 290 258
-0.035745207 0.70300001 -0.02218668 6.6557795e-39 291 258
-0.034414422 0.70099998 -0.022123558 6.4713883e-39 292 258
-0.033137999 0.69999999 -0.022091998 6.5635839e-39 293 258
-0.031819493 0.69800001 -0.02202888 6.3799185e-39 294 258
-0.030551834 0.69700003 -0.02199732 6.7486996e-39 295 258
-0.02932976 0.69700003 -0.02199732 6.7490626e-39 296 258
-0.028107686 0.69700003 -0.02199732 6.5650315e-39 297 258
-0.026885614 0.69700003 -0.02199732 6.3813619e-39 298 258
-0.025626717 0.69599998 -0.021965759 6.3813619e-39 299 258
-0.024336265 0.69400001 -0.021902639 6.2906054e-39 300 258
-0.023119451 0.69400001 -0.021902639 6.3831611e-39 301 258
-0.021902639 0.69400001 -0.021902639 5.5544767e-39 302 258
-0.020596405 0.69099998 -0.021807959 5.2775296e-39 303 258
-0.019384852 0.69099998 -0.021807959 6.1962433e-39 304 258
-0.018146999 0.69 -0.021776399 6.3809933e-39 305 258
-0.0169372 0.69 -0.021776399 5.9214571e-39 306 258
-0.015727401 0.69 -0.021776399 6.0136527e-39 307 258
-0.014517599 0.69 -0.021776399 5.644873e-39 308 258
-0.013269227 0.68800002 -0.021713281 6.0132968e-39 309 258
-0.012062933 0.68800002 -0.021713281 6.0172527e-39 310 258
-0.010856641 0.68800002 -0.021713281 6.0172527e-39 311 258
-0.0096503468 0.68800002 -0.021713281 5.64811e-39 312 258
-0.0084440531 0.68800002 -0.021713281 3.7120018e-39 313 258
-0.0072377604 0.68800002 -0.021713281 5.2742926e-39 314 258
-0.0060489997 0.69 -0.021776399 6.1036932e-39 315 258
-0.0048391996 0.69 -0.021776399 6.1973251e-39 316 258
-0.0036293997 0.69 -0.021776399 6.1973251e-39 317 258
-0.0024195998 0.69 -0.021776399 6.469589e-39 318 258
-0.0012097999 0.69 -0.021776399 6.1011666e-39 319 258
0 0.69099998 -0.021807959 5.9167712e-39 320 258
0.0012115532 0.69099998 -0.021807959 6.0089668e-39 321 258
0.0024231065 0.69099998 -0.021807959 5.6427038e-39 322 258
0.0036451798 0.69300002 -0.021871079 5.4583112e-39 323 258
0.00486024 0.69300002 -0.021871079 6.2841118e-39 324 258
0.0060753003 0.69300002 -0.021871079 6.8369268e-39 325 258
0.0073008798 0.69400001 -0.021902639 6.4710211e-39 326 258
0.0085176928 0.69400001 -0.021902639 6.7472493e-39 327 258
0.0097625591 0.69599998 -0.021965759 6.0136373e-39 328 258
0.01099866 0.69700003 -0.02199732 6.0136373e-39 329 258
0.012220734 0.69700003 -0.02199732 5.828523e-39 330 258
0.013462093 0.69800001 -0.02202888 5.5515774e-39 331 258
0.014727999 0.69999999 -0.022091998 5.0866392e-39 332 258
0.015955333 0.69999999 -0.022091998 5.1788348e-39 333 258
0.017207211 0.70099998 -0.022123558 5.6372948e-39 334 258
0.018488899 0.70300001 -0.02218668 5.8216861e-39 335 258
0.019749546 0.704 -0.022218239 6.3723389e-39 336 258
0.020983893 0.704 -0.022218239 6.7411214e-39 337 258
0.022281358 0.70599997 -0.022281358 7.2928505e-39 338 258
0.023585839 0.708 -0.022344479 7.5694374e-39 339 258
0.025002534 0.713 -0.022502279 8.5828606e-39 340 258
0.026252659 0.713 -0.022502279 1.0058349e-38 341 258
0.02754136 0.71399999 -0.022533838 1.4201021e-38 342 258
0.028873893 0.71600002 -0.022596961 1.7058725e-38 343 258
0.03012928 0.71600002 -0.022596961 1.7516448e-38 344 258
-0.048960082 0.71600002 -0.023852346 1.8069267e-38 281 259
-0.047704693 0.71600002 -0.023852346 1.6779252e-38 282 259
-0.046319555 0.71399999 -0.02378572 1.5672904e-38 283 259
-0.044878319 0.71100003 -0.023685781 1.374008e-38 284 259
-0.043631699 0.71100003 -0.023685781 8.4849295e-39 285 259
-0.042325463 0.70999998 -0.023652466 2.9233889e-41 286 259
-0.040964879 0.708 -0.023585839 2.7065071e-39 287 259
-0.039667413 0.70700002 -0.023552528 5.7374386e-39 288 259
-0.038373452 0.70599997 -0.023519212 6.0140255e-39 289 259
-0.037030395 0.704 -0.023452586 6.8394505e-39 290 259
-0.035745207 0.70300001 -0.023419274 6.7472549e-39 291 259
-0.034512613 0.70300001 -0.023419274 6.8372981e-39 292 259
-0.03318534 0.70099998 -0.023352645 7.0216908e-39 293 259
-0.031819493 0.69800001 -0.023252707 6.473189e-39 294 259
-0.030595668 0.69800001 -0.023252707 6.7494157e-39 295 259
-0.02932976 0.69700003 -0.023219392 6.8430477e-39 296 259
-0.028107686 0.69700003 -0.023219392 7.0270788e-39 297 259
-0.026885614 0.69700003 -0.023219392 6.6590193e-39 298 259
-0.025626717 0.69599998 -0.023186078 6.1058456e-39 299 259
-0.0244064 0.69599998 -0.023186078 6.3831611e-39 300 259
-0.023119451 0.69400001 -0.023119451 6.2906054e-39 301 259
-0.021902639 0.69400001 -0.023119451 5.922183e-39 302 259
-0.020656019 0.69300002 -0.02308614 5.6455961e-39 303 259
-0.019384852 0.69099998 -0.023019511 6.0136527e-39 304 259
-0.0181733 0.69099998 -0.023019511 5.9214571e-39 305 259
-0.0169372 0.69 -0.022986198 5.9214571e-39 306 259
-0.015727401 0.69 -0.022986198 5.9214571e-39 307 259
-0.014517599 0.69 -0.022986198 5.5530403e-39 308 259
-0.0133078 0.69 -0.022986198 5.7377917e-39 309 259
-0.012097999 0.69 -0.022986198 5.7392365e-39 310 259
-0.010856641 0.68800002 -0.022919573 6.1076603e-39 311 259
-0.0096503468 0.68800002 -0.022919573 6.0154506e-39 312 259
-0.0084440531 0.68800002 -0.022919573 4.9091045e-39 313 259
-0.0072377604 0.68800002 -0.022919573 5.737419e-39 314 259
-0.0060489997 0.69 -0.022986198 6.1062015e-39 315 259
-0.0048391996 0.69 -0.022986198 6.4739078e-39 316 259
-0.0036293997 0.69 -0.022986198 6.4739078e-39 317 259
-0.0024195998 0.69 -0.022986198 6.3784696e-39 318 259
-0.0012097999 0.69 -0.022986198 6.1940783e-39 319 259
0 0.69099998 -0.023019511 5.5512299e-39 320 259
0.0012115532 0.69099998 -0.023019511 5.4590328e-39 321 259
0.0024231065 0.69099998 -0.023019511 5.3686337e-39 322 259
0.0036451798 0.69300002 -0.02308614 5.3686337e-39 323 259
0.00486024 0.69300002 -0.02308614 6.1018855e-39 324 259
0.0060840664 0.69400001 -0.023119451 6.8394505e-39 325 259
0.0073008798 0.69400001 -0.023119451 6.5653846e-39 326 259
0.0085422397 0.69599998 -0.023186078 6.7494157e-39 327 259
0.0097765867 0.69700003 -0.023219392 6.3813436e-39 328 259
0.01099866 0.69700003 -0.023219392 6.3813436e-39 329 259
0.012238266 0.69800001 -0.023252707 6.3788227e-39 330 259
0.013462093 0.69800001 -0.023252707 6.0100402e-39 331 259
0.014727999 0.69999999 -0.023319334 5.0866392e-39 332 259
0.015978126 0.70099998 -0.023352645 5.363226e-39 333 259
0.017256306 0.70300001 -0.023419274 5.637292e-39 334 259
0.018488899 0.70300001 -0.023419274 5.7294876e-39 335 259
0.019749546 0.704 -0.023452586 5.9138817e-39 336 259
0.021043506 0.70599997 -0.023519212 6.1901098e-39 337 259
0.022344479 0.708 -0.023585839 6.7421948e-39 338 259
0.023652466 0.70999998 -0.023652466 7.6641497e-39 339 259
0.025002534 0.713 -0.023752406 8.6764912e-39 340 259
0.026252659 0.713 -0.023752406 9.96723e-39 341 259
0.02754136 0.71399999 -0.02378572 1.4476884e-38 342 259
0.028873893 0.71600002 -0.023852346 1.7058362e-38 343 259
0.03012928 0.71600002 -0.023852346 1.7424254e-38 344 259
-0.048960082 0.71600002 -0.025107734 1.7885958e-38 281 260
-0.047704693 0.71600002 -0.025107734 1.687145e-38 282 260
-0.046449307 0.71600002 -0.025107734 1.5765102e-38 283 260
-0.045067675 0.71399999 -0.025037598 1.3740803e-38 284 260
-0.043631699 0.71100003 -0.024932399 8.8544337e-39 285 260
-0.042325463 0.70999998 -0.024897331 3.3189754e-41 286 260
-0.041080594 0.70999998 -0.024897331 1.9732581e-39 287 260
-0.039723519 0.708 -0.024827199 6.0140255e-39 288 260
-0.038373452 0.70599997 -0.024757065 6.8437848e-39 289 260
-0.037135597 0.70599997 -0.024757065 6.5617875e-39 290 260
-0.035796054 0.704 -0.024686933 6.1930063e-39 291 260
-0.034512613 0.70300001 -0.024651866 6.7443836e-39 292 260
-0.03318534 0.70099998 -0.024581732 7.0209719e-39 293 260
-0.031910665 0.69999999 -0.024546666 6.9312958e-39 294 260
-0.030595668 0.69800001 -0.024476532 7.5766653e-39 295 260
-0.029371841 0.69800001 -0.024476532 8.4064231e-39 296 260
-0.028148014 0.69800001 -0.024476532 8.4064231e-39 297 260
-0.026924185 0.69800001 -0.024476532 7.7642907e-39 298 260
-0.025663542 0.69700003 -0.024441468 7.6720951e-39 299 260
-0.024441468 0.69700003 -0.024441468 6.8452155e-39 300 260
-0.023186078 0.69599998 -0.0244064 6.9374111e-39 301 260
-0.021965759 0.69599998 -0.0244064 6.6579474e-39 302 260
-0.020656019 0.69300002 -0.024301201 6.0125779e-39 303 260
-0.01944096 0.69300002 -0.024301201 6.2877229e-39 304 260
-0.018225901 0.69300002 -0.024301201 6.1955259e-39 305 260
-0.016961746 0.69099998 -0.024231065 6.1962461e-39 306 260
-0.015750192 0.69099998 -0.024231065 6.1040491e-39 307 260
-0.014538639 0.69099998 -0.024231065 5.8274692e-39 308 260
-0.013327086 0.69099998 -0.024231065 5.7352736e-39 309 260
-0.012097999 0.69 -0.024195999 5.3700952e-39 310 260
-0.010888199 0.69 -0.024195999 5.8314321e-39 311 260
-0.0096783992 0.69 -0.024195999 6.933458e-39 312 260
-0.0084686 0.69 -0.024195999 6.933458e-39 313 260
-0.0072587994 0.69 -0.024195999 7.0260068e-39 314 260
-0.0060489997 0.69 -0.024195999 7.0260068e-39 315 260
-0.0048391996 0.69 -0.024195999 6.5675496e-39 316 260
-0.0036293997 0.69 -0.024195999 6.2909613e-39 317 260
-0.0024231065 0.69099998 -0.024231065 5.6427094e-39 318 260
-0.0012115532 0.69099998 -0.024231065 5.457958e-39 319 260
0 0.69099998 -0.024231065 5.4572392e-39 320 260
0.0012115532 0.69099998 -0.024231065 5.4572392e-39 321 260
0.0024231065 0.69099998 -0.024231065 5.7331058e-39 322 260
0.0036451798 0.69300002 -0.024301201 5.7331058e-39 323 260
0.00486024 0.69300002 -0.024301201 5.6423535e-39 324 260
0.0060840664 0.69400001 -0.024336265 6.2877229e-39 325 260
0.0073008798 0.69400001 -0.024336265 5.8303405e-39 326 260
0.0085422397 0.69599998 -0.0244064 6.0147317e-39 327 260
0.0097765867 0.69700003 -0.024441468 6.6564984e-39 328 260
0.01099866 0.69700003 -0.024441468 6.5643028e-39 329 260
0.012220734 0.69700003 -0.024441468 6.2880732e-39 330 260
0.013462093 0.69800001 -0.024476532 5.9192893e-39 331 260
0.014727999 0.69999999 -0.024546666 5.5465439e-39 332 260
0.015978126 0.70099998 -0.024581732 5.3617939e-39 333 260
0.017256306 0.70300001 -0.024651866 5.6372948e-39 334 260
0.018515198 0.704 -0.024686933 5.7294904e-39 335 260
0.019749546 0.704 -0.024686933 6.097194e-39 336 260
0.021073313 0.70700002 -0.024792133 6.189391e-39 337 260
0.022344479 0.708 -0.024827199 7.0180614e-39 338 260
0.023652466 0.70999998 -0.024897331 8.4931929e-39 339 260
0.025002534 0.713 -0.025002534 9.41298e-39 340 260
0.026289478 0.71399999 -0.025037598 1.0334938e-38 341 260
0.02754136 0.71399999 -0.025037598 1.4661279e-38 342 260
0.028873893 0.71600002 -0.025107734 1.7334952e-38 343 260
0.03012928 0.71600002 -0.025107734 1.7516451e-38 344 260
-0.04902846 0.71700001 -0.02639994 1.8161467e-38 281 261
-0.04777132 0.71700001 -0.02639994 1.6687782e-38 282 261
-0.046449307 0.71600002 -0.026363119 1.5397043e-38 283 261
-0.045067675 0.71399999 -0.026289478 1.3740806e-38 284 261
-0.043631699 0.71100003 -0.026179021 9.1310247e-39 285 261
-0.042325463 0.70999998 -0.026142199 3.2114958e-41 286 261
-0.041080594 0.70999998 -0.026142199 1.8789086e-39 287 261
-0.039723519 0.708 -0.026068559 6.1991398e-39 288 261
-0.038427804 0.70700002 -0.02603174 7.397683e-39 289 261
-0.037135597 0.70599997 -0.025994917 7.760681e-39 290 261
-0.035796054 0.704 -0.02592128 7.2075072e-39 291 261
-0.034512613 0.70300001 -0.025884461 6.9298455e-39 292 261
-0.03318534 0.70099998 -0.025810819 7.1142368e-39 293 261
-0.031910665 0.69999999 -0.025773998 6.5657503e-39 294 261
-0.030683333 0.69999999 -0.025773998 7.0267285e-39 295 261
-0.029371841 0.69800001 -0.025700359 7.7635774e-39 296 261
-0.028148014 0.69800001 -0.025700359 8.0398042e-39 297 261
-0.026924185 0.69800001 -0.025700359 7.8557731e-39 298 261
-0.025700359 0.69800001 -0.025700359 8.1320012e-39 299 261
-0.024441468 0.69700003 -0.025663542 8.131281e-39 300 261
-0.023219392 0.69700003 -0.025663542 7.670663e-39 301 261
-0.02199732 0.69700003 -0.025663542 7.1156871e-39 302 261
-0.020685827 0.69400001 -0.025553079 6.3781221e-39 303 261
-0.019469013 0.69400001 -0.025553079 6.5614315e-39 304 261
-0.018225901 0.69300002 -0.02551626 6.5614315e-39 305 261
-0.01701084 0.69300002 -0.02551626 6.745827e-39 306 261
-0.015750192 0.69099998 -0.025442619 6.5614343e-39 307 261
-0.014538639 0.69099998 -0.025442619 6.2862894e-39 308 261
-0.013327086 0.69099998 -0.025442619 5.917867e-39 309 261
-0.012115533 0.69099998 -0.025442619 5.3686589e-39 310 261
-0.01090398 0.69099998 -0.025442619 6.3824521e-39 311 261
-0.0096924258 0.69099998 -0.025442619 7.5788331e-39 312 261
-0.008480873 0.69099998 -0.025442619 7.3940831e-39 313 261
-0.0072587994 0.69 -0.025405798 7.5791834e-39 314 261
-0.0060489997 0.69 -0.025405798 7.4869878e-39 315 261
-0.0048462129 0.69099998 -0.025442619 7.0267257e-39 316 261
-0.0036346598 0.69099998 -0.025442619 6.4735519e-39 317 261
-0.0024231065 0.69099998 -0.025442619 6.286274e-39 318 261
-0.0012115532 0.69099998 -0.025442619 6.0096871e-39 319 261
0 0.69099998 -0.025442619 5.4557944e-39 320 261
0.0012115532 0.69099998 -0.025442619 5.6401857e-39 321 261
0.00243012 0.69300002 -0.02551626 5.4572392e-39 322 261
0.0036451798 0.69300002 -0.02551626 5.6412703e-39 323 261
0.0048672534 0.69400001 -0.025553079 6.1940811e-39 324 261
0.0060840664 0.69400001 -0.025553079 6.9316462e-39 325 261
0.0073008798 0.69400001 -0.025553079 6.1058456e-39 326 261
0.0085422397 0.69599998 -0.025626717 6.1058456e-39 327 261
0.0097765867 0.69700003 -0.025663542 6.6564984e-39 328 261
0.01099866 0.69700003 -0.025663542 6.6564984e-39 329 261
0.012220734 0.69700003 -0.025663542 6.8387261e-39 330 261
0.013462093 0.69800001 -0.025700359 6.5621378e-39 331 261
0.014727999 0.69999999 -0.025773998 6.0067976e-39 332 261
0.015978126 0.70099998 -0.025810819 5.8224049e-39 333 261
0.017256306 0.70300001 -0.025884461 5.7287688e-39 334 261
0.018515198 0.704 -0.02592128 6.0053543e-39 335 261
0.019833706 0.70700002 -0.02603174 5.9138817e-39 336 261
0.021103119 0.708 -0.026068559 6.3748598e-39 337 261
0.022407599 0.70999998 -0.026142199 6.4699267e-39 338 261
0.023685781 0.71100003 -0.026179021 7.6684699e-39 339 261
0.025037598 0.71399999 -0.026289478 9.3215046e-39 340 261
0.026289478 0.71399999 -0.026289478 1.0427852e-38 341 261
0.027618507 0.71600002 -0.026363119 1.4937504e-38 342 261
0.028873893 0.71600002 -0.026363119 1.751898e-38 343 261
-0.0479712 0.72000003 -0.027772799 1.6778896e-38 282 262
-0.046514176 0.71700001 -0.027657079 1.5488157e-38 283 262
-0.045067675 0.71399999 -0.02754136 1.3924835e-38 284 262
-0.043631699 0.71100003 -0.027425639 9.4076074e-39 285 262
-0.042325463 0.70999998 -0.027387066 3.2475092e-41 286 262
-0.041080594 0.70999998 -0.027387066 1.9711043e-39 287 262
-0.039835732 0.70999998 -0.027387066 5.831802e-39 288 262
-0.038427804 0.70700002 -0.027271347 7.0303438e-39 289 262
-0.037135597 0.70599997 -0.027232772 7.762483e-39 290 262
-0.035796054 0.704 -0.027155625 7.2093093e-39 291 262
-0.034512613 0.70300001 -0.027117053 6.932365e-39 292 262
-0.033280019 0.70300001 -0.027117053 7.0245607e-39 293 262
-0.031956252 0.70099998 -0.027039904 6.3824409e-39 294 262
-0.030683333 0.69999999 -0.027001332 6.8430603e-39 295 262
-0.029455997 0.69999999 -0.027001332 7.3033196e-39 296 262
-0.028228667 0.69999999 -0.027001332 7.4877108e-39 297 262
-0.027001332 0.69999999 -0.027001332 7.7642963e-39 298 262
-0.025700359 0.69800001 -0.026924185 7.948689e-39 299 262
-0.024476532 0.69800001 -0.026924185 7.9468869e-39 300 262
-0.023219392 0.69700003 -0.026885614 6.1955287e-39 301 262
-0.02199732 0.69700003 -0.026885614 5.457242e-39 302 262
-0.020745439 0.69599998 -0.026847038 5.457242e-39 303 262
-0.019469013 0.69400001 -0.026769891 6.4670737e-39 304 262
-0.018225901 0.69300002 -0.02673132 6.5592707e-39 305 262
-0.01701084 0.69300002 -0.02673132 7.1131676e-39 306 262
-0.015795778 0.69300002 -0.02673132 6.9287749e-39 307 262
-0.014538639 0.69099998 -0.026654173 6.3788409e-39 308 262
-0.013327086 0.69099998 -0.026654173 6.2866453e-39 309 262
-0.012115533 0.69099998 -0.026654173 5.7370729e-39 310 262
-0.01090398 0.69099998 -0.026654173 6.3824409e-39 311 262
-0.0096924258 0.69099998 -0.026654173 6.6597508e-39 312 262
-0.008480873 0.69099998 -0.026654173 5.6452402e-39 313 262
-0.0072693196 0.69099998 -0.026654173 4.8194284e-39 314 262
-0.0060577663 0.69099998 -0.026654173 5.5569934e-39 315 262
-0.0048462129 0.69099998 -0.026654173 6.473189e-39 316 262
-0.0036346598 0.69099998 -0.026654173 5.6434283e-39 317 262
-0.0024231065 0.69099998 -0.026654173 6.0086011e-39 318 262
-0.0012115532 0.69099998 -0.026654173 5.6394598e-39 319 262
0 0.69099998 -0.026654173 5.4532735e-39 320 262
0.00121506 0.69300002 -0.02673132 5.8220546e-39 321 262
0.00243012 0.69300002 -0.02673132 5.8235035e-39 322 262
0.0036504399 0.69400001 -0.026769891 5.8235035e-39 323 262
0.0048672534 0.69400001 -0.026769891 5.8252986e-39 324 262
0.0061015999 0.69599998 -0.026847038 6.9316462e-39 325 262
0.0073219193 0.69599998 -0.026847038 6.3809905e-39 326 262
0.0085422397 0.69599998 -0.026847038 6.4731862e-39 327 262
0.0097765867 0.69700003 -0.026885614 6.6564984e-39 328 262
0.01099866 0.69700003 -0.026885614 6.3802717e-39 329 262
0.012238266 0.69800001 -0.026924185 6.6543362e-39 330 262
0.013462093 0.69800001 -0.026924185 6.1933595e-39 331 262
0.014749039 0.70099998 -0.027039904 5.5465411e-39 332 262
0.016023712 0.70300001 -0.027117053 5.6387367e-39 333 262
0.017256306 0.70300001 -0.027117053 5.7294876e-39 334 262
0.018515198 0.704 -0.027155625 5.9142376e-39 335 262
0.019833706 0.70700002 -0.027271347 6.0071535e-39 336 262
0.021103119 0.708 -0.027309919 6.5599686e-39 337 262
0.022407599 0.70999998 -0.027387066 7.1134941e-39 338 262
0.023752406 0.713 -0.027502786 7.7588635e-39 339 262
0.025037598 0.71399999 -0.02754136 8.8616055e-39 340 262
0.026289478 0.71399999 -0.02754136 1.0336375e-38 341 262
0.027618507 0.71600002 -0.027618507 1.4937507e-38 342 262
0.028873893 0.71600002 -0.027618507 1.7334952e-38 343 262
-0.0479712 0.72000003 -0.029035201 1.687145e-38 282 263
-0.046514176 0.71700001 -0.028914221 1.5488157e-38 283 263
-0.045067675 0.71399999 -0.028793238 1.4109938e-38 284 263
-0.043754432 0.713 -0.028752912 9.6845488e-39 285 263
-0.042385083 0.71100003 -0.028672259 3.2112156e-41 286 263
-0.041138459 0.71100003 -0.028672259 2.3391637e-39 287 263
-0.039835732 0.70999998 -0.028631933 5.648487e-39 288 263
-0.038482159 0.708 -0.02855128 6.7548331e-39 289 263
-0.037188202 0.70700002 -0.028510952 7.7614068e-39 290 263
-0.035897743 0.70599997 -0.028470624 7.4848199e-39 291 263
-0.034561705 0.704 -0.028389972 7.1167577e-39 292 263
-0.033280019 0.70300001 -0.028349647 7.1167577e-39 293 263
-0.031956252 0.70099998 -0.028268991 6.4753568e-39 294 263
-0.030727165 0.70099998 -0.028268991 6.659748e-39 295 263
-0.029455997 0.69999999 -0.028228667 7.0274543e-39 296 263
-0.028228667 0.69999999 -0.028228667 7.3962369e-39 297 263
-0.027001332 0.69999999 -0.028228667 7.4884297e-39 298 263
-0.025773998 0.69999999 -0.028228667 7.7653767e-39 299 263
-0.024476532 0.69800001 -0.028148014 7.7642907e-39 300 263
-0.023252707 0.69800001 -0.028148014 6.0129339e-39 301 263
-0.02202888 0.69800001 -0.028148014 5.3650463e-39 302 263
-0.020745439 0.69599998 -0.028067358 5.2728507e-39 303 263
-0.019525118 0.69599998 -0.028067358 5.8238693e-39 304 263
-0.0182522 0.69400001 -0.027986705 5.6398382e-39 305 263
-0.01701084 0.69300002 -0.027946379 6.2852076e-39 306 263
-0.015795778 0.69300002 -0.027946379 6.65363e-39 307 263
-0.014580719 0.69300002 -0.027946379 6.4703177e-39 308 263
-0.01336566 0.69300002 -0.027946379 6.2859264e-39 309 263
-0.012150601 0.69300002 -0.027946379 5.9196649e-39 310 263
-0.01090398 0.69099998 -0.027865725 6.2880886e-39 311 263
-0.0096924258 0.69099998 -0.027865725 6.8412624e-39 312 263
-0.008480873 0.69099998 -0.027865725 5.8274692e-39 313 263
-0.0072693196 0.69099998 -0.027865725 4.6314414e-39 314 263
-0.0060577663 0.69099998 -0.027865725 5.7377889e-39 315 263
-0.0048462129 0.69099998 -0.027865725 6.3802717e-39 316 263
-0.0036346598 0.69099998 -0.027865725 5.6427066e-39 317 263
-0.0024231065 0.69099998 -0.027865725 5.6394626e-39 318 263
-0.0012115532 0.69099998 -0.027865725 5.3628757e-39 319 263
0 0.69300002 -0.027946379 5.1781313e-39 320 263
0.00121506 0.69300002 -0.027946379 5.8235007e-39 321 263
0.00243012 0.69300002 -0.027946379 5.734905e-39 322 263
0.0036609597 0.69599998 -0.028067358 5.9189362e-39 323 263
0.0048812795 0.69599998 -0.028067358 5.5530277e-39 324 263
0.0061015999 0.69599998 -0.028067358 6.2905928e-39 325 263
0.0073219193 0.69599998 -0.028067358 6.7490528e-39 326 263
0.0085422397 0.69599998 -0.028067358 6.9334454e-39 327 263
0.0097765867 0.69700003 -0.028107686 7.2075072e-39 328 263
0.01099866 0.69700003 -0.028107686 6.7465304e-39 329 263
0.012238266 0.69800001 -0.028148014 6.3770248e-39 330 263
0.013500666 0.69999999 -0.028228667 5.9160467e-39 331 263
0.014749039 0.70099998 -0.028268991 5.5458222e-39 332 263
0.016023712 0.70300001 -0.028349647 5.7298534e-39 333 263
0.017256306 0.70300001 -0.028349647 6.0049983e-39 334 263
0.018515198 0.704 -0.028389972 6.374141e-39 335 263
0.019833706 0.70700002 -0.028510952 6.1922636e-39 336 263
0.021103119 0.708 -0.02855128 6.8376331e-39 337 263
0.022407599 0.70999998 -0.028631933 7.2978867e-39 338 263
0.02378572 0.71399999 -0.028793238 7.3904411e-39 339 263
0.025037598 0.71399999 -0.028793238 7.5733848e-39 340 263
0.026363119 0.71600002 -0.028873893 1.0062665e-38 341 263
0.027657079 0.71700001 -0.028914221 1.5030058e-38 342 263
0.028914221 0.71700001 -0.028914221 1.7334949e-38 343 263
-0.0479712 0.72000003 -0.0302976 1.7148387e-38 282 264
-0.046449307 0.71600002 -0.03012928 1.5673257e-38 283 264
-0.045067675 0.71399999 -0.030045118 1.4477996e-38 284 264
-0.043815799 0.71399999 -0.030045118 1.0144801e-38 285 264
-0.042563915 0.71399999 -0.030045118 3.1390487e-41 286 264
-0.041254178 0.713 -0.030003037 2.4309964e-39 287 264
-0.039891839 0.71100003 -0.029918881 5.4637384e-39 288 264
-0.038590867 0.70999998 -0.029876797 6.2016622e-39 289 264
-0.037188202 0.70700002 -0.029750559 7.0263627e-39 290 264
-0.035897743 0.70599997 -0.029708479 6.9341671e-39 291 264
-0.034561705 0.704 -0.029624319 7.1164046e-39 292 264
-0.03332736 0.704 -0.029624319 7.1164046e-39 293 264
-0.032047424 0.70300001 -0.029582238 6.3828052e-39 294 264
-0.030727165 0.70099998 -0.029498078 6.5675552e-39 295 264
-0.029455997 0.69999999 -0.029455997 6.5679181e-39 296 264
-0.028228667 0.69999999 -0.029455997 6.9370608e-39 297 264
-0.027001332 0.69999999 -0.029455997 7.3051174e-39 298 264
-0.025773998 0.69999999 -0.029455997 7.6739e-39 299 264
-0.024546666 0.69999999 -0.029455997 7.6720979e-39 300 264
-0.023252707 0.69800001 -0.029371841 6.3813591e-39 301 264
-0.02202888 0.69800001 -0.029371841 6.2866425e-39 302 264
-0.020775247 0.69700003 -0.02932976 5.8256657e-39 303 264
-0.019525118 0.69599998 -0.029287677 5.7334729e-39 304 264
-0.0182522 0.69400001 -0.029203519 5.4572448e-39 305 264
-0.017035386 0.69400001 -0.029203519 5.9185859e-39 306 264
-0.015818574 0.69400001 -0.029203519 6.1029771e-39 307 264
-0.014580719 0.69300002 -0.029161438 6.1022582e-39 308 264
-0.01336566 0.69300002 -0.029161438 5.917867e-39 309 264
-0.012150601 0.69300002 -0.029161438 5.642722e-39 310 264
-0.010935539 0.69300002 -0.029161438 5.8271133e-39 311 264
-0.0097204801 0.69300002 -0.029161438 6.0122276e-39 312 264
-0.0085054198 0.69300002 -0.029161438 5.7356393e-39 313 264
-0.0072693196 0.69099998 -0.029077278 5.642722e-39 314 264
-0.0060577663 0.69099998 -0.029077278 5.9196677e-39 315 264
-0.00486024 0.69300002 -0.029161438 5.9214543e-39 316 264
-0.0036346598 0.69099998 -0.029077278 6.1058456e-39 317 264
-0.0024231065 0.69099998 -0.029077278 6.8376457e-39 318 264
-0.00121506 0.69300002 -0.029161438 6.9302014e-39 319 264
0 0.69300002 -0.029161438 6.7465332e-39 320 264
0.0012168133 0.69400001 -0.029203519 7.1149556e-39 321 264
0.0024336267 0.69400001 -0.029203519 7.2089533e-39 322 264
0.0036609597 0.69599998 -0.029287677 7.301149e-39 323 264
0.0048812795 0.69599998 -0.029287677 7.3926243e-39 324 264
0.0061015999 0.69599998 -0.029287677 7.5770156e-39 325 264
0.0073219193 0.69599998 -0.029287677 8.1269496e-39 326 264
0.0085422397 0.69599998 -0.029287677 8.0347539e-39 327 264
0.0097765867 0.69700003 -0.02932976 7.5730471e-39 328 264
0.01099866 0.69700003 -0.02932976 6.2823083e-39 329 264
0.012238266 0.69800001 -0.029371841 4.7203776e-39 330 264
0.013500666 0.69999999 -0.029455997 4.9966043e-39 331 264
0.014749039 0.70099998 -0.029498078 5.8216889e-39 332 264
0.016023712 0.70300001 -0.029582238 5.8216889e-39 333 264
0.017280852 0.704 -0.029624319 6.374857e-39 334 264
0.018515198 0.704 -0.029624319 6.8358352e-39 335 264
0.019833706 0.70700002 -0.029750559 6.930179e-39 336 264
0.021162732 0.70999998 -0.029876797 7.3911572e-39 337 264
0.022439159 0.71100003 -0.029918881 7.5741009e-39 338 264
0.02378572 0.71399999 -0.030045118 6.3759164e-39 339 264
0.025107734 0.71600002 -0.03012928 7.0187621e-39 340 264
0.02639994 0.71700001 -0.030171359 1.043e-38 341 264
0.027734226 0.71899998 -0.030255521 1.5029702e-38 342 264
0.028994869 0.71899998 -0.030255521 1.7334952e-38 343 264
-0.0479712 0.72000003 -0.03156 1.7424265e-38 282 265
-0.046449307 0.71600002 -0.031384666 1.5765102e-38 283 265
-0.045067675 0.71399999 -0.031296998 1.4753504e-38 284 265
-0.043815799 0.71399999 -0.031296998 1.0973483e-38 285 265
-0.042563915 0.71399999 -0.031296998 6.756837e-40 286 265
-0.041254178 0.713 -0.031253166 2.6117905e-39 287 265
-0.039891839 0.71100003 -0.031165501 6.1065911e-39 288 265
-0.038590867 0.70999998 -0.031121666 6.8441561e-39 289 265
-0.0372408 0.708 -0.031034 7.1160374e-39 290 265
-0.035897743 0.70599997 -0.030946331 7.1160374e-39 291 265
-0.034659892 0.70599997 -0.030946331 7.2993497e-39 292 265
-0.03332736 0.704 -0.030858666 7.2071541e-39 293 265
-0.032047424 0.70300001 -0.030814834 6.5650343e-39 294 265
-0.030727165 0.70099998 -0.030727165 6.7490654e-39 295 265
-0.029498078 0.70099998 -0.030727165 6.6586718e-39 296 265
-0.028268991 0.70099998 -0.030727165 6.9352587e-39 297 265
-0.027001332 0.69999999 -0.030683333 7.0281746e-39 298 265
-0.025773998 0.69999999 -0.030683333 7.7657397e-39 299 265
-0.024546666 0.69999999 -0.030683333 7.5806309e-39 300 265
-0.023252707 0.69800001 -0.030595668 5.6445227e-39 301 265
-0.02202888 0.69800001 -0.030595668 4.4466998e-39 302 265
-0.020775247 0.69700003 -0.030551834 3.155961e-39 303 265
-0.019553173 0.69700003 -0.030551834 4.5342137e-39 304 265
-0.018304799 0.69599998 -0.030507999 4.9948317e-39 305 265
-0.017035386 0.69400001 -0.030420333 6.4692359e-39 306 265
-0.015818574 0.69400001 -0.030420333 6.5614315e-39 307 265
-0.014580719 0.69300002 -0.0303765 6.1015296e-39 308 265
-0.01336566 0.69300002 -0.0303765 6.0093339e-39 309 265
-0.012150601 0.69300002 -0.0303765 5.5508795e-39 310 265
-0.010935539 0.69300002 -0.0303765 6.2884446e-39 311 265
-0.0097204801 0.69300002 -0.0303765 6.3799241e-39 312 265
-0.0085054198 0.69300002 -0.0303765 4.627847e-39 313 265
-0.0072903596 0.69300002 -0.0303765 5.4576077e-39 314 265
-0.0060753003 0.69300002 -0.0303765 6.1951741e-39 315 265
-0.00486024 0.69300002 -0.0303765 6.7494157e-39 316 265
-0.0036451798 0.69300002 -0.0303765 7.210754e-39 317 265
-0.00243012 0.69300002 -0.0303765 7.3947725e-39 318 265
-0.00121506 0.69300002 -0.0303765 7.4869681e-39 319 265
0 0.69400001 -0.030420333 7.0277851e-39 320 265
0.0012203199 0.69599998 -0.030507999 7.1199807e-39 321 265
0.0024406398 0.69599998 -0.030507999 7.3000587e-39 322 265
0.0036609597 0.69599998 -0.030507999 6.7468864e-39 323 265
0.0048812795 0.69599998 -0.030507999 6.6525355e-39 324 265
0.0061103669 0.69700003 -0.030551834 5.546188e-39 325 265
0.00733244 0.69700003 -0.030551834 5.3589255e-39 326 265
0.0085545136 0.69700003 -0.030551834 4.7135561e-39 327 265
0.0097906133 0.69800001 -0.030595668 4.4380482e-39 328 265
0.01101444 0.69800001 -0.030595668 4.3458525e-39 329 265
0.012273333 0.69999999 -0.030683333 5.2678088e-39 330 265
0.013519952 0.70099998 -0.030727165 5.9131782e-39 331 265
0.014791119 0.70300001 -0.030814834 5.6412577e-39 332 265
0.016046507 0.704 -0.030858666 5.8256489e-39 333 265
0.017280852 0.704 -0.030858666 6.2869774e-39 334 265
0.0186204 0.708 -0.031034 6.8401512e-39 335 265
0.01986176 0.708 -0.031034 7.6663147e-39 336 265
0.021162732 0.70999998 -0.031121666 7.6663147e-39 337 265
0.022439159 0.71100003 -0.031165501 7.7556293e-39 338 265
0.02378572 0.71399999 -0.031296998 6.5570875e-39 339 265
0.025107734 0.71600002 -0.031384666 7.7523769e-39 340 265
0.02639994 0.71700001 -0.031428497 1.1163975e-38 341 265
0.027772799 0.72000003 -0.03156 1.4937504e-38 342 265
0.029035201 0.72000003 -0.03156 1.7150558e-38 343 265
-0.046449307 0.71600002 -0.032640055 1.6226081e-38 283 266
-0.045193922 0.71600002 -0.032640055 1.4938617e-38 284 266
-0.043938532 0.71600002 -0.032640055 1.10664e-38 285 266
-0.042563915 0.71399999 -0.032548878 1.045541e-39 286 266
-0.041254178 0.713 -0.032503292 2.9816492e-39 287 266
-0.039891839 0.71100003 -0.032412119 5.8300028e-39 288 266
-0.038590867 0.70999998 -0.032366529 5.9221984e-39 289 266
-0.0372408 0.708 -0.03227536 6.9305714e-39 290 266
-0.035948593 0.70700002 -0.032229774 7.1149612e-39 291 266
-0.034659892 0.70599997 -0.032184184 7.2060821e-39 292 266
-0.033422034 0.70599997 -0.032184184 7.2060821e-39 293 266
-0.032093015 0.704 -0.032093015 6.471038e-39 294 266
-0.030814834 0.70300001 -0.032047424 6.471038e-39 295 266
-0.029582238 0.70300001 -0.032047424 6.3806374e-39 296 266
-0.028268991 0.70099998 -0.031956252 6.7494185e-39 297 266
-0.027039904 0.70099998 -0.031956252 6.8412624e-39 298 266
-0.025773998 0.69999999 -0.031910665 7.7635774e-39 299 266
-0.024546666 0.69999999 -0.031910665 8.3145988e-39 300 266
-0.023252707 0.69800001 -0.031819493 6.2859362e-39 301 266
-0.02202888 0.69800001 -0.031819493 3.4354247e-39 302 266
-0.020775247 0.69700003 -0.03177391 1.7755432e-39 303 266
-0.019553173 0.69700003 -0.03177391 3.8877639e-39 304 266
-0.018331099 0.69700003 -0.03177391 3.9799595e-39 305 266
-0.017084479 0.69599998 -0.031728316 5.9146174e-39 306 266
-0.015864158 0.69599998 -0.031728316 6.744378e-39 307 266
-0.014580719 0.69300002 -0.031591557 5.8242224e-39 308 266
-0.01336566 0.69300002 -0.031591557 5.4554413e-39 309 266
-0.012150601 0.69300002 -0.031591557 5.5483586e-39 310 266
-0.010935539 0.69300002 -0.031591557 6.4703149e-39 311 266
-0.0097204801 0.69300002 -0.031591557 7.4804857e-39 312 266
-0.0085054198 0.69300002 -0.031591557 5.9127999e-39 313 266
-0.0072903596 0.69300002 -0.031591557 5.546897e-39 314 266
-0.0060753003 0.69300002 -0.031591557 6.9298315e-39 315 266
-0.00486024 0.69300002 -0.031591557 8.1269524e-39 316 266
-0.0036451798 0.69300002 -0.031591557 8.5875718e-39 317 266
-0.00243012 0.69300002 -0.031591557 8.8630699e-39 318 266
-0.0012168133 0.69400001 -0.031637147 8.6783185e-39 319 266
0 0.69599998 -0.031728316 7.9425387e-39 320 266
0.0012203199 0.69599998 -0.031728316 7.3890048e-39 321 266
