# .PCD v.7 - Point Cloud Data file format
FIELDS x y z rgb imX imY
SIZE 4 4 4 4 4 4
TYPE F F F F F F
COUNT 1 1 1 1 1 1
WIDTH 846
HEIGHT 1
VIEWPOINT 0 0 0 1 0 0 0
POINTS 846
DATA ascii
-0.047666121 0.59100002 0.081861384 1.3962552e-39 274 161
-0.046393197 0.588 0.081445836 1.8572319e-39 275 161
-0.045207947 0.58600003 0.081168815 4.2370361e-39 276 161
-0.044105098 0.58499998 0.081030294 4.0526448e-39 277 161
-0.043079399 0.58499998 0.081030294 7.2600349e-39 278 161
-0.041981813 0.58399999 0.080891781 7.3522319e-39 279 161
-0.040957868 0.58399999 0.080891781 9.8317791e-39 280 161
-0.039865538 0.583 0.080753267 1.0108362e-38 281 161
-0.038843345 0.583 0.080753267 1.1578447e-38 282 161
-0.037756279 0.58200002 0.080614761 1.2223811e-38 283 161
-0.036672715 0.58099997 0.080476239 1.2686238e-38 284 161
-0.035654031 0.58099997 0.080476239 1.3608194e-38 285 161
-0.034635346 0.58099997 0.080476239 1.3429564e-38 286 161
-0.033558797 0.57999998 0.080337733 1.4443716e-38 287 161
-0.032541864 0.57999998 0.080337733 1.4354764e-38 288 161
-0.03152493 0.57999998 0.080337733 1.3525003e-38 289 161
-0.030560596 0.58099997 0.080476239 1.1671754e-38 290 161
-0.029541912 0.58099997 0.080476239 1.0012234e-38 291 161
-0.028621411 0.583 0.080753267 8.1801989e-39 292 161
-0.027693897 0.58499998 0.081030294 8.2723959e-39 293 161
-0.026713787 0.58600003 0.081168815 8.1809192e-39 294 161
-0.025730167 0.58700001 0.081307329 8.3653104e-39 295 161
-0.024743039 0.588 0.081445836 8.3653132e-39 296 161
-0.023752406 0.58899999 0.081584349 8.3653132e-39 297 161
-0.022758266 0.58999997 0.081722856 8.3656762e-39 298 161
-0.021723798 0.58999997 0.081722856 8.3656762e-39 299 161
-0.020689331 0.58999997 0.081722856 8.365679e-39 300 161
-0.019721493 0.59200001 0.081999891 8.365679e-39 301 161
-0.018683519 0.59200001 0.081999891 8.365679e-39 302 161
-0.017705159 0.59399998 0.082276918 8.365679e-39 303 161
-0.016691733 0.59500003 0.082415432 8.3660321e-39 304 161
-0.0156748 0.59600002 0.082553945 8.3660321e-39 305 161
-0.014654359 0.597 0.082692459 8.6408183e-39 306 161
-0.013630413 0.59799999 0.082830973 8.6408183e-39 307 161
-0.012602959 0.59899998 0.082969479 8.5497045e-39 308 161
-0.011572001 0.60000002 0.083108 8.5497045e-39 309 161
-0.010572599 0.60299999 0.083523534 8.7319055e-39 310 161
-0.009578459 0.60699999 0.084077589 1.1221185e-38 311 161
-0.008528213 0.60799998 0.084216103 1.288569e-38 312 161
-0.0074744597 0.60900003 0.084354624 1.4452657e-38 313 161
-0.0064066802 0.60900003 0.084354624 1.3169089e-38 314 161
-0.0053476668 0.61000001 0.084493138 1.3169089e-38 315 161
-0.0042781332 0.61000001 0.084493138 1.3445309e-38 316 161
-0.0032086 0.61000001 0.084493138 1.3445309e-38 317 161
-0.0021460799 0.61199999 0.084770158 1.3261641e-38 318 161
-0.0010747933 0.61299998 0.084908664 1.3537869e-38 319 161
0 0.61400002 0.085047185 1.3629704e-38 320 161
0.0010888199 0.62099999 0.086016774 1.37219e-38 321 161
0.0021811465 0.62199998 0.086155288 1.3446758e-38 322 161
0.0032717197 0.62199998 0.086155288 1.3354203e-38 323 161
0.0043693068 0.62300003 0.086293809 1.3537518e-38 324 161
0.0054616337 0.62300003 0.086293809 1.3537518e-38 325 161
0.0065644798 0.62400001 0.086432323 1.3170891e-38 326 161
0.0076953797 0.62699997 0.086847849 1.3170891e-38 327 161
0.0088087469 0.62800002 0.086986378 1.3262009e-38 328 161
0.0099571794 0.63099998 0.087401912 1.3354206e-38 329 161
0.011116133 0.634 0.087817445 1.317126e-38 330 161
0.012266319 0.63599998 0.088094473 1.3079064e-38 331 161
0.01340248 0.63700002 0.088232994 1.3078708e-38 332 161
0.014542148 0.63800001 0.088371508 1.3078708e-38 333 161
0.015709866 0.63999999 0.088648528 1.3170541e-38 334 161
0.016831998 0.63999999 0.088648528 1.3170541e-38 335 161
0.017982185 0.64099997 0.088787034 1.3170541e-38 336 161
0.019106071 0.64099997 0.088787034 1.3354572e-38 337 161
0.020261521 0.64200002 0.088925563 1.2988301e-38 338 161
0.021420473 0.64300001 0.089064069 1.2988301e-38 339 161
0.022547867 0.64300001 0.089064069 1.2896102e-38 340 161
0.02371208 0.64399999 0.089202583 1.2803905e-38 341 161
0.024918374 0.64600003 0.08947961 1.3169458e-38 342 161
0.026212333 0.64999998 0.090033658 1.3169458e-38 343 161
0.027520318 0.65399998 0.09058772 1.3261656e-38 344 161
0.028710833 0.65499997 0.090726227 1.3261656e-38 345 161
0.029996024 0.65799999 0.091141768 1.3077995e-38 346 161
0.031291738 0.66100001 0.091557316 1.3077995e-38 347 161
0.032548878 0.66299999 0.091834337 1.3077639e-38 348 161
0.033762183 0.66399997 0.091972843 1.2985442e-38 349 161
0.035031598 0.66600001 0.092249878 1.3168035e-38 350 161
0.036253672 0.667 0.092388391 1.3168035e-38 351 161
0.037479252 0.66799998 0.092526905 1.3258436e-38 352 161
0.038824059 0.671 0.092942439 1.3258436e-38 353 161
0.040000543 0.671 0.092942439 1.307477e-38 354 161
0.041238401 0.67199999 0.093080953 1.307477e-38 355 161
0.042606 0.67500001 0.093496501 1.3165887e-38 356 161
0.043854371 0.676 0.093635008 1.3165887e-38 357 161
0.045172878 0.67799997 0.093912028 1.3442126e-38 358 161
0.046635158 0.68199998 0.09446609 1.4363724e-38 359 161
0.047901068 0.68300003 0.094604604 1.1134754e-38 360 161
0.049314249 0.68599999 0.095020145 9.4748726e-39 361 161
0.050517038 0.68599999 0.095020145 8.9253183e-39 362 161
0.052096792 0.69099998 0.095712706 8.4643402e-39 363 161
0.053694077 0.69599998 0.096405275 8.5554596e-39 364 161
0.054993302 0.69700003 0.096543796 8.2792315e-39 365 161
0.056296028 0.69800001 0.09668231 8.1873988e-39 366 161
0.057767071 0.70099998 0.097097836 8.0952031e-39 367 161
0.059164476 0.70300001 0.097374871 8.0937654e-39 368 161
0.06039707 0.70300001 0.097374871 8.3699922e-39 369 161
0.061717331 0.704 0.097513385 9.8551864e-39 370 161
0.062951677 0.704 0.097513385 1.2251914e-38 371 161
0.064186029 0.704 0.097513385 1.1243512e-38 372 161
0.065420374 0.704 0.097513385 1.15201e-38 373 161
-0.078715898 0.61500001 0.084107399 6.7270216e-39 247 162
-0.077637598 0.61500001 0.084107399 1.1758211e-38 248 162
-0.076683782 0.616 0.084244154 1.1850408e-38 249 162
-0.075603731 0.616 0.084244154 1.1847885e-38 250 162
-0.074402697 0.61500001 0.084107399 1.2032274e-38 251 162
-0.073205173 0.61400002 0.083970644 9.8336204e-39 252 162
-0.072128624 0.61400002 0.083970644 9.373001e-39 253 162
-0.071052082 0.61400002 0.083970644 2.8584177e-39 254 162
-0.069975533 0.61400002 0.083970644 1.1988963e-39 255 162
-0.068001278 0.60600001 0.082876563 1.4475413e-42 256 162
-0.066717833 0.60399997 0.082603037 8.4866853e-39 257 162
-0.065658823 0.60399997 0.082603037 1.3557832e-38 258 162
-0.064813718 0.60600001 0.082876563 1.2912462e-38 259 162
-0.063540794 0.60399997 0.082603037 1.2544392e-38 260 162
-0.06248178 0.60399997 0.082603037 1.2451837e-38 261 162
-0.061321076 0.60299999 0.082466274 1.2822065e-38 262 162
-0.060163878 0.602 0.082329519 1.2637673e-38 263 162
-0.059108369 0.602 0.082329519 1.0240937e-38 264 162
-0.058052868 0.602 0.082329519 8.9505571e-39 265 162
-0.05671332 0.59899998 0.081919238 1.2545089e-38 266 162
-0.055663068 0.59899998 0.081919238 1.2821675e-38 267 162
-0.054430481 0.597 0.08164572 1.3367293e-38 268 162
-0.053383738 0.597 0.08164572 1.0140446e-38 269 162
-0.052161667 0.59500003 0.081372201 2.3113577e-39 270 162
-0.051032517 0.59399998 0.081235431 3.7524951e-40 271 162
-0.049991038 0.59399998 0.081235431 1.1142635e-39 272 162
-0.048867151 0.59299999 0.081098676 1.4826859e-39 273 162
-0.047746774 0.59200001 0.08096192 6.5833983e-40 274 162
-0.046629902 0.59100002 0.080825165 1.0267622e-39 275 162
-0.045362238 0.588 0.080414876 2.0347905e-39 276 162
-0.044180494 0.58600003 0.080141358 2.4957686e-39 277 162
-0.043079399 0.58499998 0.080004595 3.6889014e-39 278 162
-0.041981813 0.58399999 0.079867832 3.1357276e-39 279 162
-0.040957868 0.58399999 0.079867832 4.6958436e-39 280 162
-0.039865538 0.583 0.079731077 4.3270611e-39 281 162
-0.038843345 0.583 0.079731077 8.9138151e-39 282 162
-0.037756279 0.58200002 0.079594314 9.2825976e-39 283 162
-0.036672715 0.58099997 0.079457551 1.1760358e-38 284 162
-0.035654031 0.58099997 0.079457551 1.1944389e-38 285 162
-0.034635346 0.58099997 0.079457551 1.2497548e-38 286 162
-0.033558797 0.57999998 0.079320796 1.3235113e-38 287 162
-0.032541864 0.57999998 0.079320796 1.3055026e-38 288 162
-0.03152493 0.57999998 0.079320796 1.2778081e-38 289 162
-0.030560596 0.58099997 0.079457551 1.0753024e-38 290 162
-0.029541912 0.58099997 0.079457551 9.5544803e-39 291 162
-0.028621411 0.583 0.079731077 8.3638643e-39 292 162
-0.027693897 0.58499998 0.080004595 8.3638643e-39 293 162
-0.026713787 0.58600003 0.080141358 8.3645916e-39 294 162
-0.025730167 0.58700001 0.080278113 8.3645916e-39 295 162
-0.024743039 0.588 0.080414876 8.5486227e-39 296 162
-0.023752406 0.58899999 0.080551632 8.5486227e-39 297 162
-0.022758266 0.58999997 0.080688395 8.3649573e-39 298 162
-0.021723798 0.58999997 0.080688395 8.4571529e-39 299 162
-0.020689331 0.58999997 0.080688395 8.640468e-39 300 162
-0.019721493 0.59200001 0.08096192 8.5482724e-39 301 162
-0.01871508 0.59299999 0.081098676 8.3649601e-39 302 162
-0.017705159 0.59399998 0.081235431 8.4571557e-39 303 162
-0.016719786 0.59600002 0.081508964 8.4575061e-39 304 162
-0.0156748 0.59600002 0.081508964 8.4575061e-39 305 162
-0.014678906 0.59799999 0.081782483 8.6422532e-39 306 162
-0.013653206 0.59899998 0.081919238 8.6422532e-39 307 162
-0.012602959 0.59899998 0.081919238 8.5507737e-39 308 162
-0.011591286 0.60100001 0.082192764 8.6429707e-39 309 162
-0.010642732 0.60699999 0.083013318 1.0113384e-38 310 162
-0.0095942393 0.60799998 0.083150074 1.2971084e-38 311 162
-0.008528213 0.60799998 0.083150074 1.3534632e-38 312 162
-0.0074744597 0.60900003 0.083286844 1.3534632e-38 313 162
-0.0064066802 0.60900003 0.083286844 1.3353464e-38 314 162
-0.0053476668 0.61000001 0.0834236 1.3353464e-38 315 162
-0.0042781332 0.61000001 0.0834236 1.3536783e-38 316 162
-0.0032191197 0.61199999 0.083697118 1.3720814e-38 317 162
-0.0021460799 0.61199999 0.083697118 1.3354192e-38 318 162
-0.0010747933 0.61299998 0.083833873 1.3538225e-38 319 162
0 0.61900002 0.084654443 1.3538225e-38 320 162
0.0010888199 0.62099999 0.084927954 1.363042e-38 321 162
0.0021811465 0.62199998 0.085064717 1.3537872e-38 322 162
0.0032717197 0.62199998 0.085064717 1.3537872e-38 323 162
0.0043693068 0.62300003 0.085201479 1.3630423e-38 324 162
0.0054704002 0.62400001 0.085338242 1.3630423e-38 325 162
0.006575 0.625 0.085474998 1.3537869e-38 326 162
0.0077076531 0.62800002 0.085885279 1.3537869e-38 327 162
0.0088227736 0.62900001 0.086022034 1.3537518e-38 328 162
0.0099729598 0.63200003 0.086432323 1.3537518e-38 329 162
0.011133666 0.63499999 0.086842597 1.3170541e-38 330 162
0.012266319 0.63599998 0.086979352 1.3354572e-38 331 162
0.01340248 0.63700002 0.087116122 1.3170544e-38 332 162
0.014542148 0.63800001 0.087252878 1.3170544e-38 333 162
0.015709866 0.63999999 0.087526396 1.3170541e-38 334 162
0.016831998 0.63999999 0.087526396 1.3170541e-38 335 162
0.017982185 0.64099997 0.087663151 1.3354209e-38 336 162
0.019106071 0.64099997 0.087663151 1.3446405e-38 337 162
0.020261521 0.64200002 0.087799914 1.317161e-38 338 162
0.021420473 0.64300001 0.087936677 1.3079414e-38 339 162
0.022582933 0.64399999 0.088073432 1.3079414e-38 340 162
0.023785722 0.64600003 0.088346958 1.2987217e-38 341 162
0.024956945 0.64700001 0.088483714 1.316946e-38 342 162
0.02637364 0.65399998 0.089441031 1.3261656e-38 343 162
0.027562398 0.65499997 0.089577794 1.3261656e-38 344 162
0.028798498 0.65700001 0.08985132 1.3261656e-38 345 162
0.030041611 0.65899998 0.090124831 1.3077988e-38 346 162
0.031386416 0.66299999 0.090671875 1.3077988e-38 347 162
0.032548878 0.66299999 0.090671875 1.3169104e-38 348 162
0.033762183 0.66399997 0.090808637 1.3169104e-38 349 162
0.035031598 0.66600001 0.091082163 1.3168391e-38 350 162
0.036253672 0.667 0.091218919 1.3076196e-38 351 162
0.037479252 0.66799998 0.091355674 1.3075124e-38 352 162
0.038824059 0.671 0.091765963 1.3075124e-38 353 162
0.040000543 0.671 0.091765963 1.2982572e-38 354 162
0.041361131 0.67400002 0.092176244 1.2982572e-38 355 162
0.042606 0.67500001 0.092312999 1.2982575e-38 356 162
0.043854371 0.676 0.092449754 1.2982575e-38 357 162
0.045239504 0.67900002 0.092860043 1.3349931e-38 358 162
0.04670354 0.68300003 0.09340708 1.4363724e-38 359 162
0.0479712 0.68400002 0.093543842 1.1226227e-38 360 162
0.049386136 0.68699998 0.093954116 9.382314e-39 361 162
0.050664321 0.68800002 0.094090879 9.1082663e-39 362 162
0.052096792 0.69099998 0.094501153 8.7394851e-39 363 162
0.053694077 0.69599998 0.095184952 8.5550967e-39 364 162
0.054993302 0.69700003 0.095321722 8.5550967e-39 365 162
0.056457333 0.69999999 0.095731996 8.4625465e-39 366 162
0.057767071 0.70099998 0.095868751 8.3699922e-39 367 162
0.059164476 0.70300001 0.096142277 8.1866799e-39 368 162
0.06039707 0.70300001 0.096142277 8.5554624e-39 369 162
0.061717331 0.704 0.096279033 1.0040652e-38 370 162
0.063130513 0.70599997 0.096552551 1.2068958e-38 371 162
0.064368367 0.70599997 0.096552551 1.1152396e-38 372 162
0.065699153 0.70700002 0.096689314 1.1336428e-38 373 162
-0.078843892 0.616 0.083164103 7.0021609e-39 247 163
-0.077763841 0.616 0.083164103 1.1760361e-38 248 163
-0.076559298 0.61500001 0.083029099 1.1760361e-38 249 163
-0.075480998 0.61500001 0.083029099 1.1941155e-38 250 163
-0.074402697 0.61500001 0.083029099 1.1941155e-38 251 163
-0.073085941 0.61299998 0.082759075 9.9261747e-39 252 163
-0.07201115 0.61299998 0.082759075 9.4651966e-39 253 163
-0.070936359 0.61299998 0.082759075 2.8584177e-39 254 163
-0.069177762 0.60699999 0.08194904 1.106342e-39 255 163
-0.068001278 0.60600001 0.081814036 3.2622228e-42 256 163
-0.066938758 0.60600001 0.081814036 9.6838034e-39 257 163
-0.065876238 0.60600001 0.081814036 1.3559985e-38 258 163
-0.064813718 0.60600001 0.081814036 1.1992301e-38 259 163
-0.063751198 0.60600001 0.081814036 1.1809342e-38 260 163
-0.06248178 0.60399997 0.081544019 1.2085929e-38 261 163
-0.061422769 0.60399997 0.081544019 1.1810808e-38 262 163
-0.060263816 0.60299999 0.081409015 1.1718253e-38 263 163
-0.059206553 0.60299999 0.081409015 1.1625326e-38 264 163
-0.058149301 0.60299999 0.081409015 1.1901553e-38 265 163
-0.05671332 0.59899998 0.080868989 1.1903335e-38 266 163
-0.055663068 0.59899998 0.080868989 1.2548705e-38 267 163
-0.054612823 0.59899998 0.080868989 1.411027e-38 268 163
-0.053383738 0.597 0.08059898 1.0238053e-38 269 163
-0.052161667 0.59500003 0.080328971 2.9527839e-39 270 163
-0.051118433 0.59500003 0.080328971 1.86915e-40 271 163
-0.049991038 0.59399998 0.080193959 1.3858211e-39 272 163
-0.048949558 0.59399998 0.080193959 1.5702124e-39 273 163
-0.047827426 0.59299999 0.080058947 8.3661582e-40 274 163
-0.046708796 0.59200001 0.079923943 9.2881285e-40 275 163
-0.045516532 0.58999997 0.079653926 8.3913676e-40 276 163
-0.044331279 0.588 0.079383917 1.023528e-39 277 163
-0.043079399 0.58499998 0.078978896 7.5125152e-40 278 163
-0.042053696 0.58499998 0.078978896 8.4380588e-40 279 163
-0.040957868 0.58399999 0.078843892 1.3040596e-39 280 163
-0.039933916 0.58399999 0.078843892 8.4308141e-40 281 163
-0.038843345 0.583 0.07870888 7.6310048e-39 282 163
-0.037821155 0.583 0.07870888 7.7232004e-39 283 163
-0.036735836 0.58200002 0.078573883 1.1573817e-38 284 163
-0.035654031 0.58099997 0.078438871 1.1297232e-38 285 163
-0.034635346 0.58099997 0.078438871 1.1663496e-38 286 163
-0.033616655 0.58099997 0.078438871 1.1663496e-38 287 163
-0.03259797 0.58099997 0.078438871 1.1663129e-38 288 163
-0.031579286 0.58099997 0.078438871 1.1295781e-38 289 163
-0.030560596 0.58099997 0.078438871 9.8296407e-39 290 163
-0.029541912 0.58099997 0.078438871 9.8296407e-39 291 163
-0.028621411 0.583 0.07870888 8.7308531e-39 292 163
-0.027693897 0.58499998 0.078978896 8.8230488e-39 293 163
-0.026713787 0.58600003 0.079113908 8.4557054e-39 294 163
-0.025730167 0.58700001 0.079248913 8.5482597e-39 295 163
-0.024743039 0.588 0.079383917 8.6400994e-39 296 163
-0.023792733 0.58999997 0.079653926 8.7326538e-39 297 163
-0.022758266 0.58999997 0.079653926 8.6408239e-39 298 163
-0.021723798 0.58999997 0.079653926 8.6408239e-39 299 163
-0.020724401 0.59100002 0.079788938 8.6404708e-39 300 163
-0.019754807 0.59299999 0.080058947 8.5482752e-39 301 163
-0.018746639 0.59399998 0.080193959 8.4571557e-39 302 163
-0.017705159 0.59399998 0.080193959 8.4571557e-39 303 163
-0.016719786 0.59600002 0.080463976 8.6408183e-39 304 163
-0.0157011 0.597 0.08059898 8.7333727e-39 305 163
-0.014678906 0.59799999 0.080733977 8.6429735e-39 306 163
-0.013653206 0.59899998 0.080868989 8.5507765e-39 307 163
-0.012624 0.60000002 0.081004001 8.4585752e-39 308 163
-0.011687719 0.60600001 0.081814036 9.1961403e-39 309 163
-0.010642732 0.60699999 0.08194904 1.1406635e-38 310 163
-0.0095942393 0.60799998 0.082084045 1.3803363e-38 311 163
-0.008528213 0.60799998 0.082084045 1.3719392e-38 312 163
-0.0074744597 0.60900003 0.082219057 1.3627196e-38 313 163
-0.0064172 0.61000001 0.082354069 1.3720817e-38 314 163
-0.0053476668 0.61000001 0.082354069 1.3720817e-38 315 163
-0.0042781332 0.61000001 0.082354069 1.3720464e-38 316 163
-0.0032191197 0.61199999 0.082624078 1.3812661e-38 317 163
-0.0021495866 0.61299998 0.082759075 1.363042e-38 318 163
-0.0010782999 0.61500001 0.083029099 1.363042e-38 319 163
0 0.61799997 0.083434112 1.363042e-38 320 163
0.0010870666 0.62 0.083704136 1.363042e-38 321 163
0.0021811465 0.62199998 0.083974138 1.3630423e-38 322 163
0.00327698 0.62300003 0.08410915 1.3722619e-38 323 163
0.0043693068 0.62300003 0.08410915 1.3722616e-38 324 163
0.0054704002 0.62400001 0.084244154 1.3722616e-38 325 163
0.0065960395 0.62699997 0.084649175 1.3721544e-38 326 163
0.0077199261 0.62900001 0.084919192 1.3721544e-38 327 163
0.0088367993 0.63 0.085054196 1.3628995e-38 328 163
0.010004519 0.634 0.085594222 1.3628995e-38 329 163
0.011133666 0.63499999 0.085729234 1.362972e-38 330 163
0.012266319 0.63599998 0.085864238 1.362972e-38 331 163
0.01340248 0.63700002 0.08599925 1.3446052e-38 332 163
0.014542148 0.63800001 0.086134247 1.3353856e-38 333 163
0.015709866 0.63999999 0.086404264 1.3354209e-38 334 163
0.016831998 0.63999999 0.086404264 1.3261653e-38 335 163
0.017982185 0.64099997 0.086539268 1.3354206e-38 336 163
0.019106071 0.64099997 0.086539268 1.3354206e-38 337 163
0.020261521 0.64200002 0.08667428 1.3170894e-38 338 163
0.021453787 0.64399999 0.08694429 1.3170894e-38 339 163
0.022653066 0.64600003 0.087214306 1.3353489e-38 340 163
0.023785722 0.64600003 0.087214306 1.3260934e-38 341 163
0.024995521 0.648 0.087484315 1.3260937e-38 342 163
0.02637364 0.65399998 0.088294357 1.3260937e-38 343 163
0.027646558 0.65700001 0.088699378 1.3260937e-38 344 163
0.028886165 0.65899998 0.088969387 1.3260937e-38 345 163
0.030178372 0.662 0.089374408 1.3261659e-38 346 163
0.031386416 0.66299999 0.089509413 1.3261659e-38 347 163
0.03259797 0.66399997 0.089644417 1.3444252e-38 348 163
0.033762183 0.66399997 0.089644417 1.3352057e-38 349 163
0.035031598 0.66600001 0.089914441 1.3259505e-38 350 163
0.036253672 0.667 0.090049446 1.3259505e-38 351 163
0.037591465 0.67000002 0.090454467 1.3075121e-38 352 163
0.03888192 0.67199999 0.090724476 1.3075121e-38 353 163
0.040060159 0.67199999 0.090724476 1.2982928e-38 354 163
0.041361131 0.67400002 0.090994492 1.2982928e-38 355 163
0.042606 0.67500001 0.091129504 1.3073689e-38 356 163
0.043984115 0.67799997 0.09153451 1.3165884e-38 357 163
0.045239504 0.67900002 0.091669522 1.3349931e-38 358 163
0.04670354 0.68300003 0.092209555 1.4363724e-38 359 163
0.048111461 0.68599999 0.092614569 1.1225153e-38 360 163
0.049386136 0.68699998 0.092749573 9.381242e-39 361 163
0.050811596 0.69 0.093154602 9.1071943e-39 362 163
0.05224758 0.69300002 0.093559615 8.8302486e-39 363 163
0.053694077 0.69599998 0.093964636 8.8306046e-39 364 163
0.054993302 0.69700003 0.094099648 8.7384089e-39 365 163
0.056457333 0.69999999 0.094504662 8.5547408e-39 366 163
0.057767071 0.70099998 0.094639666 8.4625437e-39 367 163
0.059164476 0.70300001 0.094909683 8.2781469e-39 368 163
0.06039707 0.70300001 0.094909683 8.9235163e-39 369 163
0.061717331 0.704 0.095044687 1.0225042e-38 370 163
0.063130513 0.70599997 0.095314704 1.2068955e-38 371 163
0.064368367 0.70599997 0.095314704 1.1335706e-38 372 163
0.065699153 0.70700002 0.095449716 1.1427901e-38 373 163
-0.078843892 0.616 0.082084045 6.8199234e-39 247 164
-0.077637598 0.61500001 0.081950799 1.1943673e-38 248 164
-0.076559298 0.61500001 0.081950799 1.1851478e-38 249 164
-0.075480998 0.61500001 0.081950799 1.1848241e-38 250 164
-0.074402697 0.61500001 0.081950799 1.1756045e-38 251 164
-0.073085941 0.61299998 0.081684284 9.833256e-39 252 164
-0.07201115 0.61299998 0.081684284 9.6485061e-39 253 164
-0.070820637 0.61199999 0.081551038 3.1342829e-39 254 164
-0.069177762 0.60699999 0.08088477 1.6591514e-39 255 164
-0.068113491 0.60699999 0.08088477 1.3847645e-39 256 164
-0.066938758 0.60600001 0.080751516 9.5905357e-39 257 164
-0.065876238 0.60600001 0.080751516 1.0432171e-38 258 164
-0.064813718 0.60600001 0.080751516 8.7722909e-39 259 164
-0.063751198 0.60600001 0.080751516 1.0521123e-38 260 164
-0.06248178 0.60399997 0.080485009 1.1073938e-38 261 164
-0.061422769 0.60399997 0.080485009 1.0614427e-38 262 164
-0.060263816 0.60299999 0.080351755 1.0706981e-38 263 164
-0.059108369 0.602 0.080218501 1.162389e-38 264 164
-0.057956431 0.60100001 0.080085255 1.2361456e-38 265 164
-0.056902681 0.60100001 0.080085255 1.2730948e-38 266 164
-0.055755999 0.60000002 0.079952002 1.2362165e-38 267 164
-0.054612823 0.59899998 0.07981874 7.7667822e-39 268 164
-0.053562578 0.59899998 0.07981874 4.4477395e-39 269 164
-0.052249335 0.59600002 0.079418987 2.0373212e-39 270 164
-0.051118433 0.59500003 0.079285733 8.6572219e-42 271 164
-0.049991038 0.59399998 0.079152472 1.2925339e-39 272 164
-0.048867151 0.59299999 0.079019226 1.5691208e-39 273 164
-0.047827426 0.59299999 0.079019226 5.5966039e-40 274 164
-0.046708796 0.59200001 0.078885972 5.5966039e-40 275 164
-0.045593683 0.59100002 0.078752719 4.6818783e-40 276 164
-0.044482064 0.58999997 0.078619458 8.3696895e-40 277 164
-0.043226682 0.58700001 0.078219704 9.2988485e-40 278 164
-0.042053696 0.58499998 0.077953197 1.2064717e-39 279 164
-0.041027997 0.58499998 0.077953197 1.5752515e-39 280 164
-0.039933916 0.58399999 0.077819943 2.0365883e-39 281 164
-0.038909972 0.58399999 0.077819943 7.5413301e-39 282 164
-0.037821155 0.583 0.07768669 7.4491331e-39 283 164
-0.036798961 0.583 0.07768669 1.1114638e-38 284 164
-0.035715401 0.58200002 0.077553444 1.1022443e-38 285 164
-0.034694958 0.58200002 0.077553444 1.1756413e-38 286 164
-0.033616655 0.58099997 0.077420183 1.1663859e-38 287 164
-0.03259797 0.58099997 0.077420183 1.148055e-38 288 164
-0.031579286 0.58099997 0.077420183 1.1112126e-38 289 164
-0.030560596 0.58099997 0.077420183 1.0013686e-38 290 164
-0.029541912 0.58099997 0.077420183 9.9214888e-39 291 164
-0.028670505 0.58399999 0.077819943 8.6383002e-39 292 164
-0.02783592 0.588 0.078352958 8.8230516e-39 293 164
-0.026804959 0.588 0.078352958 8.5479038e-39 294 164
-0.025773998 0.588 0.078352958 8.6400994e-39 295 164
-0.024785118 0.58899999 0.078486212 8.6400994e-39 296 164
-0.023792733 0.58999997 0.078619458 8.6400994e-39 297 164
-0.022758266 0.58999997 0.078619458 8.6401022e-39 298 164
-0.02176062 0.59100002 0.078752719 8.6401022e-39 299 164
-0.020759467 0.59200001 0.078885972 8.640468e-39 300 164
-0.019754807 0.59299999 0.079019226 8.640468e-39 301 164
-0.018746639 0.59399998 0.079152472 8.4571557e-39 302 164
-0.017734967 0.59500003 0.079285733 8.4571557e-39 303 164
-0.016719786 0.59600002 0.079418987 8.5497017e-39 304 164
-0.0157011 0.597 0.079552241 8.6418973e-39 305 164
-0.014703453 0.59899998 0.07981874 8.6422532e-39 306 164
-0.013676 0.60000002 0.079952002 8.6422532e-39 307 164
-0.01264504 0.60100001 0.080085255 8.2741714e-39 308 164
-0.011707006 0.60699999 0.08088477 9.6571058e-39 309 164
-0.010660267 0.60799998 0.081018023 1.2883908e-38 310 164
-0.0096100206 0.60900003 0.081151277 1.4174647e-38 311 164
-0.0085422397 0.60900003 0.081151277 1.3444237e-38 312 164
-0.0074744597 0.60900003 0.081151277 1.3536432e-38 313 164
-0.0064172 0.61000001 0.08128453 1.3629701e-38 314 164
-0.0053476668 0.61000001 0.08128453 1.3629701e-38 315 164
-0.0042851465 0.611 0.081417784 1.3629348e-38 316 164
-0.0032243798 0.61299998 0.081684284 1.3721544e-38 317 164
-0.0021495866 0.61299998 0.081684284 1.3538948e-38 318 164
-0.0010782999 0.61500001 0.081950799 1.3538948e-38 319 164
0 0.61799997 0.082350552 1.3447108e-38 320 164
0.0010870666 0.62 0.082617059 1.3539304e-38 321 164
0.0021811465 0.62199998 0.082883567 1.3538951e-38 322 164
0.00327698 0.62300003 0.083016828 1.3538951e-38 323 164
0.0043693068 0.62300003 0.083016828 1.3722263e-38 324 164
0.0054704002 0.62400001 0.083150074 1.3722263e-38 325 164
0.0066065602 0.62800002 0.083683088 1.3721547e-38 326 164
0.0077444729 0.63099998 0.084082849 1.3721547e-38 327 164
0.008850826 0.63099998 0.084082849 1.381231e-38 328 164
0.0100203 0.63499999 0.084615864 1.381231e-38 329 164
0.011151199 0.63599998 0.084749117 1.3629001e-38 330 164
0.012285607 0.63700002 0.084882379 1.3721196e-38 331 164
0.01340248 0.63700002 0.084882379 1.3446405e-38 332 164
0.014542148 0.63800001 0.085015625 1.3354209e-38 333 164
0.015734414 0.64099997 0.085415386 1.3354206e-38 334 164
0.016858298 0.64099997 0.085415386 1.3354206e-38 335 164
0.01801024 0.64200002 0.085548639 1.3354203e-38 336 164
0.019135879 0.64200002 0.085548639 1.3354203e-38 337 164
0.020293079 0.64300001 0.085681893 1.3354559e-38 338 164
0.021453787 0.64399999 0.085815147 1.3354559e-38 339 164
0.022653066 0.64600003 0.086081654 1.326129e-38 340 164
0.023859359 0.648 0.086348161 1.326129e-38 341 164
0.025072664 0.64999998 0.086614661 1.3353133e-38 342 164
0.026413966 0.65499997 0.087280929 1.3353133e-38 343 164
0.027688639 0.65799999 0.08768069 1.3353136e-38 344 164
0.028973831 0.66100001 0.088080451 1.326094e-38 345 164
0.030178372 0.662 0.088213705 1.3261659e-38 346 164
0.031386416 0.66299999 0.088346958 1.3076909e-38 347 164
0.03259797 0.66399997 0.088480204 1.3259861e-38 348 164
0.03386388 0.66600001 0.088746719 1.3075471e-38 349 164
0.035031598 0.66600001 0.088746719 1.3075471e-38 350 164
0.036253672 0.667 0.088879973 1.3075471e-38 351 164
0.037591465 0.67000002 0.089279734 1.3166593e-38 352 164
0.03888192 0.67199999 0.089546233 1.3166593e-38 353 164
0.040060159 0.67199999 0.089546233 1.3166237e-38 354 164
0.041422497 0.67500001 0.089945994 1.3074042e-38 355 164
0.042669121 0.676 0.090079248 1.3074045e-38 356 164
0.044048995 0.67900002 0.090479009 1.3258436e-38 357 164
0.045306131 0.68000001 0.090612262 1.3442845e-38 358 164
0.046771921 0.68400002 0.091145277 1.4272607e-38 359 164
0.048111461 0.68599999 0.091411777 1.0947489e-38 360 164
0.049386136 0.68699998 0.09154503 9.2883261e-39 361 164
0.050885238 0.69099998 0.092078045 9.2905093e-39 362 164
0.05224758 0.69300002 0.09234456 8.8295326e-39 363 164
0.053771228 0.69700003 0.092877567 8.7373327e-39 364 164
0.0550722 0.69800001 0.093010828 8.7373327e-39 365 164
0.056457333 0.69999999 0.093277335 8.5547408e-39 366 164
0.057767071 0.70099998 0.093410581 8.3703481e-39 367 164
0.059164476 0.70300001 0.093677096 8.462894e-39 368 164
0.06039707 0.70300001 0.093677096 9.2926561e-39 369 164
0.061717331 0.704 0.093810342 1.0685297e-38 370 164
0.063130513 0.70599997 0.09407685 1.2252623e-38 371 164
0.064368367 0.70599997 0.09407685 1.1335709e-38 372 164
-0.078715898 0.61500001 0.080872498 6.9128351e-39 247 165
-0.077511355 0.61400002 0.080741003 1.1941521e-38 248 165
-0.076434813 0.61400002 0.080741003 1.1941521e-38 249 165
-0.075358272 0.61400002 0.080741003 1.2030837e-38 250 165
-0.074402697 0.61500001 0.080872498 1.2030837e-38 251 165
-0.073205173 0.61400002 0.080741003 9.9247258e-39 252 165
-0.07201115 0.61299998 0.080609493 9.9247258e-39 253 165
-0.070820637 0.61199999 0.08047799 3.4090719e-39 254 165
-0.069633633 0.611 0.080346502 2.6715055e-39 255 165
-0.068113491 0.60699999 0.079820491 1.8482832e-39 256 165
-0.06704922 0.60699999 0.079820491 6.089641e-39 257 165
-0.065984942 0.60699999 0.079820491 3.8988958e-39 258 165
-0.064813718 0.60600001 0.079688996 4.8208507e-39 259 165
-0.063751198 0.60600001 0.079688996 9.415145e-39 260 165
-0.06248178 0.60399997 0.079425998 9.415145e-39 261 165
-0.061422769 0.60399997 0.079425998 8.9563375e-39 262 165
-0.060363755 0.60399997 0.079425998 9.8782938e-39 263 165
-0.059108369 0.602 0.079163 1.1899741e-38 264 165
-0.057956431 0.60100001 0.079031497 1.254511e-38 265 165
-0.056902681 0.60100001 0.079031497 1.2639456e-38 266 165
-0.055848926 0.60100001 0.079031497 1.1809695e-38 267 165
-0.054612823 0.59899998 0.078768499 7.0263417e-39 268 165
-0.053562578 0.59899998 0.078768499 4.2604714e-39 269 165
-0.052336998 0.597 0.078505501 1.8586809e-39 270 165
-0.051118433 0.59500003 0.078242503 1.4048017e-41 271 165
-0.049991038 0.59399998 0.078110993 1.663096e-39 272 165
-0.048867151 0.59299999 0.077979498 1.4787048e-39 273 165
-0.047827426 0.59299999 0.077979498 1.5691208e-39 274 165
-0.046708796 0.59200001 0.077848002 1.2925339e-39 275 165
-0.045670826 0.59200001 0.077848002 4.6746196e-40 276 165
-0.044482064 0.58999997 0.077584989 5.5965759e-40 277 165
-0.043226682 0.58700001 0.077190503 7.4370132e-40 278 165
-0.042053696 0.58499998 0.076927498 1.0199281e-39 279 165
-0.041027997 0.58499998 0.076927498 1.0217302e-39 280 165
-0.039933916 0.58399999 0.076795995 1.6670996e-39 281 165
-0.038909972 0.58399999 0.076795995 7.2654649e-39 282 165
-0.037886024 0.58399999 0.076795995 7.1732693e-39 283 165
-0.036798961 0.583 0.076664492 1.1297588e-38 284 165
-0.035715401 0.58200002 0.076532997 1.1205392e-38 285 165
-0.034694958 0.58200002 0.076532997 1.1755689e-38 286 165
-0.03367452 0.58200002 0.076532997 1.1755689e-38 287 165
-0.032654081 0.58200002 0.076532997 1.1480178e-38 288 165
-0.031633638 0.58200002 0.076532997 1.1664568e-38 289 165
-0.030613201 0.58200002 0.076532997 1.0197346e-38 290 165
-0.02959276 0.58200002 0.076532997 1.0197346e-38 291 165
-0.028670505 0.58399999 0.076795995 8.8230516e-39 292 165
-0.02783592 0.588 0.077321991 8.8230516e-39 293 165
-0.026804959 0.588 0.077321991 8.6401022e-39 294 165
-0.025817832 0.58899999 0.077453494 8.6401022e-39 295 165
-0.024785118 0.58899999 0.077453494 8.5486227e-39 296 165
-0.023752406 0.58899999 0.077453494 8.5486227e-39 297 165
-0.022835413 0.59200001 0.077848002 8.6400994e-39 298 165
-0.021797439 0.59200001 0.077848002 8.7326538e-39 299 165
-0.020794531 0.59299999 0.077979498 8.6408211e-39 300 165
-0.019788118 0.59399998 0.078110993 8.7330167e-39 301 165
-0.018778201 0.59500003 0.078242503 8.6408211e-39 302 165
-0.017734967 0.59500003 0.078242503 8.7330167e-39 303 165
-0.016719786 0.59600002 0.078373998 8.5497017e-39 304 165
-0.015727401 0.59799999 0.078636996 8.5497017e-39 305 165
-0.014728 0.60000002 0.078899994 8.6418973e-39 306 165
-0.013721586 0.602 0.079163 8.6418973e-39 307 165
-0.01277128 0.60699999 0.079820491 9.3747554e-39 308 165
-0.011707006 0.60699999 0.079820491 1.1218668e-38 309 165
-0.010660267 0.60799998 0.079951994 1.3625045e-38 310 165
-0.0096100206 0.60900003 0.080083504 1.3901991e-38 311 165
-0.0085422397 0.60900003 0.080083504 1.3627899e-38 312 165
-0.0074867331 0.61000001 0.080215 1.3812649e-38 313 165
-0.0064172 0.61000001 0.080215 1.3629701e-38 314 165
-0.0053564333 0.611 0.080346502 1.3905928e-38 315 165
-0.0042851465 0.611 0.080346502 1.3998127e-38 316 165
-0.0032243798 0.61299998 0.080609493 1.3905931e-38 317 165
-0.0021530932 0.61400002 0.080741003 1.3905931e-38 318 165
-0.0010800533 0.616 0.081004001 1.37219e-38 319 165
0 0.61900002 0.081398502 1.3722616e-38 320 165
0.0010870666 0.62 0.081529997 1.3722616e-38 321 165
0.0021811465 0.62199998 0.081792995 1.3905575e-38 322 165
0.00327698 0.62300003 0.081924498 1.3905575e-38 323 165
0.0043693068 0.62300003 0.081924498 1.372191e-38 324 165
0.0054704002 0.62400001 0.082055993 1.3629714e-38 325 165
0.0066065602 0.62800002 0.082582004 1.3721196e-38 326 165
0.0077567468 0.63200003 0.083108 1.3721196e-38 327 165
0.0088929068 0.634 0.083370999 1.381231e-38 328 165
0.0100203 0.63499999 0.083502494 1.3904506e-38 329 165
0.011151199 0.63599998 0.083633989 1.372155e-38 330 165
0.012285607 0.63700002 0.083765499 1.372155e-38 331 165
0.01340248 0.63700002 0.083765499 1.3629714e-38 332 165
0.014542148 0.63800001 0.083897002 1.3629714e-38 333 165
0.015709866 0.63999999 0.08416 1.3537872e-38 334 165
0.016858298 0.64099997 0.084291495 1.3537872e-38 335 165
0.01801024 0.64200002 0.084422998 1.3355278e-38 336 165
0.019135879 0.64200002 0.084422998 1.3355278e-38 337 165
0.02032464 0.64399999 0.084685996 1.3354559e-38 338 165
0.021520413 0.64600003 0.084949002 1.3354559e-38 339 165
0.022688134 0.64700001 0.085080497 1.372011e-38 340 165
0.023859359 0.648 0.085211992 1.372011e-38 341 165
0.025188386 0.653 0.085869491 1.3536448e-38 342 165
0.026413966 0.65499997 0.086132489 1.3536448e-38 343 165
0.027688639 0.65799999 0.086526997 1.3353136e-38 344 165
0.028973831 0.66100001 0.086921498 1.3353136e-38 345 165
0.030223956 0.66299999 0.087184496 1.3260937e-38 346 165
0.031433757 0.66399997 0.087315999 1.3168742e-38 347 165
0.03259797 0.66399997 0.087315999 1.3352051e-38 348 165
0.03386388 0.66600001 0.087578997 1.3259855e-38 349 165
0.035031598 0.66600001 0.087578997 1.3075827e-38 350 165
0.036253672 0.667 0.0877105 1.3075827e-38 351 165
0.037591465 0.67000002 0.088105001 1.3259142e-38 352 165
0.038997639 0.67400002 0.088631004 1.3166588e-38 353 165
0.040179387 0.67400002 0.088631004 1.3165872e-38 354 165
0.041483864 0.676 0.088893995 1.3258067e-38 355 165
0.042795356 0.67799997 0.089156993 1.3166237e-38 356 165
0.044113863 0.68000001 0.089419998 1.3350987e-38 357 165
0.045506012 0.68300003 0.089814499 1.3535396e-38 358 165
0.046908677 0.68599999 0.090209 1.4180765e-38 359 165
0.048181597 0.68699998 0.090340495 1.0854923e-38 360 165
0.049458027 0.68800002 0.090471998 9.2875974e-39 361 165
0.050885238 0.69099998 0.090866491 9.2901408e-39 362 165
0.05224758 0.69300002 0.091129504 9.0131952e-39 363 165
0.053771228 0.69700003 0.0916555 8.9210009e-39 364 165
0.0550722 0.69800001 0.091787003 8.9210009e-39 365 165
0.056457333 0.69999999 0.092049994 8.7373327e-39 366 165
0.057767071 0.70099998 0.092181489 8.8295298e-39 367 165
0.059164476 0.70300001 0.092444502 8.2817468e-39 368 165
0.060482983 0.704 0.092575997 9.2958987e-39 369 165
0.061717331 0.704 0.092575997 1.0410155e-38 370 165
-0.078715898 0.61500001 0.079794198 7.1901451e-39 247 166
-0.077511355 0.61400002 0.079664454 1.2128433e-38 248 166
-0.076434813 0.61400002 0.079664454 1.1760011e-38 249 166
-0.075358272 0.61400002 0.079664454 1.2214152e-38 250 166
-0.074402697 0.61500001 0.079794198 1.2306347e-38 251 166
-0.073205173 0.61400002 0.079664454 1.0016919e-38 252 166
-0.07201115 0.61299998 0.079534702 9.924723e-39 253 166
-0.070820637 0.61199999 0.079404958 3.1353549e-39 254 166
-0.069747597 0.61199999 0.079404958 2.2133986e-39 255 166
-0.068337917 0.60900003 0.079015724 7.5978403e-42 256 166
-0.067159675 0.60799998 0.078885965 4.3552356e-42 257 166
-0.066093646 0.60799998 0.078885965 2.1644456e-41 258 166
-0.064920671 0.60699999 0.078756221 5.9261262e-39 259 166
-0.063751198 0.60600001 0.078626484 1.0335669e-38 260 166
-0.062688679 0.60600001 0.078626484 7.7541916e-39 261 166
-0.061626155 0.60600001 0.078626484 7.4768816e-39 262 166
-0.060363755 0.60399997 0.07836698 6.3708942e-39 263 166
-0.059206553 0.60299999 0.078237236 4.980048e-39 264 166
-0.058052868 0.602 0.078107491 5.717613e-39 265 166
-0.056997359 0.602 0.078107491 4.2604714e-39 266 166
-0.055848926 0.60100001 0.077977739 4.9980379e-39 267 166
-0.054703999 0.60000002 0.077848002 7.8492612e-39 268 166
-0.053562578 0.59899998 0.077718243 5.0837525e-39 269 166
-0.052424666 0.59799999 0.077588499 1.7653558e-41 270 166
-0.051118433 0.59500003 0.077199265 1.1056946e-40 271 166
-0.049991038 0.59399998 0.077069513 4.240629e-39 272 166
-0.048949558 0.59399998 0.077069513 1.9357397e-39 273 166
-0.047827426 0.59299999 0.076939769 1.2017606e-39 274 166
-0.046708796 0.59200001 0.076810025 1.386512e-39 275 166
-0.045670826 0.59200001 0.076810025 3.7669845e-40 276 166
-0.04455746 0.59100002 0.07668028 3.7669845e-40 277 166
-0.043300316 0.588 0.07629104 6.5220634e-40 278 166
-0.042125586 0.58600003 0.076031551 7.4440197e-40 279 166
-0.041027997 0.58499998 0.075901791 1.0217147e-39 280 166
-0.040002298 0.58499998 0.075901791 2.1277022e-39 281 166
-0.038909972 0.58399999 0.075772047 7.6335285e-39 282 166
-0.037886024 0.58399999 0.075772047 7.5409742e-39 283 166
-0.036862079 0.58399999 0.075772047 1.14809e-38 284 166
-0.035776768 0.583 0.07564231 1.14809e-38 285 166
-0.034694958 0.58200002 0.075512558 1.1939357e-38 286 166
-0.03367452 0.58200002 0.075512558 1.1847162e-38 287 166
-0.032710187 0.583 0.07564231 1.1298307e-38 288 166
-0.031687994 0.583 0.07564231 1.1298307e-38 289 166
-0.030665798 0.583 0.07564231 1.0107316e-38 290 166
-0.029643605 0.583 0.07564231 9.8310896e-39 291 166
-0.028719598 0.58499998 0.075901791 8.7312161e-39 292 166
-0.02783592 0.588 0.07629104 8.8237704e-39 293 166
-0.026804959 0.588 0.07629104 8.5486255e-39 294 166
-0.025817832 0.58899999 0.076420784 8.6408211e-39 295 166
-0.024785118 0.58899999 0.076420784 8.6408183e-39 296 166
-0.023752406 0.58899999 0.076420784 8.6408183e-39 297 166
-0.022796841 0.59100002 0.07668028 8.6411742e-39 298 166
-0.021797439 0.59200001 0.076810025 8.6411742e-39 299 166
-0.020794531 0.59299999 0.076939769 8.5500548e-39 300 166
-0.019821433 0.59500003 0.077199265 8.5500548e-39 301 166
-0.018778201 0.59500003 0.077199265 8.733723e-39 302 166
-0.017764773 0.59600002 0.07732901 8.733723e-39 303 166
-0.01674784 0.597 0.077458762 8.5500576e-39 304 166
-0.015753699 0.59899998 0.077718243 8.5500576e-39 305 166
-0.014752547 0.60100001 0.077977739 8.7326482e-39 306 166
-0.013744379 0.60299999 0.078237236 8.9166793e-39 307 166
-0.01277128 0.60699999 0.078756221 1.0666551e-38 308 166
-0.011707006 0.60699999 0.078756221 1.2971081e-38 309 166
-0.010660267 0.60799998 0.078885965 1.3902694e-38 310 166
-0.0096100206 0.60900003 0.079015724 1.3810498e-38 311 166
-0.0085422397 0.60900003 0.079015724 1.3720804e-38 312 166
-0.0074867331 0.61000001 0.079145461 1.3813e-38 313 166
-0.0064277197 0.611 0.079275213 1.3813367e-38 314 166
-0.0053651999 0.61199999 0.079404958 1.3997758e-38 315 166
-0.0043061865 0.61400002 0.079664454 1.3998129e-38 316 166
-0.00322964 0.61400002 0.079664454 1.3998129e-38 317 166
-0.0021530932 0.61400002 0.079664454 1.3815177e-38 318 166
-0.0010800533 0.616 0.079923943 1.3631146e-38 319 166
0 0.61900002 0.080313183 1.3631499e-38 320 166
0.0010870666 0.62 0.080442935 1.3539304e-38 321 166
0.0021811465 0.62199998 0.080702424 1.37219e-38 322 166
0.0032822399 0.62400001 0.08096192 1.3905931e-38 323 166
0.004383333 0.625 0.081091665 1.3722266e-38 324 166
0.0054966994 0.62699997 0.081351154 1.363007e-38 325 166
0.00661708 0.62900001 0.08161065 1.3446758e-38 326 166
0.0077812932 0.634 0.082259387 1.3446758e-38 327 166
0.0088929068 0.634 0.082259387 1.3721547e-38 328 166
0.010036079 0.63599998 0.082518876 1.3721547e-38 329 166
0.011151199 0.63599998 0.082518876 1.3722263e-38 330 166
0.012285607 0.63700002 0.082648627 1.3630067e-38 331 166
0.01340248 0.63700002 0.082648627 1.3538948e-38 332 166
0.014542148 0.63800001 0.082778372 1.3446752e-38 333 166
0.015709866 0.63999999 0.083037868 1.3537872e-38 334 166
0.016858298 0.64099997 0.083167605 1.3353839e-38 335 166
0.01801024 0.64200002 0.083297364 1.3354559e-38 336 166
0.019135879 0.64200002 0.083297364 1.3446755e-38 337 166
0.02032464 0.64399999 0.083556846 1.3630067e-38 338 166
0.021553727 0.64700001 0.083946094 1.3537872e-38 339 166
0.022758266 0.64899999 0.084205583 1.3629714e-38 340 166
0.023932999 0.64999998 0.084335327 1.3629714e-38 341 166
0.025226958 0.65399998 0.08485432 1.33535e-38 342 166
0.026494619 0.65700001 0.08524356 1.3261304e-38 343 166
0.027688639 0.65799999 0.085373305 1.3352784e-38 344 166
0.028973831 0.66100001 0.085762545 1.3260587e-38 345 166
0.030223956 0.66299999 0.086022034 1.3260937e-38 346 166
0.031433757 0.66399997 0.086151779 1.3168742e-38 347 166
0.03259797 0.66399997 0.086151779 1.3168739e-38 348 166
0.03386388 0.66600001 0.086411275 1.3076543e-38 349 166
0.035084199 0.667 0.086541019 1.3259142e-38 350 166
0.036253672 0.667 0.086541019 1.3259142e-38 351 166
0.037591465 0.67000002 0.086930268 1.3258067e-38 352 166
0.038824059 0.671 0.087060012 1.3258067e-38 353 166
0.040179387 0.67400002 0.087449253 1.3166237e-38 354 166
0.041483864 0.676 0.087708741 1.3166237e-38 355 166
0.042858478 0.67900002 0.08809799 1.3258436e-38 356 166
0.044243611 0.68199998 0.088487223 1.3442827e-38 357 166
0.045572639 0.68400002 0.088746719 1.3444645e-38 358 166
0.046908677 0.68599999 0.089006208 1.3905623e-38 359 166
0.048181597 0.68699998 0.089135952 1.1131154e-38 360 166
0.049673684 0.69099998 0.089654945 9.3797959e-39 361 166
0.050885238 0.69099998 0.089654945 9.1075446e-39 362 166
0.05224758 0.69300002 0.089914441 8.7384033e-39 363 166
0.053771228 0.69700003 0.090433426 8.7376859e-39 364 166
0.0550722 0.69800001 0.090563171 8.7376859e-39 365 166
0.056457333 0.69999999 0.090822659 8.5550967e-39 366 166
0.057767071 0.70099998 0.090952404 8.5550967e-39 367 166
0.059164476 0.70300001 0.0912119 8.6501622e-39 368 166
0.060482983 0.704 0.091341652 9.3877272e-39 369 166
-0.080183432 0.61799997 0.079099871 1.2166185e-38 246 167
-0.078843892 0.616 0.078843892 7.8333495e-39 247 167
-0.077637598 0.61500001 0.078715898 1.2036944e-38 248 167
-0.076434813 0.61400002 0.078587912 1.1575967e-38 249 167
-0.075358272 0.61400002 0.078587912 1.2032269e-38 250 167
-0.074402697 0.61500001 0.078715898 1.1848238e-38 251 167
-0.073324397 0.61500001 0.078715898 1.0017275e-38 252 167
-0.072246104 0.61500001 0.078715898 9.9247202e-39 253 167
-0.071052082 0.61400002 0.078587912 3.5927373e-39 254 167
-0.069747597 0.61199999 0.078331918 2.9473679e-39 255 167
-0.068674557 0.61199999 0.078331918 5.3809861e-42 256 167
-0.067491055 0.611 0.078203924 5.3809861e-42 257 167
-0.066311061 0.61000001 0.078075938 5.3430459e-39 258 167
-0.064920671 0.60699999 0.07769195 1.1981131e-38 259 167
-0.063751198 0.60600001 0.077563956 8.3203035e-39 260 167
-0.062688679 0.60600001 0.077563956 8.1359123e-39 261 167
-0.061422769 0.60399997 0.077307969 1.1065643e-38 262 167
-0.060363755 0.60399997 0.077307969 5.9948837e-39 263 167
-0.059206553 0.60299999 0.077179976 1.3697692e-41 264 167
-0.058052868 0.602 0.077051982 1.3697692e-41 265 167
-0.056997359 0.602 0.077051982 9.3592724e-42 266 167
-0.055848926 0.60100001 0.076923996 1.2601877e-41 267 167
-0.054612823 0.59899998 0.076668002 9.2224146e-39 268 167
-0.053562578 0.59899998 0.076668002 7.1941108e-39 269 167
-0.052424666 0.59799999 0.076540008 7.5270607e-40 270 167
-0.051290259 0.597 0.076412022 3.0572367e-39 271 167
-0.049991038 0.59399998 0.076028034 7.1966737e-39 272 167
-0.048949558 0.59399998 0.076028034 1.0192064e-39 273 167
-0.047827426 0.59299999 0.075900048 1.793662e-42 274 167
-0.046708796 0.59200001 0.075772047 5.5854636e-40 275 167
-0.045670826 0.59200001 0.075772047 1.1110013e-39 276 167
-0.044632856 0.59200001 0.075772047 1.2031969e-39 277 167
-0.043594878 0.59200001 0.075772047 9.2806736e-40 278 167
-0.042125586 0.58600003 0.075004101 9.2806736e-40 279 167
-0.041027997 0.58499998 0.074876092 1.1139132e-39 280 167
-0.040002298 0.58499998 0.074876092 2.0355093e-39 281 167
-0.038909972 0.58399999 0.074748106 7.6313733e-39 282 167
-0.037886024 0.58399999 0.074748106 7.3551466e-39 283 167
-0.036862079 0.58399999 0.074748106 1.1387628e-38 284 167
-0.035776768 0.583 0.074620113 1.1387628e-38 285 167
-0.034754574 0.583 0.074620113 1.2030474e-38 286 167
-0.033732381 0.583 0.074620113 1.1846801e-38 287 167
-0.032710187 0.583 0.074620113 1.1663135e-38 288 167
-0.031687994 0.583 0.074620113 1.1846808e-38 289 167
-0.030665798 0.583 0.074620113 1.0380663e-38 290 167
-0.029694451 0.58399999 0.074748106 1.0472859e-38 291 167
-0.028719598 0.58499998 0.074876092 8.8237676e-39 292 167
-0.02783592 0.588 0.07526008 8.8237676e-39 293 167
-0.026804959 0.588 0.07526008 8.8234145e-39 294 167
-0.025817832 0.58899999 0.075388066 8.8234145e-39 295 167
-0.024785118 0.58899999 0.075388066 8.7326538e-39 296 167
-0.023833061 0.59100002 0.075644061 8.7326538e-39 297 167
-0.022796841 0.59100002 0.075644061 8.7333671e-39 298 167
-0.02183426 0.59299999 0.075900048 8.7333671e-39 299 167
-0.020864667 0.59500003 0.076156035 8.550052e-39 300 167
-0.019821433 0.59500003 0.076156035 8.550052e-39 301 167
-0.018778201 0.59500003 0.076156035 8.6411714e-39 302 167
-0.017764773 0.59600002 0.076284021 8.7333671e-39 303 167
-0.016775893 0.59799999 0.076540008 8.6408183e-39 304 167
-0.01578 0.60000002 0.076796003 8.7333727e-39 305 167
-0.014801638 0.60299999 0.077179976 8.8255655e-39 306 167
-0.013767173 0.60399997 0.077307969 9.194348e-39 307 167
-0.01277128 0.60699999 0.07769195 1.1684293e-38 308 167
-0.011707006 0.60699999 0.07769195 1.2975032e-38 309 167
-0.010660267 0.60799998 0.077819943 1.3717578e-38 310 167
-0.0096100206 0.60900003 0.077947937 1.3994164e-38 311 167
-0.0085562663 0.61000001 0.078075938 1.390376e-38 312 167
-0.0074867331 0.61000001 0.078075938 1.408851e-38 313 167
-0.0064277197 0.611 0.078203924 1.3904846e-38 314 167
-0.0053739659 0.61299998 0.078459904 1.4088878e-38 315 167
-0.0043061865 0.61400002 0.078587912 1.3997408e-38 316 167
-0.0032348998 0.61500001 0.078715898 1.4089603e-38 317 167
-0.0021671199 0.61799997 0.079099871 1.3907363e-38 318 167
-0.0010835599 0.61799997 0.079099871 1.3815168e-38 319 167
0 0.62 0.079355866 1.3722966e-38 320 167
0.0010905733 0.62199998 0.079611845 1.3722966e-38 321 167
0.0021881601 0.62400001 0.07986784 1.3815518e-38 322 167
0.0032822399 0.62400001 0.07986784 1.3815518e-38 323 167
0.004383333 0.625 0.079995833 1.3448174e-38 324 167
0.0055054668 0.62800002 0.080379814 1.354037e-38 325 167
0.0066275997 0.63 0.080635794 1.3540376e-38 326 167
0.0077812932 0.634 0.081147775 1.3447821e-38 327 167
0.0088929068 0.634 0.081147775 1.3631502e-38 328 167
0.0100203 0.63499999 0.081275761 1.3538948e-38 329 167
0.011151199 0.63599998 0.081403755 1.3906284e-38 330 167
0.012285607 0.63700002 0.081531756 1.3906284e-38 331 167
0.01340248 0.63700002 0.081531756 1.3630418e-38 332 167
0.014542148 0.63800001 0.081659749 1.3538222e-38 333 167
0.015709866 0.63999999 0.081915729 1.3537151e-38 334 167
0.016858298 0.64099997 0.082043722 1.3629348e-38 335 167
0.01801024 0.64200002 0.082171716 1.3537872e-38 336 167
0.019255107 0.64600003 0.08268369 1.3630067e-38 337 167
0.02041932 0.64700001 0.082811691 1.3629699e-38 338 167
0.02158704 0.648 0.082939677 1.3906284e-38 339 167
0.022793332 0.64999998 0.083195657 1.3721897e-38 340 167
0.023932999 0.64999998 0.083195657 1.3721897e-38 341 167
0.025226958 0.65399998 0.083707638 1.3537165e-38 342 167
0.026494619 0.65700001 0.084091611 1.3353133e-38 343 167
0.027688639 0.65799999 0.084219612 1.3260587e-38 344 167
0.028973831 0.66100001 0.084603593 1.3260587e-38 345 167
0.030223956 0.66299999 0.084859572 1.326094e-38 346 167
0.031433757 0.66399997 0.084987566 1.3168744e-38 347 167
0.032696161 0.66600001 0.08524356 1.3259855e-38 348 167
0.033914726 0.667 0.085371546 1.3259855e-38 349 167
0.035136797 0.66799998 0.085499547 1.3259139e-38 350 167
0.036308024 0.66799998 0.085499547 1.3166944e-38 351 167
0.037647571 0.671 0.085883528 1.3258789e-38 352 167
0.038824059 0.671 0.085883528 1.3258789e-38 353 167
0.040238999 0.67500001 0.086395502 1.3165884e-38 354 167
0.041606598 0.67799997 0.086779475 1.3073689e-38 355 167
0.043047838 0.68199998 0.087291449 1.3258439e-38 356 167
0.044308487 0.68300003 0.087419443 1.344283e-38 357 167
0.045705888 0.68599999 0.087803423 1.3442845e-38 358 167
0.046977058 0.68699998 0.087931409 1.3719434e-38 359 167
0.048391998 0.69 0.088315398 1.0669816e-38 360 167
0.049673684 0.69099998 0.088443391 9.2865226e-39 361 167
0.051032521 0.69300002 0.088699378 9.2894149e-39 362 167
0.052322973 0.69400001 0.088827372 9.1050237e-39 363 167
0.053771228 0.69700003 0.089211352 8.9213541e-39 364 167
