# .PCD v.7 - Point Cloud Data file format
FIELDS x y z rgb imX imY
SIZE 4 4 4 4 4 4
TYPE F F F F F F
COUNT 1 1 1 1 1 1
WIDTH 743
HEIGHT 1
VIEWPOINT 0 0 0 1 0 0 0
POINTS 743
DATA ascii
-0.0075954394 0.722 -0.022786319 1.4090425e-38 314 258
-0.0063382997 0.72299999 -0.02281788 1.3998229e-38 315 258
-0.0050706398 0.72299999 -0.02281788 1.482439e-38 316 258
-0.0038240198 0.727 -0.022944121 1.482439e-38 317 258
-0.0025493465 0.727 -0.022944121 1.5100263e-38 318 258
-0.0012746733 0.727 -0.022944121 1.5376491e-38 319 258
0 0.72799999 -0.022975679 1.4458134e-38 320 258
0.0012764266 0.72799999 -0.022975679 1.3812764e-38 321 258
0.0025528532 0.72799999 -0.022975679 1.2891881e-38 322 258
0.0038397999 0.73000002 -0.023038799 1.2799686e-38 323 258
0.0051197335 0.73000002 -0.023038799 1.2061765e-38 324 258
-0.0088613462 0.722 -0.024052227 1.0871529e-38 313 259
-0.0075954394 0.722 -0.024052227 1.2699581e-38 314 259
-0.0063382997 0.72299999 -0.024085538 1.4727885e-38 315 259
-0.0050706398 0.72299999 -0.024085538 1.4915882e-38 316 259
-0.0038029798 0.72299999 -0.024085538 1.5285025e-38 317 259
-0.0025353199 0.72299999 -0.024085538 1.5470858e-38 318 259
-0.0012711667 0.72500002 -0.024152167 1.5378661e-38 319 259
0 0.727 -0.024218792 1.4089353e-38 320 259
0.0012764266 0.72799999 -0.024252106 1.3443983e-38 321 259
0.0025528532 0.72799999 -0.024252106 1.2706768e-38 322 259
0.0038292799 0.72799999 -0.024252106 1.2798964e-38 323 259
0.0051057064 0.72799999 -0.024252106 1.2892588e-38 324 259
0.0063996664 0.73000002 -0.024318734 1.2062468e-38 325 259
0.0076795998 0.73000002 -0.024318734 1.1319498e-38 326 259
-0.010099201 0.72000003 -0.025248 1.2339799e-38 312 260
-0.0088613462 0.722 -0.025318133 1.2985169e-38 313 260
-0.0075954394 0.722 -0.025318133 1.4455614e-38 314 260
-0.0063295332 0.722 -0.025318133 1.4640005e-38 315 260
-0.0050706398 0.72299999 -0.025353199 1.4823674e-38 316 260
-0.0038029798 0.72299999 -0.025353199 1.4915869e-38 317 260
-0.0025353199 0.72299999 -0.025353199 1.4180825e-38 318 260
-0.0012711667 0.72500002 -0.025423333 1.3812043e-38 319 260
0 0.727 -0.025493465 1.3074841e-38 320 260
0.0012746733 0.727 -0.025493465 1.2798614e-38 321 260
0.0025493465 0.727 -0.025493465 1.3072678e-38 322 260
0.0038240198 0.727 -0.025493465 1.3164875e-38 323 260
0.0050986931 0.727 -0.025493465 1.2984427e-38 324 260
0.0063821329 0.72799999 -0.025528532 1.3261014e-38 325 260
0.0076585598 0.72799999 -0.025528532 1.3716229e-38 326 260
0.0089349858 0.72799999 -0.025528532 1.261024e-38 327 260
0.010211413 0.72799999 -0.025528532 8.7438194e-39 328 260
0.01140894 0.72299999 -0.025353199 8.4672325e-39 329 260
-0.010099201 0.72000003 -0.026510401 1.2152517e-38 312 261
-0.0088367993 0.72000003 -0.026510401 1.4088625e-38 313 261
-0.0075954394 0.722 -0.026584039 1.3997873e-38 314 261
-0.0063295332 0.722 -0.026584039 1.3905677e-38 315 261
-0.0050706398 0.72299999 -0.026620859 1.4272299e-38 316 261
-0.0038029798 0.72299999 -0.026620859 1.4272299e-38 317 261
-0.0025353199 0.72299999 -0.026620859 1.3812759e-38 318 261
-0.0012676599 0.72299999 -0.026620859 1.3444336e-38 319 261
0 0.72299999 -0.026620859 1.2614571e-38 320 261
0.0012711667 0.72500002 -0.026694499 1.2153595e-38 321 261
0.0025423334 0.72500002 -0.026694499 1.1693338e-38 322 261
0.0038240198 0.727 -0.026768139 1.1969925e-38 323 261
0.0050986931 0.727 -0.026768139 1.2616371e-38 324 261
0.0063733663 0.727 -0.026768139 1.2985152e-38 325 261
0.0076480396 0.727 -0.026768139 1.3627985e-38 326 261
0.0088981669 0.72500002 -0.026694499 1.270567e-38 327 261
0.01014128 0.72299999 -0.026620859 1.1687928e-38 328 261
0.01140894 0.72299999 -0.026620859 8.9220575e-39 329 261
0.012676599 0.72299999 -0.026620859 6.1796281e-39 330 261
-0.010099201 0.72000003 -0.027772799 1.3446124e-38 312 262
-0.0088367993 0.72000003 -0.027772799 1.372307e-38 313 262
-0.0075954394 0.722 -0.027849946 1.3540108e-38 314 262
-0.0063295332 0.722 -0.027849946 1.3170967e-38 315 262
-0.0050636264 0.722 -0.027849946 1.3627982e-38 316 262
-0.0037977197 0.722 -0.027849946 1.3904569e-38 317 262
-0.0025318132 0.722 -0.027849946 1.3538676e-38 318 262
-0.0012676599 0.72299999 -0.02788852 1.3077698e-38 319 262
0 0.72299999 -0.02788852 1.1599342e-38 320 262
0.0012676599 0.72299999 -0.02788852 1.1046527e-38 321 262
0.0025353199 0.72299999 -0.02788852 1.0585549e-38 322 262
0.0038135003 0.72500002 -0.027965667 1.1046527e-38 323 262
0.0050846669 0.72500002 -0.027965667 1.1416751e-38 324 262
0.0063558333 0.72500002 -0.027965667 1.2154316e-38 325 262
0.0076270006 0.72500002 -0.027965667 1.2707124e-38 326 262
0.0088981669 0.72500002 -0.027965667 1.3075547e-38 327 262
0.01014128 0.72299999 -0.02788852 1.3256341e-38 328 262
0.01140894 0.72299999 -0.02788852 1.095181e-38 329 262
0.012676599 0.72299999 -0.02788852 6.4447062e-39 330 262
0.01394426 0.72299999 -0.02788852 7.5514125e-39 331 262
-0.010099201 0.72000003 -0.029035201 1.2251531e-38 312 263
-0.0088367993 0.72000003 -0.029035201 1.2159336e-38 313 263
-0.0075954394 0.722 -0.029115854 1.2436272e-38 314 263
-0.0063295332 0.722 -0.029115854 1.2436272e-38 315 263
-0.0050636264 0.722 -0.029115854 1.2710342e-38 316 263
-0.0037977197 0.722 -0.029115854 1.2525951e-38 317 263
-0.0025318132 0.722 -0.029115854 1.2617077e-38 318 263
-0.0012676599 0.72299999 -0.029156178 1.2617077e-38 319 263
0 0.72299999 -0.029156178 1.0584823e-38 320 263
0.0012676599 0.72299999 -0.029156178 9.6628666e-39 321 263
0.0025353199 0.72299999 -0.029156178 9.7557853e-39 322 263
0.0038029798 0.72299999 -0.029156178 1.0308959e-38 323 263
0.0050706398 0.72299999 -0.029156178 1.058627e-38 324 263
0.0063558333 0.72500002 -0.029236834 1.0954694e-38 325 263
0.0076059597 0.72299999 -0.029156178 1.1783013e-38 326 263
0.0088736191 0.72299999 -0.029156178 1.2428382e-38 327 263
0.01014128 0.72299999 -0.029156178 1.2426943e-38 328 263
0.01140894 0.72299999 -0.029156178 1.1320236e-38 329 263
0.012676599 0.72299999 -0.029156178 9.6621827e-39 330 263
0.01394426 0.72299999 -0.029156178 8.4636395e-39 331 263
-0.010127253 0.722 -0.030381758 1.2065694e-38 312 264
-0.0088613462 0.722 -0.030381758 1.132777e-38 313 264
-0.0075954394 0.722 -0.030381758 1.0962937e-38 314 264
-0.0063295332 0.722 -0.030381758 1.1239525e-38 315 264
-0.0050636264 0.722 -0.030381758 1.1882029e-38 316 264
-0.0037977197 0.722 -0.030381758 1.1605083e-38 317 264
-0.0025318132 0.722 -0.030381758 1.1512171e-38 318 264
-0.0012676599 0.72299999 -0.030423839 1.132742e-38 319 264
0 0.72299999 -0.030423839 9.2022584e-39 320 264
0.0012676599 0.72299999 -0.030423839 8.7412788e-39 321 264
0.0025353199 0.72299999 -0.030423839 9.0193174e-39 322 264
0.0038029798 0.72299999 -0.030423839 9.4799369e-39 323 264
0.0050706398 0.72299999 -0.030423839 9.664684e-39 324 264
0.0063382997 0.72299999 -0.030423839 9.664684e-39 325 264
0.0076059597 0.72299999 -0.030423839 1.0309328e-38 326 264
0.0088736191 0.72299999 -0.030423839 1.0401523e-38 327 264
0.01014128 0.72299999 -0.030423839 1.104365e-38 328 264
0.01140894 0.72299999 -0.030423839 1.0951454e-38 329 264
0.012676599 0.72299999 -0.030423839 1.0676315e-38 330 264
0.01394426 0.72299999 -0.030423839 1.0030946e-38 331 264
0.015254001 0.72500002 -0.030508002 6.8138628e-39 332 264
0.016525166 0.72500002 -0.030508002 1.1054863e-38 333 264
-0.010127253 0.722 -0.031647664 1.2523076e-38 312 265
-0.0088613462 0.722 -0.031647664 1.012635e-38 313 265
-0.0075954394 0.722 -0.031647664 8.0083619e-39 314 265
-0.0063295332 0.722 -0.031647664 7.9161662e-39 315 265
-0.0050636264 0.722 -0.031647664 8.3800367e-39 316 265
-0.0037977197 0.722 -0.031647664 9.2097987e-39 317 265
-0.0025318132 0.722 -0.031647664 9.6704224e-39 318 265
-0.0012659066 0.722 -0.031647664 9.3938355e-39 319 265
0 0.722 -0.031647664 8.650881e-39 320 265
0.0012659066 0.722 -0.031647664 8.2820999e-39 321 265
0.0025318132 0.722 -0.031647664 8.8338542e-39 322 265
0.0037977197 0.722 -0.031647664 8.8338542e-39 323 265
0.0050636264 0.722 -0.031647664 9.2919527e-39 324 265
0.0063295332 0.722 -0.031647664 9.10756e-39 325 265
0.0076059597 0.72299999 -0.031691495 9.3862951e-39 326 265
0.0088736191 0.72299999 -0.031691495 8.9253183e-39 327 265
0.01014128 0.72299999 -0.031691495 9.110413e-39 328 265
0.01140894 0.72299999 -0.031691495 9.5713898e-39 329 265
0.012676599 0.72299999 -0.031691495 1.0491554e-38 330 265
0.01394426 0.72299999 -0.031691495 1.0583751e-38 331 265
0.015254001 0.72500002 -0.031779166 7.6389362e-39 332 265
0.016525166 0.72500002 -0.031779166 9.8516313e-39 333 265
0.017796334 0.72500002 -0.031779166 1.4290716e-38 334 265
-0.012659066 0.722 -0.032913569 1.0402972e-38 310 266
-0.01139316 0.722 -0.032913569 1.0587363e-38 311 266
-0.010127253 0.722 -0.032913569 1.1143039e-38 312 266
-0.0088613462 0.722 -0.032913569 9.483157e-39 313 266
-0.0075954394 0.722 -0.032913569 8.9249708e-39 314 266
-0.0063295332 0.722 -0.032913569 7.5416762e-39 315 266
-0.0050636264 0.722 -0.032913569 6.1652284e-39 316 266
-0.0037977197 0.722 -0.032913569 7.5481628e-39 317 266
-0.0025318132 0.722 -0.032913569 8.3779081e-39 318 266
-0.0012659066 0.722 -0.032913569 8.8388862e-39 319 266
0 0.722 -0.032913569 8.928191e-39 320 266
0.0012659066 0.722 -0.032913569 8.6516055e-39 321 266
0.0025318132 0.722 -0.032913569 8.922803e-39 322 266
0.0037977197 0.722 -0.032913569 9.1993899e-39 323 266
0.0050636264 0.722 -0.032913569 9.1104285e-39 324 266
0.0063295332 0.722 -0.032913569 9.2029828e-39 325 266
0.0075954394 0.722 -0.032913569 9.6625134e-39 326 266
0.0088736191 0.72299999 -0.032959159 9.6625134e-39 327 266
0.01014128 0.72299999 -0.032959159 9.4799214e-39 328 266
0.01140894 0.72299999 -0.032959159 9.6639526e-39 329 266
0.012676599 0.72299999 -0.032959159 9.4817347e-39 330 266
0.01394426 0.72299999 -0.032959159 9.5742905e-39 331 266
0.015254001 0.72500002 -0.033050332 8.1931847e-39 332 266
0.016525166 0.72500002 -0.033050332 8.2853818e-39 333 266
0.017796334 0.72500002 -0.033050332 1.1340804e-38 334 266
0.0190675 0.72500002 -0.033050332 1.5121185e-38 335 266
-0.0151488 0.72000003 -0.034084801 1.2895847e-38 308 267
-0.0138864 0.72000003 -0.034084801 1.114377e-38 309 267
-0.012624 0.72000003 -0.034084801 1.0218208e-38 310 267
-0.01139316 0.722 -0.034179479 7.6367305e-39 311 267
-0.010127253 0.722 -0.034179479 6.5350689e-39 312 267
-0.0088613462 0.722 -0.034179479 8.4711771e-39 313 267
-0.0076059597 0.72299999 -0.03422682 1.0582691e-38 314 267
-0.0063295332 0.722 -0.034179479 8.7391376e-39 315 267
-0.0050636264 0.722 -0.034179479 6.6254681e-39 316 267
-0.0037977197 0.722 -0.034179479 6.9942506e-39 317 267
-0.0025318132 0.722 -0.034179479 7.3637534e-39 318 267
-0.0012659066 0.722 -0.034179479 8.2860684e-39 319 267
0 0.72000003 -0.034084801 9.6661064e-39 320 267
0.0012624001 0.72000003 -0.034084801 9.2051296e-39 321 267
0.0025248001 0.72000003 -0.034084801 8.7409103e-39 322 267
0.0037977197 0.722 -0.034179479 8.7409103e-39 323 267
0.0050496003 0.72000003 -0.034084801 9.3891481e-39 324 267
0.0063120001 0.72000003 -0.034084801 1.0034518e-38 325 267
0.0075954394 0.722 -0.034179479 1.0219612e-38 326 267
0.0088613462 0.722 -0.034179479 9.5742428e-39 327 267
0.010127253 0.722 -0.034179479 9.8483074e-39 328 267
0.01140894 0.72299999 -0.03422682 9.8483074e-39 329 267
0.012676599 0.72299999 -0.03422682 9.4813466e-39 330 267
0.01394426 0.72299999 -0.03422682 9.4813466e-39 331 267
0.015211919 0.72299999 -0.03422682 8.5619434e-39 332 267
0.016525166 0.72500002 -0.034321502 8.3779109e-39 333 267
0.017796334 0.72500002 -0.034321502 6.7302978e-39 334 267
0.0190675 0.72500002 -0.034321502 1.2538621e-38 335 267
0.020338668 0.72500002 -0.034321502 1.7240971e-38 336 267
-0.016388407 0.71899998 -0.035298105 9.4824157e-39 307 268
-0.01512776 0.71899998 -0.035298105 1.0767753e-38 308 268
-0.013867113 0.71899998 -0.035298105 1.0859948e-38 309 268
-0.012606465 0.71899998 -0.035298105 9.5735548e-39 310 268
-0.01134582 0.71899998 -0.035298105 7.5452509e-39 311 268
-0.010085173 0.71899998 -0.035298105 6.0697775e-39 312 268
-0.0088613462 0.722 -0.035445385 8.0058858e-39 313 268
-0.0075954394 0.722 -0.035445385 8.5626455e-39 314 268
-0.0063120001 0.72000003 -0.035347197 7.5488537e-39 315 268
-0.0050496003 0.72000003 -0.035347197 7.176488e-39 316 268
-0.0037977197 0.722 -0.035445385 6.623673e-39 317 268
-0.0025248001 0.72000003 -0.035347197 6.8091629e-39 318 268
-0.0012624001 0.72000003 -0.035347197 7.4545323e-39 319 268
0 0.72000003 -0.035347197 8.1938672e-39 320 268
0.0012624001 0.72000003 -0.035347197 8.6548453e-39 321 268
0.0025248001 0.72000003 -0.035347197 9.3869831e-39 322 268
0.0037977197 0.722 -0.035445385 9.8476025e-39 323 268
0.0050496003 0.72000003 -0.035347197 9.8501067e-39 324 268
0.0063120001 0.72000003 -0.035347197 9.6657154e-39 325 268
0.0075954394 0.722 -0.035445385 9.2976545e-39 326 268
0.0088613462 0.722 -0.035445385 8.8366778e-39 327 268
0.010127253 0.722 -0.035445385 9.0192768e-39 328 268
0.01140894 0.72299999 -0.035494477 9.1114724e-39 329 268
0.012676599 0.72299999 -0.035494477 8.4693652e-39 330 268
0.01394426 0.72299999 -0.035494477 8.3771696e-39 331 268
0.015211919 0.72299999 -0.035494477 8.1917162e-39 332 268
0.016525166 0.72500002 -0.035592668 8.7448885e-39 333 268
0.017796334 0.72500002 -0.035592668 7.6443312e-39 334 268
0.0190675 0.72500002 -0.035592668 1.1147765e-38 335 268
0.020338668 0.72500002 -0.035592668 1.5766201e-38 336 268
-0.017649053 0.71899998 -0.036558751 1.2152865e-38 306 269
-0.016388407 0.71899998 -0.036558751 1.224542e-38 307 269
-0.01512776 0.71899998 -0.036558751 1.1413133e-38 308 269
-0.013867113 0.71899998 -0.036558751 1.0767764e-38 309 269
-0.012606465 0.71899998 -0.036558751 9.3884251e-39 310 269
-0.01134582 0.71899998 -0.036558751 8.0976862e-39 311 269
-0.010085173 0.71899998 -0.036558751 7.4487491e-39 312 269
-0.0088367993 0.72000003 -0.036609601 7.7249759e-39 313 269
-0.0075743999 0.72000003 -0.036609601 7.089693e-39 314 269
-0.0063120001 0.72000003 -0.036609601 7.5503124e-39 315 269
-0.0050496003 0.72000003 -0.036609601 7.4512701e-39 316 269
-0.0037872 0.72000003 -0.036609601 6.2527269e-39 317 269
-0.0025248001 0.72000003 -0.036609601 6.4382055e-39 318 269
-0.0012624001 0.72000003 -0.036609601 6.8991837e-39 319 269
0 0.71899998 -0.036558751 6.9034969e-39 320 269
0.0012606466 0.71899998 -0.036558751 7.733259e-39 321 269
0.0025248001 0.72000003 -0.036609601 9.4802746e-39 322 269
0.0037872 0.72000003 -0.036609601 1.0125644e-38 323 269
0.0050496003 0.72000003 -0.036609601 9.7572104e-39 324 269
0.0063120001 0.72000003 -0.036609601 8.1898861e-39 325 269
0.0075743999 0.72000003 -0.036609601 6.9935121e-39 326 269
0.0088613462 0.722 -0.03671129 7.3619359e-39 327 269
0.010127253 0.722 -0.03671129 7.7292975e-39 328 269
0.01140894 0.72299999 -0.036762137 7.6367431e-39 329 269
0.012676599 0.72299999 -0.036762137 7.2704899e-39 330 269
0.01394426 0.72299999 -0.036762137 7.4548826e-39 331 269
0.015254001 0.72500002 -0.036863834 8.0041005e-39 332 269
0.016570752 0.727 -0.036965527 8.7420243e-39 333 269
0.017845426 0.727 -0.036965527 8.748155e-39 334 269
0.019120099 0.727 -0.036965527 1.0776459e-38 335 269
0.020422826 0.72799999 -0.037016369 1.419707e-38 336 269
-0.0189886 0.722 -0.0379772 1.0038521e-38 305 270
-0.017649053 0.71899998 -0.037819397 1.3167389e-38 306 270
-0.016388407 0.71899998 -0.037819397 1.3075194e-38 307 270
-0.01512776 0.71899998 -0.037819397 1.2428012e-38 308 270
-0.013867113 0.71899998 -0.037819397 1.1321666e-38 309 270
-0.012606465 0.71899998 -0.037819397 1.1319852e-38 310 270
-0.01134582 0.71899998 -0.037819397 1.0305339e-38 311 270
-0.010085173 0.71899998 -0.037819397 7.9129475e-39 312 270
-0.0088245263 0.71899998 -0.037819397 8.0051431e-39 313 270
-0.0075638802 0.71899998 -0.037819397 8.9278379e-39 314 270
-0.0063032326 0.71899998 -0.037819397 1.0310772e-38 315 270
-0.0050425865 0.71899998 -0.037819397 9.0139028e-39 316 270
-0.0037872 0.72000003 -0.037871998 7.6309684e-39 317 270
-0.0025248001 0.72000003 -0.037871998 6.4439453e-39 318 270
-0.0012624001 0.72000003 -0.037871998 6.7208909e-39 319 270
0 0.71899998 -0.037819397 7.2715605e-39 320 270
0.0012606466 0.71899998 -0.037819397 7.4559518e-39 321 270
0.0025248001 0.72000003 -0.037871998 8.0094787e-39 322 270
0.0037872 0.72000003 -0.037871998 8.0094787e-39 323 270
0.0050496003 0.72000003 -0.037871998 7.9140405e-39 324 270
0.0063120001 0.72000003 -0.037871998 7.2686711e-39 325 270
0.0075743999 0.72000003 -0.037871998 7.0835721e-39 326 270
0.0088613462 0.722 -0.0379772 7.1757692e-39 327 270
0.010127253 0.722 -0.0379772 7.2676173e-39 328 270
0.01140894 0.72299999 -0.038029801 7.2676173e-39 329 270
0.012676599 0.72299999 -0.038029801 7.268339e-39 330 270
0.01394426 0.72299999 -0.038029801 7.5449272e-39 331 270
0.015211919 0.72299999 -0.038029801 7.6381977e-39 332 270
0.016570752 0.727 -0.038240198 8.3757627e-39 333 270
0.017845426 0.727 -0.038240198 8.9311029e-39 334 270
0.019120099 0.727 -0.038240198 1.0314039e-38 335 270
0.020422826 0.72799999 -0.038292799 1.2813047e-38 336 270
-0.020282559 0.72299999 -0.039297458 1.104873e-38 304 271
-0.0189886 0.722 -0.039243106 1.1694099e-38 305 271
-0.017673599 0.72000003 -0.039134402 1.3260686e-38 306 271
-0.016388407 0.71899998 -0.039080046 1.3168491e-38 307 271
-0.01512776 0.71899998 -0.039080046 1.2520951e-38 308 271
-0.013867113 0.71899998 -0.039080046 1.1783386e-38 309 271
-0.012606465 0.71899998 -0.039080046 1.1873025e-38 310 271
-0.01131426 0.71700001 -0.038971342 1.113546e-38 311 271
-0.01005712 0.71700001 -0.038971342 9.6624938e-39 312 271
-0.0088245263 0.71899998 -0.039080046 9.0171244e-39 313 271
-0.0075638802 0.71899998 -0.039080046 9.3905985e-39 314 271
-0.0063032326 0.71899998 -0.039080046 1.0773533e-38 315 271
-0.0050425865 0.71899998 -0.039080046 1.0857444e-38 316 271
-0.0037819401 0.71899998 -0.039080046 9.4745096e-39 317 271
-0.0025212932 0.71899998 -0.039080046 7.640671e-39 318 271
-0.0012606466 0.71899998 -0.039080046 7.4566398e-39 319 271
0 0.71899998 -0.039080046 7.5463355e-39 320 271
0.0012606466 0.71899998 -0.039080046 7.5463355e-39 321 271
0.0025248001 0.72000003 -0.039134402 7.6389109e-39 322 271
0.0037872 0.72000003 -0.039134402 7.3626842e-39 323 271
0.0050496003 0.72000003 -0.039134402 6.9928255e-39 324 271
0.0063120001 0.72000003 -0.039134402 6.8084328e-39 325 271
0.0075954394 0.722 -0.039243106 6.7162372e-39 326 271
0.0088613462 0.722 -0.039243106 6.7162372e-39 327 271
0.010127253 0.722 -0.039243106 6.8080783e-39 328 271
0.01140894 0.72299999 -0.039297458 6.8080783e-39 329 271
0.012676599 0.72299999 -0.039297458 6.7176805e-39 330 271
0.01394426 0.72299999 -0.039297458 6.9024305e-39 331 271
0.015211919 0.72299999 -0.039297458 7.4548952e-39 332 271
0.016525166 0.72500002 -0.039406165 8.1002646e-39 333 271
0.017845426 0.727 -0.039514873 9.2062619e-39 334 271
0.0191464 0.72799999 -0.039569225 1.0128218e-38 335 271
0.020422826 0.72799999 -0.039569225 1.1890366e-38 336 271
0.021758866 0.73000002 -0.039677933 1.6684538e-38 337 271
-0.021550218 0.72299999 -0.040565118 7.6508122e-39 303 272
-0.020254506 0.722 -0.040509012 1.1046212e-38 304 272
-0.018935999 0.72000003 -0.040396802 1.2520983e-38 305 272
-0.017673599 0.72000003 -0.040396802 1.3441848e-38 306 272
-0.016388407 0.71899998 -0.040340692 1.3349651e-38 307 272
-0.01512776 0.71899998 -0.040340692 1.2244011e-38 308 272
-0.013828539 0.71700001 -0.040228479 1.1783033e-38 309 272
-0.0125714 0.71700001 -0.040228479 1.1598978e-38 310 272
-0.01131426 0.71700001 -0.040228479 1.1875206e-38 311 272
-0.01005712 0.71700001 -0.040228479 1.1321289e-38 312 272
-0.0087999795 0.71700001 -0.040228479 8.8320087e-39 313 272
-0.0075428397 0.71700001 -0.040228479 9.1089543e-39 314 272
-0.0062857 0.71700001 -0.040228479 1.0952508e-38 315 272
-0.0050425865 0.71899998 -0.040340692 1.1233787e-38 316 272
-0.0037819401 0.71899998 -0.040340692 1.0311829e-38 317 272
-0.0025212932 0.71899998 -0.040340692 7.8265112e-39 318 272
-0.0012606466 0.71899998 -0.040340692 6.3513797e-39 319 272
0 0.71899998 -0.040340692 7.7278471e-39 320 272
0.0012606466 0.71899998 -0.040340692 8.1891854e-39 321 272
0.0025248001 0.72000003 -0.040396802 7.5492222e-39 322 272
0.0037977197 0.722 -0.040509012 7.1804411e-39 323 272
0.0050636264 0.722 -0.040509012 7.2686893e-39 324 272
0.0063295332 0.722 -0.040509012 6.8999068e-39 325 272
0.0075954394 0.722 -0.040509012 6.4403733e-39 326 272
0.0088613462 0.722 -0.040509012 6.532569e-39 327 272
0.01014128 0.72299999 -0.040565118 6.4403733e-39 328 272
0.01140894 0.72299999 -0.040565118 6.4403733e-39 329 272
0.012676599 0.72299999 -0.040565118 6.6251205e-39 330 272
0.01394426 0.72299999 -0.040565118 6.9935443e-39 331 272
0.015211919 0.72299999 -0.040565118 7.543128e-39 332 272
0.016525166 0.72500002 -0.040677335 8.7416712e-39 333 272
0.017845426 0.727 -0.040789545 9.4796047e-39 334 272
0.0191464 0.72799999 -0.040845651 1.0493758e-38 335 272
0.020478934 0.73000002 -0.040957868 1.1427945e-38 336 272
0.021758866 0.73000002 -0.040957868 1.6683096e-38 337 272
-0.022786319 0.722 -0.041774917 1.1522308e-38 302 273
-0.021520413 0.722 -0.041774917 5.8980162e-39 303 273
-0.020198401 0.72000003 -0.041659199 1.0676705e-38 304 273
-0.018935999 0.72000003 -0.041659199 1.2336225e-38 305 273
-0.017649053 0.71899998 -0.041601337 1.2522038e-38 306 273
-0.016388407 0.71899998 -0.041601337 1.2245811e-38 307 273
-0.015085679 0.71700001 -0.041485619 1.114089e-38 308 273
-0.013828539 0.71700001 -0.041485619 1.0679912e-38 309 273
-0.0125714 0.71700001 -0.041485619 1.067883e-38 310 273
-0.01131426 0.71700001 -0.041485619 1.086358e-38 311 273
-0.01005712 0.71700001 -0.041485619 1.0862832e-38 312 273
-0.0087999795 0.71700001 -0.041485619 9.9412359e-39 313 273
-0.0075428397 0.71700001 -0.041485619 9.4813438e-39 314 273
-0.0062857 0.71700001 -0.041485619 9.7582894e-39 315 273
-0.0050285598 0.71700001 -0.041485619 9.8523123e-39 316 273
-0.0037714199 0.71700001 -0.041485619 9.7601167e-39 317 273
-0.0025142799 0.71700001 -0.041485619 8.4650436e-39 318 273
-0.00125714 0.71700001 -0.041485619 6.8977165e-39 319 273
0 0.71700001 -0.041485619 7.8232672e-39 320 273
0.00125714 0.71700001 -0.041485619 8.099854e-39 321 273
0.0025248001 0.72000003 -0.041659199 7.2715577e-39 322 273
0.0037977197 0.722 -0.041774917 6.9953296e-39 323 273
0.0050636264 0.722 -0.041774917 6.9928227e-39 324 273
0.0063295332 0.722 -0.041774917 6.80843e-39 325 273
0.0076059597 0.72299999 -0.041832779 6.8999096e-39 326 273
0.0088736191 0.72299999 -0.041832779 6.6229639e-39 327 273
0.01014128 0.72299999 -0.041832779 6.4396545e-39 328 273
0.01140894 0.72299999 -0.041832779 6.4396545e-39 329 273
0.012676599 0.72299999 -0.041832779 6.6247688e-39 330 273
0.01394426 0.72299999 -0.041832779 6.8091601e-39 331 273
0.015211919 0.72299999 -0.041832779 7.8208037e-39 332 273
0.016525166 0.72500002 -0.041948501 8.5583687e-39 333 273
0.017845426 0.727 -0.042064216 9.6657953e-39 334 273
0.0191464 0.72799999 -0.042122077 1.0126773e-38 335 273
0.020478934 0.73000002 -0.0422378 1.1701658e-38 336 273
0.021758866 0.73000002 -0.0422378 1.7049004e-38 337 273
-0.022786319 0.722 -0.043040827 1.0136853e-38 302 274
-0.021520413 0.722 -0.043040827 6.448669e-39 303 274
-0.020198401 0.72000003 -0.042921603 1.0491962e-38 304 274
-0.018935999 0.72000003 -0.042921603 1.1321724e-38 305 274
-0.017649053 0.71899998 -0.042861983 1.1045135e-38 306 274
-0.016342819 0.71700001 -0.042742759 1.0676354e-38 307 274
-0.015085679 0.71700001 -0.042742759 1.0217523e-38 308 274
-0.013828539 0.71700001 -0.042742759 9.8487418e-39 309 274
-0.0125714 0.71700001 -0.042742759 9.021851e-39 310 274
-0.01131426 0.71700001 -0.042742759 9.2062422e-39 311 274
-0.01005712 0.71700001 -0.042742759 9.9416437e-39 312 274
-0.0087999795 0.71700001 -0.042742759 1.1047991e-38 313 274
-0.0075428397 0.71700001 -0.042742759 1.1506079e-38 314 274
-0.0062769335 0.71600002 -0.042683143 9.4777746e-39 315 274
-0.0050215465 0.71600002 -0.042683143 6.8174039e-39 316 274
-0.00376616 0.71600002 -0.042683143 7.0936307e-39 317 274
-0.0025107733 0.71600002 -0.042683143 8.3750144e-39 318 274
-0.00125714 0.71700001 -0.042742759 8.3750144e-39 319 274
0 0.71700001 -0.042742759 7.4584559e-39 320 274
0.00125714 0.71700001 -0.042742759 6.8130865e-39 321 274
0.0025248001 0.72000003 -0.042921603 7.0850211e-39 322 274
0.0037977197 0.722 -0.043040827 6.9006298e-39 323 274
0.0050636264 0.722 -0.043040827 6.7173274e-39 324 274
0.0063382997 0.72299999 -0.043100435 6.8098817e-39 325 274
0.0076059597 0.72299999 -0.043100435 6.7173176e-39 326 274
0.0088736191 0.72299999 -0.043100435 6.7173176e-39 327 274
0.01014128 0.72299999 -0.043100435 6.7162344e-39 328 274
0.01140894 0.72299999 -0.043100435 6.5322032e-39 329 274
0.012676599 0.72299999 -0.043100435 6.900627e-39 330 274
0.013982833 0.72500002 -0.043219667 7.4537994e-39 331 274
0.015254001 0.72500002 -0.043219667 7.8236609e-39 332 274
0.016570752 0.727 -0.043338891 8.653423e-39 333 274
0.017869972 0.72799999 -0.043398503 9.3891916e-39 334 274
0.0191464 0.72799999 -0.043398503 1.0034561e-38 335 274
0.020422826 0.72799999 -0.043398503 1.1978952e-38 336 274
0.021758866 0.73000002 -0.043517731 1.7141906e-38 337 274
-0.022786319 0.722 -0.044306733 1.0128937e-38 302 275
-0.021520413 0.722 -0.044306733 8.2850258e-39 303 275
-0.020198401 0.72000003 -0.044183999 1.0676354e-38 304 275
-0.018935999 0.72000003 -0.044183999 1.1137331e-38 305 275
-0.017649053 0.71899998 -0.044122629 1.086147e-38 306 275
-0.016342819 0.71700001 -0.043999899 1.067672e-38 307 275
-0.015085679 0.71700001 -0.043999899 1.0216814e-38 308 275
-0.013828539 0.71700001 -0.043999899 9.9405871e-39 309 275
-0.012553867 0.71600002 -0.043938532 9.0222251e-39 310 275
-0.01129848 0.71600002 -0.043938532 8.7456368e-39 311 275
-0.010043093 0.71600002 -0.043938532 7.6428822e-39 312 275
-0.0087877065 0.71600002 -0.043938532 8.3804472e-39 313 275
-0.0075112795 0.71399999 -0.043815799 9.6700889e-39 314 275
-0.0062593995 0.71399999 -0.043815799 8.1953189e-39 315 275
-0.0050215465 0.71600002 -0.043938532 7.6428612e-39 316 275
-0.00376616 0.71600002 -0.043938532 7.3662729e-39 317 275
-0.0025107733 0.71600002 -0.043938532 7.6414122e-39 318 275
-0.0012553866 0.71600002 -0.043938532 7.733968e-39 319 275
0 0.71700001 -0.043999899 6.9942478e-39 320 275
0.0012606466 0.71899998 -0.044122629 6.5332696e-39 321 275
0.0025318132 0.722 -0.044306733 5.7971689e-39 322 275
0.0037977197 0.722 -0.044306733 5.9815602e-39 323 275
0.0050706398 0.72299999 -0.044368099 5.9837154e-39 324 275
0.0063382997 0.72299999 -0.044368099 6.3521378e-39 325 275
0.0076059597 0.72299999 -0.044368099 6.9938975e-39 326 275
0.0088736191 0.72299999 -0.044368099 6.8098663e-39 327 275
0.01014128 0.72299999 -0.044368099 6.900983e-39 328 275
0.01140894 0.72299999 -0.044368099 6.900983e-39 329 275
0.012676599 0.72299999 -0.044368099 6.9034997e-39 330 275
0.013982833 0.72500002 -0.044490833 7.4566735e-39 331 275
0.015254001 0.72500002 -0.044490833 8.4690275e-39 332 275
0.016570752 0.727 -0.044613566 9.0222013e-39 333 275
0.017869972 0.72799999 -0.044674929 9.8501641e-39 334 275
0.0191464 0.72799999 -0.044674929 1.0495534e-38 335 275
0.020422826 0.72799999 -0.044674929 1.308493e-38 336 275
0.021758866 0.73000002 -0.044797666 1.7417766e-38 337 275
-0.024052227 0.722 -0.045572639 1.1523745e-38 301 276
-0.022786319 0.722 -0.045572639 1.0033858e-38 302 276
-0.021520413 0.722 -0.045572639 9.2962925e-39 303 276
-0.020198401 0.72000003 -0.045446403 1.0768903e-38 304 276
-0.018935999 0.72000003 -0.045446403 1.104513e-38 305 276
-0.017649053 0.71899998 -0.045383278 1.0586312e-38 306 276
-0.016342819 0.71700001 -0.045257039 1.0401562e-38 307 276
-0.015085679 0.71700001 -0.045257039 1.0033852e-38 308 276
-0.013828539 0.71700001 -0.045257039 9.757265e-39 309 276
-0.012553867 0.71600002 -0.045193922 8.8389017e-39 310 276
-0.01129848 0.71600002 -0.045193922 8.4704793e-39 311 276
-0.010043093 0.71600002 -0.045193922 7.274457e-39 312 276
-0.0087877065 0.71600002 -0.045193922 6.259945e-39 313 276
-0.0075112795 0.71399999 -0.045067675 7.0889868e-39 314 276
-0.0062593995 0.71399999 -0.045067675 7.3655737e-39 315 276
-0.0050005065 0.713 -0.045004558 7.2730053e-39 316 276
-0.0037503797 0.713 -0.045004558 7.1808096e-39 317 276
-0.0025002533 0.713 -0.045004558 7.4552357e-39 318 276
-0.0012501266 0.713 -0.045004558 7.1782887e-39 319 276
0 0.71700001 -0.045257039 6.1627089e-39 320 276
0.0012624001 0.72000003 -0.045446403 5.7020894e-39 321 276
0.0025318132 0.722 -0.045572639 5.5187898e-39 322 276
0.0037977197 0.722 -0.045572639 5.9797679e-39 323 276
0.0050706398 0.72299999 -0.04563576 5.9822819e-39 324 276
0.0063558333 0.72500002 -0.045761999 6.3514245e-39 325 276
0.0076059597 0.72299999 -0.04563576 6.8098761e-39 326 276
0.0088736191 0.72299999 -0.04563576 6.8098761e-39 327 276
0.01014128 0.72299999 -0.04563576 6.9928255e-39 328 276
0.01140894 0.72299999 -0.04563576 7.3616066e-39 329 276
0.012711667 0.72500002 -0.045761999 7.2722836e-39 330 276
0.013982833 0.72500002 -0.045761999 7.8254574e-39 331 276
0.015296079 0.727 -0.045888241 9.0222041e-39 332 276
0.016570752 0.727 -0.045888241 9.5750192e-39 333 276
0.017869972 0.72799999 -0.045951359 9.5739346e-39 334 276
0.0191464 0.72799999 -0.045951359 1.1048704e-38 335 276
0.020478934 0.73000002 -0.046077598 1.4191994e-38 336 276
0.021758866 0.73000002 -0.046077598 1.7603232e-38 337 276
-0.024052227 0.722 -0.046838548 1.0970205e-38 301 277
-0.022786319 0.722 -0.046838548 1.0399397e-38 302 277
-0.021520413 0.722 -0.046838548 9.9384193e-39 303 277
-0.020198401 0.72000003 -0.0467088 1.0401565e-38 304 277
-0.018909698 0.71899998 -0.046643924 1.0493761e-38 305 277
-0.017599959 0.71700001 -0.046514176 1.02179e-38 306 277
-0.016342819 0.71700001 -0.046514176 1.0125704e-38 307 277
-0.015085679 0.71700001 -0.046514176 9.666161e-39 308 277
-0.013828539 0.71700001 -0.046514176 9.5739654e-39 309 277
-0.012553867 0.71600002 -0.046449307 8.748155e-39 310 277
-0.01129848 0.71600002 -0.046449307 8.5637623e-39 311 277
-0.010043093 0.71600002 -0.046449307 7.8269217e-39 312 277
-0.0087877065 0.71600002 -0.046449307 7.0893553e-39 313 277
-0.00753232 0.71600002 -0.046449307 6.9038794e-39 314 277
-0.0062593995 0.71399999 -0.046319555 7.0879106e-39 315 277
-0.0050005065 0.713 -0.046254687 7.1779384e-39 316 277
-0.0037503797 0.713 -0.046254687 7.1779384e-39 317 277
-0.0025002533 0.713 -0.046254687 6.9949793e-39 318 277
-0.0012501266 0.713 -0.046254687 6.7180336e-39 319 277
0 0.71700001 -0.046514176 6.072667e-39 320 277
0.0012659066 0.722 -0.046838548 5.4272976e-39 321 277
0.0025318132 0.722 -0.046838548 5.0596067e-39 322 277
0.0038029798 0.72299999 -0.046903417 5.3361936e-39 323 277
0.0050846669 0.72500002 -0.047033165 5.7060551e-39 324 277
0.0063558333 0.72500002 -0.047033165 6.2592289e-39 325 277
0.0076270006 0.72500002 -0.047033165 6.810595e-39 326 277
0.0088981669 0.72500002 -0.047033165 6.810595e-39 327 277
0.010169334 0.72500002 -0.047033165 7.4530833e-39 328 277
0.0114405 0.72500002 -0.047033165 7.9137028e-39 329 277
0.012711667 0.72500002 -0.047033165 8.0087696e-39 330 277
0.013982833 0.72500002 -0.047033165 8.6541391e-39 331 277
0.015296079 0.727 -0.047162913 9.0240034e-39 332 277
0.016570752 0.727 -0.047162913 9.576817e-39 333 277
0.017869972 0.72799999 -0.047227785 9.389186e-39 334 277
0.0191464 0.72799999 -0.047227785 1.1417849e-38 335 277
0.020422826 0.72799999 -0.047227785 1.5574575e-38 336 277
0.021758866 0.73000002 -0.047357533 1.8156052e-38 337 277
-0.022786319 0.722 -0.048104454 1.0491943e-38 302 278
-0.021460801 0.72000003 -0.0479712 9.9387696e-39 303 278
-0.020198401 0.72000003 -0.0479712 1.058451e-38 304 278
-0.018909698 0.71899998 -0.04790457 1.0676707e-38 305 278
-0.017599959 0.71700001 -0.04777132 1.0034227e-38 306 278
-0.016342819 0.71700001 -0.04777132 9.8498362e-39 307 278
-0.015085679 0.71700001 -0.04777132 9.4835704e-39 308 278
-0.013828539 0.71700001 -0.04777132 9.3913748e-39 309 278
-0.012553867 0.71600002 -0.047704693 8.8410695e-39 310 278
-0.01129848 0.71600002 -0.047704693 8.6570383e-39 311 278
-0.010043093 0.71600002 -0.047704693 8.5637469e-39 312 278
-0.0087877065 0.71600002 -0.047704693 8.0105731e-39 313 278
-0.00753232 0.71600002 -0.047704693 7.9158537e-39 314 278
-0.0062593995 0.71399999 -0.047571439 7.3626814e-39 315 278
-0.0050075199 0.71399999 -0.047571439 6.9024249e-39 316 278
-0.0037556398 0.71399999 -0.047571439 6.8102293e-39 317 278
-0.0025037599 0.71399999 -0.047571439 6.5354374e-39 318 278
-0.0012553866 0.71600002 -0.047704693 6.2592107e-39 319 278
0 0.71700001 -0.04777132 6.3488784e-39 320 278
0.0012676599 0.72299999 -0.048171077 5.7957046e-39 321 278
0.0025353199 0.72299999 -0.048171077 5.335102e-39 322 278
0.0038029798 0.72299999 -0.048171077 5.5194932e-39 323 278
0.0050986931 0.727 -0.048437584 5.1554023e-39 324 278
0.0063558333 0.72500002 -0.048304334 5.7082173e-39 325 278
0.0076270006 0.72500002 -0.048304334 6.6262107e-39 326 278
0.0088981669 0.72500002 -0.048304334 6.9949933e-39 327 278
0.010169334 0.72500002 -0.048304334 7.6381949e-39 328 278
0.0114405 0.72500002 -0.048304334 8.1913686e-39 329 278
0.012711667 0.72500002 -0.048304334 8.561226e-39 330 278
0.013982833 0.72500002 -0.048304334 9.2065954e-39 331 278
0.015296079 0.727 -0.048437584 9.6672176e-39 332 278
0.016570752 0.727 -0.048437584 1.003636e-38 333 278
0.017845426 0.727 -0.048437584 9.7565322e-39 334 278
0.019120099 0.727 -0.048437584 1.233801e-38 335 278
0.020394772 0.727 -0.048437584 1.6682364e-38 336 278
0.021669446 0.727 -0.048437584 1.825005e-38 337 278
-0.022786319 0.722 -0.04937036 1.1415692e-38 302 279
-0.021460801 0.72000003 -0.0492336 9.5721381e-39 303 279
-0.020198401 0.72000003 -0.0492336 1.0401195e-38 304 279
-0.018909698 0.71899998 -0.049165215 1.0585228e-38 305 279
-0.017599959 0.71700001 -0.04902846 9.8505593e-39 306 279
-0.016342819 0.71700001 -0.04902846 9.8505593e-39 307 279
-0.015085679 0.71700001 -0.04902846 9.117313e-39 308 279
-0.013828539 0.71700001 -0.04902846 9.2095087e-39 309 279
-0.012553867 0.71600002 -0.048960082 8.9343609e-39 310 279
-0.01129848 0.71600002 -0.048960082 8.8421653e-39 311 279
-0.010043093 0.71600002 -0.048960082 8.4737387e-39 312 279
-0.0087877065 0.71600002 -0.048960082 8.1971518e-39 313 279
-0.00753232 0.71600002 -0.048960082 7.4599301e-39 314 279
-0.0062769335 0.71600002 -0.048960082 6.722365e-39 315 279
-0.0050075199 0.71399999 -0.048823316 6.5379612e-39 316 279
-0.0037556398 0.71399999 -0.048823316 6.2613743e-39 317 279
-0.0025037599 0.71399999 -0.048823316 6.352128e-39 318 279
-0.0012553866 0.71600002 -0.048960082 6.352128e-39 319 279
0 0.71700001 -0.04902846 6.3503259e-39 320 279
0.00125714 0.71700001 -0.04902846 5.9815448e-39 321 279
0.0025353199 0.72299999 -0.049438741 5.3365439e-39 322 279
0.0038029798 0.72299999 -0.049438741 4.8759259e-39 323 279
0.0050986931 0.727 -0.049712259 5.4294654e-39 324 279
0.0063733663 0.727 -0.049712259 5.7982479e-39 325 279
0.0076480396 0.727 -0.049712259 6.9020746e-39 326 279
0.0089227129 0.727 -0.049712259 7.1786615e-39 327 279
0.010169334 0.72500002 -0.0495755 8.006976e-39 328 279
0.0114405 0.72500002 -0.0495755 8.4679555e-39 329 279
0.012711667 0.72500002 -0.0495755 8.9300057e-39 330 279
0.014021406 0.727 -0.049712259 9.391344e-39 331 279
0.015296079 0.727 -0.049712259 9.8519648e-39 332 279
0.016570752 0.727 -0.049712259 1.0036357e-38 333 279
0.017845426 0.727 -0.049712259 1.0586657e-38 334 279
0.019120099 0.727 -0.049712259 1.4366678e-38 335 279
0.020394772 0.727 -0.049712259 1.7697245e-38 336 279
-0.024052227 0.722 -0.050636265 1.5025723e-38 301 280
-0.022786319 0.722 -0.050636265 1.3077364e-38 302 280
-0.021460801 0.72000003 -0.050496001 9.4817347e-39 303 280
-0.020198401 0.72000003 -0.050496001 1.1042596e-38 304 280
-0.018909698 0.71899998 -0.050425861 1.1411379e-38 305 280
-0.017599959 0.71700001 -0.0502856 1.0125699e-38 306 280
-0.016342819 0.71700001 -0.0502856 1.0125699e-38 307 280
-0.015085679 0.71700001 -0.0502856 9.3928181e-39 308 280
-0.013828539 0.71700001 -0.0502856 9.3928181e-39 309 280
-0.012553867 0.71600002 -0.050215468 9.3020574e-39 310 280
-0.01129848 0.71600002 -0.050215468 9.3020574e-39 311 280
-0.010043093 0.71600002 -0.050215468 9.1180151e-39 312 280
-0.0087877065 0.71600002 -0.050215468 9.0254607e-39 313 280
-0.00753232 0.71600002 -0.050215468 8.5637413e-39 314 280
-0.0062769335 0.71600002 -0.050215468 7.9183719e-39 315 280
-0.0050215465 0.71600002 -0.050215468 7.5492194e-39 316 280
-0.00376616 0.71600002 -0.050215468 7.0882427e-39 317 280
-0.0025107733 0.71600002 -0.050215468 6.9034969e-39 318 280
-0.00125714 0.71700001 -0.0502856 6.6272701e-39 319 280
0 0.71700001 -0.0502856 7.3619513e-39 320 280
0.0012606466 0.71899998 -0.050425861 6.9935289e-39 321 280
0.0025353199 0.72299999 -0.050706398 5.7020838e-39 322 280
0.0038029798 0.72299999 -0.050706398 5.5176926e-39 323 280
0.0051057064 0.72799999 -0.051057063 4.8773833e-39 324 280
0.0063821329 0.72799999 -0.051057063 5.5227527e-39 325 280
0.0076585598 0.72799999 -0.051057063 5.8915324e-39 326 280
0.0089349858 0.72799999 -0.051057063 6.7216518e-39 327 280
0.010197386 0.727 -0.050986931 7.4577665e-39 328 280
0.01147206 0.727 -0.050986931 8.1031359e-39 329 280
0.012746733 0.727 -0.050986931 9.02293e-39 330 280
0.014021406 0.727 -0.050986931 9.4839081e-39 331 280
0.015296079 0.727 -0.050986931 1.0312224e-38 332 280
0.016570752 0.727 -0.050986931 1.0312224e-38 333 280
0.017845426 0.727 -0.050986931 1.2710752e-38 334 280
0.019120099 0.727 -0.050986931 1.5845404e-38 335 280
-0.022786319 0.722 -0.051902171 1.4553198e-38 302 281
-0.021520413 0.722 -0.051902171 9.7590251e-39 303 281
-0.020198401 0.72000003 -0.051758397 1.1043653e-38 304 281
-0.018909698 0.71899998 -0.05168651 1.1412435e-38 305 281
-0.017599959 0.71700001 -0.051542737 1.0218969e-38 306 281
-0.016342819 0.71700001 -0.051542737 9.8505453e-39 307 281
-0.015085679 0.71700001 -0.051542737 9.6679659e-39 308 281
-0.013828539 0.71700001 -0.051542737 9.7601615e-39 309 281
-0.012553867 0.71600002 -0.051470853 9.3017071e-39 310 281
-0.01129848 0.71600002 -0.051470853 9.3017071e-39 311 281
-0.010043093 0.71600002 -0.051470853 9.0269153e-39 312 281
-0.0087877065 0.71600002 -0.051470853 8.9343609e-39 313 281
-0.00753232 0.71600002 -0.051470853 8.4730128e-39 314 281
-0.0062769335 0.71600002 -0.051470853 7.919839e-39 315 281
-0.0050215465 0.71600002 -0.051470853 7.5506838e-39 316 281
-0.00376616 0.71600002 -0.051470853 7.0897056e-39 317 281
-0.0025107733 0.71600002 -0.051470853 6.9049486e-39 318 281
-0.00125714 0.71700001 -0.051542737 6.9049486e-39 319 281
0 0.71700001 -0.051542737 7.5477971e-39 320 281
0.0012606466 0.71899998 -0.05168651 7.4556015e-39 321 281
0.0025318132 0.722 -0.051902171 6.2545444e-39 322 281
0.0037977197 0.722 -0.051902171 5.9775973e-39 323 281
0.015296079 0.727 -0.052261602 1.0033855e-38 332 281
0.016570752 0.727 -0.052261602 1.0863617e-38 333 281
0.017845426 0.727 -0.052261602 1.4281335e-38 334 281
-0.021520413 0.722 -0.053168077 1.1237755e-38 303 282
-0.020198401 0.72000003 -0.053020801 1.1321313e-38 304 282
-0.018909698 0.71899998 -0.05294716 1.1413867e-38 305 282
-0.017599959 0.71700001 -0.052799881 1.0862171e-38 306 282
-0.016342819 0.71700001 -0.052799881 1.0677779e-38 307 282
-0.015085679 0.71700001 -0.052799881 1.0218616e-38 308 282
-0.013828539 0.71700001 -0.052799881 1.0218616e-38 309 282
-0.0125714 0.71700001 -0.052799881 9.7598056e-39 310 282
-0.01131426 0.71700001 -0.052799881 9.7598056e-39 311 282
-0.010043093 0.71600002 -0.052726239 9.3017015e-39 312 282
-0.0087877065 0.71600002 -0.052726239 9.2095059e-39 313 282
-0.00753232 0.71600002 -0.052726239 9.2076912e-39 314 282
-0.0062769335 0.71600002 -0.052726239 8.8385485e-39 315 282
-0.0050215465 0.71600002 -0.052726239 8.5619462e-39 316 282
-0.0037714199 0.71700001 -0.052799881 8.1009681e-39 317 282
-0.0025142799 0.71700001 -0.052799881 7.9165768e-39 318 282
-0.00125714 0.71700001 -0.052799881 7.6403487e-39 319 282
0 0.71700001 -0.052799881 7.9162097e-39 320 282
0.0012606466 0.71899998 -0.05294716 7.6392641e-39 321 282
0.0025212932 0.71899998 -0.05294716 7.083219e-39 322 282
0.0037977197 0.722 -0.053168077 6.4378496e-39 323 282
-0.020254506 0.722 -0.054433983 1.2337278e-38 304 283
-0.018935999 0.72000003 -0.054283202 1.1323126e-38 305 283
-0.017649053 0.71899998 -0.054207806 1.1232027e-38 306 283
-0.016388407 0.71899998 -0.054207806 1.0955438e-38 307 283
-0.01512776 0.71899998 -0.054207806 1.0678871e-38 308 283
-0.013828539 0.71700001 -0.054057021 1.0586675e-38 309 283
-0.0125714 0.71700001 -0.054057021 1.0036025e-38 310 283
-0.01131426 0.71700001 -0.054057021 9.943471e-39 311 283
-0.01005712 0.71700001 -0.054057021 9.7601615e-39 312 283
-0.0087999795 0.71700001 -0.054057021 9.6679659e-39 313 283
-0.0075428397 0.71700001 -0.054057021 9.4839235e-39 314 283
-0.0062857 0.71700001 -0.054057021 9.1151424e-39 315 283
-0.0050285598 0.71700001 -0.054057021 8.8381828e-39 316 283
-0.0037714199 0.71700001 -0.054057021 8.5615959e-39 317 283
-0.0025142799 0.71700001 -0.054057021 8.1931693e-39 318 283
-0.00125714 0.71700001 -0.054057021 8.100615e-39 319 283
0 0.71700001 -0.054057021 8.3761158e-39 320 283
0.0012606466 0.71899998 -0.054207806 8.0991688e-39 321 283
0.0025212932 0.71899998 -0.054207806 7.9122538e-39 322 283
-0.017649053 0.71899998 -0.055468451 1.1967797e-38 306 284
-0.016388407 0.71899998 -0.055468451 1.1598654e-38 307 284
-0.01512776 0.71899998 -0.055468451 1.0772143e-38 308 284
-0.013828539 0.71700001 -0.055314157 1.0495556e-38 309 284
-0.0125714 0.71700001 -0.055314157 1.0128218e-38 310 284
-0.01131426 0.71700001 -0.055314157 1.0036023e-38 311 284
-0.01005712 0.71700001 -0.055314157 9.8523543e-39 312 284
-0.0087999795 0.71700001 -0.055314157 9.7601587e-39 313 284
-0.0075428397 0.71700001 -0.055314157 9.5761206e-39 314 284
-0.0062857 0.71700001 -0.055314157 9.2073381e-39 315 284
-0.0050285598 0.71700001 -0.055314157 8.9311029e-39 316 284
-0.0037714199 0.71700001 -0.055314157 8.5623218e-39 317 284
-0.0025142799 0.71700001 -0.055314157 8.6527167e-39 318 284
-0.00125714 0.71700001 -0.055314157 8.6527167e-39 319 284
0 0.71700001 -0.055314157 8.3775606e-39 320 284
0.0012606466 0.71899998 -0.055468451 8.1931693e-39 321 284
-0.0125714 0.71700001 -0.056571297 1.0679227e-38 310 285
-0.01131426 0.71700001 -0.056571297 1.0587031e-38 311 285
-0.01005712 0.71700001 -0.056571297 1.0128218e-38 312 285
-0.0087999795 0.71700001 -0.056571297 9.9438269e-39 313 285
-0.0075428397 0.71700001 -0.056571297 9.9431052e-39 314 285
-0.0062857 0.71700001 -0.056571297 9.6665169e-39 315 285
-0.0050285598 0.71700001 -0.056571297 9.5739528e-39 316 285
-0.0037714199 0.71700001 -0.056571297 9.2051702e-39 317 285
-0.0025142799 0.71700001 -0.056571297 9.2055234e-39 318 285
-0.00125714 0.71700001 -0.056571297 9.2055234e-39 319 285
