# .PCD v.7 - Point Cloud Data file format
FIELDS x y z rgb imX imY
SIZE 4 4 4 4 4 4
TYPE F F F F F F
COUNT 1 1 1 1 1 1
WIDTH 832
HEIGHT 1
VIEWPOINT 0 0 0 1 0 0 0
POINTS 832
DATA ascii
0.0012553866 0.71600002 -0.027618507 1.2152151e-38 321 262
0.0025107733 0.71600002 -0.027618507 1.1781221e-38 322 262
0.00376616 0.71600002 -0.027618507 1.1504275e-38 323 262
0.0050215465 0.71600002 -0.027618507 1.1134772e-38 324 262
0.0062857 0.71700001 -0.027657079 1.076599e-38 325 262
0.0075638802 0.71899998 -0.027734226 1.0398283e-38 326 262
0.0088245263 0.71899998 -0.027734226 1.0306088e-38 327 262
0.010099201 0.72000003 -0.027772799 9.9380311e-39 328 262
0.011361601 0.72000003 -0.027772799 9.2926617e-39 329 262
0.012676599 0.72299999 -0.02788852 6.4418195e-39 330 262
-0.039840993 0.73299998 -0.029559445 1.8254031e-38 289 263
-0.038555797 0.73299998 -0.029559445 1.465696e-38 290 263
-0.037270606 0.73299998 -0.029559445 1.0876939e-38 291 263
-0.035887226 0.73100001 -0.029478792 1.3165622e-38 292 263
-0.034558199 0.73000002 -0.029438468 1.3165622e-38 293 263
-0.033278264 0.73000002 -0.029438468 1.3160575e-38 294 263
-0.031998333 0.73000002 -0.029438468 1.2238618e-38 295 263
-0.030634239 0.72799999 -0.029357811 1.149854e-38 296 263
-0.029317487 0.727 -0.029317487 1.149854e-38 297 263
-0.027657079 0.71700001 -0.028914221 1.2235372e-38 298 263
-0.026289478 0.71399999 -0.028793238 1.4816849e-38 299 263
-0.025002534 0.713 -0.028752912 1.5283943e-38 300 263
-0.023752406 0.713 -0.028752912 1.6298453e-38 301 263
-0.022502279 0.713 -0.028752912 1.5750684e-38 302 263
-0.021252153 0.713 -0.028752912 1.5750684e-38 303 263
-0.020002026 0.713 -0.028752912 1.5749966e-38 304 263
-0.0186993 0.71100003 -0.028672259 1.5749966e-38 305 263
-0.01745268 0.71100003 -0.028672259 1.5749968e-38 306 263
-0.01620606 0.71100003 -0.028672259 1.5565217e-38 307 263
-0.014959441 0.71100003 -0.028672259 1.519716e-38 308 263
-0.01371282 0.71100003 -0.028672259 1.5474107e-38 309 263
-0.0124662 0.71100003 -0.028672259 1.556882e-38 310 263
-0.01121958 0.71100003 -0.028672259 1.6029798e-38 311 263
-0.0099729598 0.71100003 -0.028672259 1.6397854e-38 312 263
-0.0087263398 0.71100003 -0.028672259 1.6490052e-38 313 263
-0.0074797203 0.71100003 -0.028672259 1.6027997e-38 314 263
-0.0062330998 0.71100003 -0.028672259 1.4368476e-38 315 263
-0.0049864799 0.71100003 -0.028672259 1.3906775e-38 316 263
-0.0037503797 0.713 -0.028752912 1.3537994e-38 317 263
-0.0025002533 0.713 -0.028752912 1.381348e-38 318 263
-0.00125188 0.71399999 -0.028793238 1.3445058e-38 319 263
0 0.71399999 -0.028793238 1.3258496e-38 320 263
0.0012553866 0.71600002 -0.028873893 1.2520931e-38 321 263
0.0025107733 0.71600002 -0.028873893 1.1874853e-38 322 263
0.00376616 0.71600002 -0.028873893 1.1414233e-38 323 263
0.0050215465 0.71600002 -0.028873893 1.1319161e-38 324 263
0.0062857 0.71700001 -0.028914221 1.1042574e-38 325 263
0.0075428397 0.71700001 -0.028914221 1.0949655e-38 326 263
0.0088245263 0.71899998 -0.028994869 1.0857459e-38 327 263
0.010085173 0.71899998 -0.028994869 1.0215337e-38 328 263
0.01134582 0.71899998 -0.028994869 9.93875e-39 329 263
0.012659066 0.722 -0.029115854 8.7416684e-39 330 263
0.01394426 0.72299999 -0.029156178 9.3870378e-39 331 263
-0.039840993 0.73299998 -0.030844638 1.7700857e-38 289 264
-0.038555797 0.73299998 -0.030844638 1.3824675e-38 290 264
-0.037168913 0.73100001 -0.03076048 1.0413437e-38 291 264
-0.035887226 0.73100001 -0.03076048 1.3071623e-38 292 264
-0.034558199 0.73000002 -0.030718399 1.2979426e-38 293 264
-0.033278264 0.73000002 -0.030718399 1.2424089e-38 294 264
-0.031910665 0.72799999 -0.030634239 1.1686524e-38 295 264
-0.030592158 0.727 -0.030592158 1.1406707e-38 296 264
-0.029035201 0.72000003 -0.0302976 1.1868044e-38 297 264
-0.027618507 0.71600002 -0.03012928 1.2699228e-38 298 264
-0.026289478 0.71399999 -0.030045118 1.4727532e-38 299 264
-0.025002534 0.713 -0.030003037 1.473257e-38 300 264
-0.023685781 0.71100003 -0.029918881 1.5377939e-38 301 264
-0.022439159 0.71100003 -0.029918881 1.5105315e-38 302 264
-0.021192541 0.71100003 -0.029918881 1.5289706e-38 303 264
-0.01994592 0.71100003 -0.029918881 1.5289706e-38 304 264
-0.0186993 0.71100003 -0.029918881 1.5289706e-38 305 264
-0.01745268 0.71100003 -0.029918881 1.5196795e-38 306 264
-0.01620606 0.71100003 -0.029918881 1.4827652e-38 307 264
-0.014959441 0.71100003 -0.029918881 1.400077e-38 308 264
-0.013693533 0.70999998 -0.029876797 1.4277355e-38 309 264
-0.012448666 0.70999998 -0.029876797 1.4463195e-38 310 264
-0.011203799 0.70999998 -0.029876797 1.4923815e-38 311 264
-0.0099589331 0.70999998 -0.029876797 1.5567741e-38 312 264
-0.0087140659 0.70999998 -0.029876797 1.519896e-38 313 264
-0.0074797203 0.71100003 -0.029918881 1.4461746e-38 314 264
-0.0062330998 0.71100003 -0.029918881 1.3631986e-38 315 264
-0.0049864799 0.71100003 -0.029918881 1.3445796e-38 316 264
-0.0037398601 0.71100003 -0.029918881 1.3261405e-38 317 264
-0.0025002533 0.713 -0.030003037 1.3444717e-38 318 264
-0.0012501266 0.713 -0.030003037 1.2983739e-38 319 264
0 0.71399999 -0.030045118 1.279718e-38 320 264
0.00125188 0.71399999 -0.030045118 1.2244008e-38 321 264
0.0025037599 0.71399999 -0.030045118 1.1874855e-38 322 264
0.0037556398 0.71399999 -0.030045118 1.1413877e-38 323 264
0.0050075199 0.71399999 -0.030045118 1.131988e-38 324 264
0.0062769335 0.71600002 -0.03012928 1.0951457e-38 325 264
0.0075428397 0.71700001 -0.030171359 1.0858187e-38 326 264
0.0087999795 0.71700001 -0.030171359 1.0858187e-38 327 264
0.010085173 0.71899998 -0.030255521 1.0400804e-38 328 264
0.01134582 0.71899998 -0.030255521 1.0493e-38 329 264
0.012659066 0.722 -0.030381758 1.0124953e-38 330 264
0.01394426 0.72299999 -0.030423839 9.9405619e-39 331 264
0.015254001 0.72500002 -0.030508002 1.1794219e-38 332 264
-0.039840993 0.73299998 -0.032129832 1.7333151e-38 289 265
-0.038555797 0.73299998 -0.032129832 1.3545918e-38 290 265
-0.037118066 0.73000002 -0.031998333 1.0319071e-38 291 265
-0.035838135 0.73000002 -0.031998333 1.2336562e-38 292 265
-0.034463517 0.72799999 -0.031910665 1.2151811e-38 293 265
-0.033187091 0.72799999 -0.031910665 1.2424442e-38 294 265
-0.03186683 0.727 -0.03186683 1.1318094e-38 295 265
-0.030508002 0.72500002 -0.031779166 1.0579094e-38 296 265
-0.028914221 0.71700001 -0.031428497 1.2054583e-38 297 265
-0.027618507 0.71600002 -0.031384666 1.2979411e-38 298 265
-0.026289478 0.71399999 -0.031296998 1.4085758e-38 299 265
-0.025002534 0.713 -0.031253166 1.4089002e-38 300 265
-0.023685781 0.71100003 -0.031165501 1.4365229e-38 301 265
-0.022439159 0.71100003 -0.031165501 1.4182636e-38 302 265
-0.021192541 0.71100003 -0.031165501 1.4367028e-38 303 265
-0.01994592 0.71100003 -0.031165501 1.445958e-38 304 265
-0.018672999 0.70999998 -0.031121666 1.445958e-38 305 265
-0.017428132 0.70999998 -0.031121666 1.3814576e-38 306 265
-0.016183265 0.70999998 -0.031121666 1.3722381e-38 307 265
-0.014938398 0.70999998 -0.031121666 1.3356485e-38 308 265
-0.013693533 0.70999998 -0.031121666 1.3725627e-38 309 265
-0.012448666 0.70999998 -0.031121666 1.4093336e-38 310 265
-0.011203799 0.70999998 -0.031121666 1.3816391e-38 311 265
-0.0099589331 0.70999998 -0.031121666 1.390714e-38 312 265
-0.0087140659 0.70999998 -0.031121666 1.3446164e-38 313 265
-0.0074691991 0.70999998 -0.031121666 1.2986616e-38 314 265
-0.0062330998 0.71100003 -0.031165501 1.2617835e-38 315 265
-0.0049864799 0.71100003 -0.031165501 1.2891544e-38 316 265
-0.0037398601 0.71100003 -0.031165501 1.2799348e-38 317 265
-0.0024932399 0.71100003 -0.031165501 1.2981941e-38 318 265
-0.0012501266 0.713 -0.031253166 1.2705715e-38 319 265
0 0.713 -0.031253166 1.2152894e-38 320 265
0.0012501266 0.713 -0.031253166 1.1876306e-38 321 265
0.0025002533 0.713 -0.031253166 1.1967051e-38 322 265
0.0037503797 0.713 -0.031253166 1.1506073e-38 323 265
0.0050005065 0.713 -0.031253166 1.1411715e-38 324 265
0.0062593995 0.71399999 -0.031296998 1.1042574e-38 325 265
0.00753232 0.71600002 -0.031384666 1.067451e-38 326 265
0.0087877065 0.71600002 -0.031384666 1.0767066e-38 327 265
0.01005712 0.71700001 -0.031428497 1.0676665e-38 328 265
0.01131426 0.71700001 -0.031428497 1.0861057e-38 329 265
0.012659066 0.722 -0.031647664 1.058628e-38 330 265
0.01394426 0.72299999 -0.031691495 1.0217858e-38 331 265
0.015254001 0.72500002 -0.031779166 9.2105779e-39 332 265
-0.039732285 0.73100001 -0.033323854 1.7056192e-38 289 266
-0.038450599 0.73100001 -0.033323854 1.3360791e-38 290 266
-0.037118066 0.73000002 -0.033278264 1.0133944e-38 291 266
-0.035838135 0.73000002 -0.033278264 1.2243997e-38 292 266
-0.034463517 0.72799999 -0.033187091 1.2059247e-38 293 266
-0.033187091 0.72799999 -0.033187091 1.1321682e-38 294 266
-0.03186683 0.727 -0.033141505 1.0491921e-38 295 266
-0.030508002 0.72500002 -0.033050332 1.0305737e-38 296 266
-0.028914221 0.71700001 -0.032685637 1.2057096e-38 297 266
-0.027618507 0.71600002 -0.032640055 1.3074127e-38 298 266
-0.026289478 0.71399999 -0.032548878 1.3534747e-38 299 266
-0.025002534 0.713 -0.032503292 1.307809e-38 300 266
-0.023685781 0.71100003 -0.032412119 1.3262121e-38 301 266
-0.022439159 0.71100003 -0.032412119 1.3629818e-38 302 266
-0.021192541 0.71100003 -0.032412119 1.381421e-38 303 266
-0.01994592 0.71100003 -0.032412119 1.4090793e-38 304 266
-0.018672999 0.70999998 -0.032366529 1.4090793e-38 305 266
-0.017428132 0.70999998 -0.032366529 1.3077014e-38 306 266
-0.016183265 0.70999998 -0.032366529 1.316921e-38 307 266
-0.014938398 0.70999998 -0.032366529 1.2895516e-38 308 266
-0.013693533 0.70999998 -0.032366529 1.3079908e-38 309 266
-0.012448666 0.70999998 -0.032366529 1.3447967e-38 310 266
-0.011203799 0.70999998 -0.032366529 1.3078826e-38 311 266
-0.0099589331 0.70999998 -0.032366529 1.3076658e-38 312 266
-0.0087140659 0.70999998 -0.032366529 1.2708234e-38 313 266
-0.0074691991 0.70999998 -0.032366529 1.1973187e-38 314 266
-0.0062330998 0.71100003 -0.032412119 1.1880992e-38 315 266
-0.0049864799 0.71100003 -0.032412119 1.2155065e-38 316 266
-0.0037398601 0.71100003 -0.032412119 1.2155065e-38 317 266
-0.0024932399 0.71100003 -0.032412119 1.2153275e-38 318 266
-0.00124662 0.71100003 -0.032412119 1.1877048e-38 319 266
0 0.71100003 -0.032412119 1.1968152e-38 320 266
0.00124662 0.71100003 -0.032412119 1.1783401e-38 321 266
0.0024932399 0.71100003 -0.032412119 1.1965252e-38 322 266
0.0037503797 0.713 -0.032503292 1.1504275e-38 323 266
0.0050005065 0.713 -0.032503292 1.1227321e-38 324 266
0.0062506334 0.713 -0.032503292 1.085854e-38 325 266
0.0075112795 0.71399999 -0.032548878 1.0490845e-38 326 266
0.0087631596 0.71399999 -0.032548878 1.0583401e-38 327 266
0.010043093 0.71600002 -0.032640055 1.0401167e-38 328 266
0.01131426 0.71700001 -0.032685637 1.0493722e-38 329 266
0.012624 0.72000003 -0.0328224 1.0678477e-38 330 266
0.013982833 0.72500002 -0.033050332 1.0771032e-38 331 266
0.015254001 0.72500002 -0.033050332 8.6534356e-39 332 266
-0.039732285 0.73100001 -0.034605537 1.74257e-38 289 267
-0.038450599 0.73100001 -0.034605537 1.3914328e-38 290 267
-0.037118066 0.73000002 -0.034558199 9.9499155e-39 291 267
-0.035739943 0.72799999 -0.034463517 1.1506797e-38 292 267
-0.034463517 0.72799999 -0.034463517 1.1598994e-38 293 267
-0.033187091 0.72799999 -0.034463517 1.1230931e-38 294 267
-0.03186683 0.727 -0.03441618 1.0124943e-38 295 267
-0.030508002 0.72500002 -0.034321502 9.8451152e-39 296 267
-0.028994869 0.71899998 -0.03403746 1.1965255e-38 297 267
-0.027618507 0.71600002 -0.03389544 1.2707134e-38 298 267
-0.026289478 0.71399999 -0.033800758 1.2707134e-38 299 267
-0.025002534 0.713 -0.033753417 1.3168111e-38 300 267
-0.023685781 0.71100003 -0.033658739 1.3168111e-38 301 267
-0.022439159 0.71100003 -0.033658739 1.3076643e-38 302 267
-0.021192541 0.71100003 -0.033658739 1.3261393e-38 303 267
-0.01994592 0.71100003 -0.033658739 1.325996e-38 304 267
-0.018672999 0.70999998 -0.033611398 1.2891178e-38 305 267
-0.017428132 0.70999998 -0.033611398 1.2523484e-38 306 267
-0.016183265 0.70999998 -0.033611398 1.2800431e-38 307 267
-0.014938398 0.70999998 -0.033611398 1.2983759e-38 308 267
-0.013693533 0.70999998 -0.033611398 1.3075955e-38 309 267
-0.012448666 0.70999998 -0.033611398 1.2525658e-38 310 267
-0.011203799 0.70999998 -0.033611398 1.2249071e-38 311 267
-0.0099589331 0.70999998 -0.033611398 1.2523134e-38 312 267
-0.0087140659 0.70999998 -0.033611398 1.196996e-38 313 267
-0.0074691991 0.70999998 -0.033611398 1.2152909e-38 314 267
-0.0062330998 0.71100003 -0.033658739 1.2152909e-38 315 267
-0.0049864799 0.71100003 -0.033658739 1.2061067e-38 316 267
-0.0037398601 0.71100003 -0.033658739 1.1968513e-38 317 267
-0.0024932399 0.71100003 -0.033658739 1.1968152e-38 318 267
-0.00124662 0.71100003 -0.033658739 1.1968152e-38 319 267
0 0.71100003 -0.033658739 1.1875953e-38 320 267
0.00124662 0.71100003 -0.033658739 1.1691203e-38 321 267
0.0024932399 0.71100003 -0.033658739 1.1781584e-38 322 267
0.0037398601 0.71100003 -0.033658739 1.1320966e-38 323 267
0.0049864799 0.71100003 -0.033658739 1.1043656e-38 324 267
0.0062506334 0.713 -0.033753417 1.0858906e-38 325 267
0.0075007593 0.713 -0.033753417 1.0307533e-38 326 267
0.0087631596 0.71399999 -0.033800758 1.0307533e-38 327 267
0.01001504 0.71399999 -0.033800758 1.0400804e-38 328 267
0.01131426 0.71700001 -0.033942781 1.0585196e-38 329 267
0.012624 0.72000003 -0.034084801 1.0952905e-38 330 267
0.01394426 0.72299999 -0.03422682 1.1321329e-38 331 267
0.015211919 0.72299999 -0.03422682 9.2959211e-39 332 267
0.016525166 0.72500002 -0.034321502 1.0217517e-38 333 267
0.017796334 0.72500002 -0.034321502 1.5026818e-38 334 267
-0.039732285 0.73100001 -0.035887226 1.806927e-38 289 268
-0.038450599 0.73100001 -0.035887226 1.4376385e-38 290 268
-0.037118066 0.73000002 -0.035838135 9.8587989e-39 291 268
-0.035739943 0.72799999 -0.035739943 1.1413883e-38 292 268
-0.034463517 0.72799999 -0.035739943 1.1413883e-38 293 268
-0.033141505 0.727 -0.035690852 1.0680281e-38 294 268
-0.03186683 0.727 -0.035690852 1.0034911e-38 295 268
-0.030508002 0.72500002 -0.035592668 1.0397936e-38 296 268
-0.028914221 0.71700001 -0.035199918 1.2057098e-38 297 268
-0.02754136 0.71399999 -0.035052639 1.2429121e-38 298 268
-0.026252659 0.713 -0.035003547 1.2521675e-38 299 268
-0.024932399 0.71100003 -0.034905359 1.2430926e-38 300 268
-0.023685781 0.71100003 -0.034905359 1.2615317e-38 301 268
-0.022439159 0.71100003 -0.034905359 1.2616039e-38 302 268
-0.021192541 0.71100003 -0.034905359 1.2708234e-38 303 268
-0.01994592 0.71100003 -0.034905359 1.2247974e-38 304 268
-0.018672999 0.70999998 -0.034856264 1.2247974e-38 305 268
-0.017428132 0.70999998 -0.034856264 1.2430938e-38 306 268
-0.016183265 0.70999998 -0.034856264 1.2523134e-38 307 268
-0.014938398 0.70999998 -0.034856264 1.2156528e-38 308 268
-0.013693533 0.70999998 -0.034856264 1.2156528e-38 309 268
-0.0124136 0.708 -0.034758076 1.2156528e-38 310 268
-0.01117224 0.708 -0.034758076 1.1971778e-38 311 268
-0.0099589331 0.70999998 -0.034856264 1.1879935e-38 312 268
-0.0087140659 0.70999998 -0.034856264 1.1418957e-38 313 268
-0.0074691991 0.70999998 -0.034856264 1.1509705e-38 314 268
-0.0062243328 0.70999998 -0.034856264 1.1417509e-38 315 268
-0.0049864799 0.71100003 -0.034905359 1.1417863e-38 316 268
-0.0037398601 0.71100003 -0.034905359 1.1325666e-38 317 268
-0.0024932399 0.71100003 -0.034905359 1.1508262e-38 318 268
-0.00124662 0.71100003 -0.034905359 1.1508262e-38 319 268
0 0.71100003 -0.034905359 1.1508256e-38 320 268
0.00124662 0.71100003 -0.034905359 1.1047638e-38 321 268
0.0024932399 0.71100003 -0.034905359 1.1413164e-38 322 268
0.0037398601 0.71100003 -0.034905359 1.1136217e-38 323 268
0.0049864799 0.71100003 -0.034905359 1.1043656e-38 324 268
0.0062330998 0.71100003 -0.034905359 1.0858906e-38 325 268
0.0075007593 0.713 -0.035003547 1.0584119e-38 326 268
0.0087508867 0.713 -0.035003547 1.0307533e-38 327 268
0.01001504 0.71399999 -0.035052639 9.8497984e-39 328 268
0.01129848 0.71600002 -0.035150826 1.0126025e-38 329 268
0.012606465 0.71899998 -0.035298105 1.0401896e-38 330 268
0.01394426 0.72299999 -0.035494477 1.0678483e-38 331 268
0.015211919 0.72299999 -0.035494477 9.6629016e-39 332 268
0.01647958 0.72299999 -0.035494477 9.7550972e-39 333 268
0.017747238 0.72299999 -0.035494477 1.3919745e-38 334 268
0.019014901 0.72299999 -0.035494477 1.6593418e-38 335 268
-0.039732285 0.73100001 -0.037168913 1.8162183e-38 289 269
-0.038450599 0.73100001 -0.037168913 1.5115019e-38 290 269
-0.037118066 0.73000002 -0.037118066 1.0044619e-38 291 269
-0.035739943 0.72799999 -0.037016369 1.1229836e-38 292 269
-0.034463517 0.72799999 -0.037016369 1.1137641e-38 293 269
-0.033141505 0.727 -0.036965527 1.0678477e-38 294 269
-0.031779166 0.72500002 -0.036863834 1.0217858e-38 295 269
-0.030171359 0.71700001 -0.036457058 1.0950754e-38 296 269
-0.028873893 0.71600002 -0.036406212 1.1964547e-38 297 269
-0.02754136 0.71399999 -0.036304519 1.1692635e-38 298 269
-0.026252659 0.713 -0.036253672 1.1969222e-38 299 269
-0.024932399 0.71100003 -0.036151983 1.2336925e-38 300 269
-0.023652466 0.70999998 -0.036101133 1.2521675e-38 301 269
-0.022407599 0.70999998 -0.036101133 1.2156131e-38 302 269
-0.021192541 0.71100003 -0.036151983 1.1971738e-38 303 269
-0.019917866 0.70999998 -0.036101133 1.141966e-38 304 269
-0.018672999 0.70999998 -0.036101133 1.141966e-38 305 269
-0.017428132 0.70999998 -0.036101133 1.2152203e-38 306 269
-0.016183265 0.70999998 -0.036101133 1.2336953e-38 307 269
-0.014938398 0.70999998 -0.036101133 1.1969613e-38 308 269
-0.013654959 0.708 -0.03599944 1.2061808e-38 309 269
-0.0124136 0.708 -0.03599944 1.1603348e-38 310 269
-0.01117224 0.708 -0.03599944 1.1603348e-38 311 269
-0.0099589331 0.70999998 -0.036101133 1.1326761e-38 312 269
-0.0087140659 0.70999998 -0.036101133 1.114237e-38 313 269
-0.0074691991 0.70999998 -0.036101133 1.132531e-38 314 269
-0.0062243328 0.70999998 -0.036101133 1.132531e-38 315 269
-0.0049864799 0.71100003 -0.036151983 1.13253e-38 316 269
-0.0037398601 0.71100003 -0.036151983 1.1232745e-38 317 269
-0.0024932399 0.71100003 -0.036151983 1.1232032e-38 318 269
-0.00124662 0.71100003 -0.036151983 1.1232032e-38 319 269
0 0.71100003 -0.036151983 1.1323146e-38 320 269
0.0012448666 0.70999998 -0.036101133 1.0862168e-38 321 269
0.0024897333 0.70999998 -0.036101133 1.1228064e-38 322 269
0.0037345996 0.70999998 -0.036101133 1.1043671e-38 323 269
0.0049864799 0.71100003 -0.036151983 1.0675965e-38 324 269
0.0062330998 0.71100003 -0.036151983 1.0675965e-38 325 269
0.0074797203 0.71100003 -0.036151983 1.012459e-38 326 269
0.0087508867 0.713 -0.036253672 1.012459e-38 327 269
0.01001504 0.71399999 -0.036304519 9.8501613e-39 328 269
0.01129848 0.71600002 -0.036406212 9.9427157e-39 329 269
0.012606465 0.71899998 -0.036558751 1.03097e-38 330 269
0.013924973 0.722 -0.03671129 1.0586287e-38 331 269
0.015190879 0.722 -0.03671129 1.0122441e-38 332 269
0.01647958 0.72299999 -0.036762137 1.0490864e-38 333 269
0.017747238 0.72299999 -0.036762137 1.28116e-38 334 269
-0.039732285 0.73100001 -0.038450599 1.8163262e-38 289 270
-0.038398001 0.73000002 -0.038398001 1.6039136e-38 290 270
-0.037118066 0.73000002 -0.038398001 1.1244605e-38 291 270
-0.035739943 0.72799999 -0.038292799 1.1322035e-38 292 270
-0.034463517 0.72799999 -0.038292799 1.1137644e-38 293 270
-0.033141505 0.727 -0.038240198 1.0586284e-38 294 270
-0.031779166 0.72500002 -0.038135 1.0125306e-38 295 270
-0.030171359 0.71700001 -0.037714198 1.1135865e-38 296 270
-0.028873893 0.71600002 -0.037661601 1.1689038e-38 297 270
-0.02754136 0.71399999 -0.037556399 1.1690837e-38 298 270
-0.026179021 0.71100003 -0.037398599 1.1875587e-38 299 270
-0.024932399 0.71100003 -0.037398599 1.1693358e-38 300 270
-0.023652466 0.70999998 -0.037345998 1.1877749e-38 301 270
-0.022407599 0.70999998 -0.037345998 1.1327096e-38 302 270
-0.021192541 0.71100003 -0.037398599 1.1142704e-38 303 270
-0.019917866 0.70999998 -0.037345998 1.1324594e-38 304 270
-0.018672999 0.70999998 -0.037345998 1.1416789e-38 305 270
-0.017428132 0.70999998 -0.037345998 1.1508636e-38 306 270
-0.016183265 0.70999998 -0.037345998 1.1692667e-38 307 270
-0.014938398 0.70999998 -0.037345998 1.1508636e-38 308 270
-0.013654959 0.708 -0.0372408 1.1692667e-38 309 270
-0.0124136 0.708 -0.0372408 1.1235648e-38 310 270
-0.01117224 0.708 -0.0372408 1.1235648e-38 311 270
-0.0099308798 0.708 -0.0372408 1.114237e-38 312 270
-0.008689519 0.708 -0.0372408 1.0773588e-38 313 270
-0.0074691991 0.70999998 -0.037345998 1.0957609e-38 314 270
-0.0062243328 0.70999998 -0.037345998 1.0957609e-38 315 270
-0.0049794666 0.70999998 -0.037345998 1.0957603e-38 316 270
-0.0037345996 0.70999998 -0.037345998 1.0865408e-38 317 270
-0.0024897333 0.70999998 -0.037345998 1.1047282e-38 318 270
-0.0012448666 0.70999998 -0.037345998 1.1047282e-38 319 270
0 0.70999998 -0.037345998 1.0954722e-38 320 270
0.0012448666 0.70999998 -0.037345998 1.0769972e-38 321 270
0.0024897333 0.70999998 -0.037345998 1.0860003e-38 322 270
0.0037345996 0.70999998 -0.037345998 1.0675612e-38 323 270
0.0049794666 0.70999998 -0.037345998 1.0492297e-38 324 270
0.0062330998 0.71100003 -0.037398599 1.0492297e-38 325 270
0.0074797203 0.71100003 -0.037398599 1.0125675e-38 326 270
0.0087263398 0.71100003 -0.037398599 1.0125675e-38 327 270
0.010001013 0.713 -0.037503798 9.9423597e-39 328 270
0.011266919 0.71399999 -0.037556399 1.0034555e-38 329 270
0.0125714 0.71700001 -0.037714198 1.0218226e-38 330 270
0.0138864 0.72000003 -0.037871998 1.0310422e-38 331 270
0.015190879 0.722 -0.0379772 9.9394885e-39 332 270
0.016456785 0.722 -0.0379772 1.0308271e-38 333 270
0.017722692 0.722 -0.0379772 1.1979318e-38 334 270
-0.038398001 0.73000002 -0.039677933 1.696146e-38 290 271
-0.037118066 0.73000002 -0.039677933 1.3273274e-38 291 271
-0.035739943 0.72799999 -0.039569225 1.1598627e-38 292 271
-0.034463517 0.72799999 -0.039569225 1.113729e-38 293 271
-0.033141505 0.727 -0.039514873 1.0678113e-38 294 271
-0.031779166 0.72500002 -0.039406165 1.0493722e-38 295 271
-0.0302976 0.72000003 -0.039134402 1.1138372e-38 296 271
-0.028873893 0.71600002 -0.038916986 1.1598992e-38 297 271
-0.02754136 0.71399999 -0.038808275 1.169119e-38 298 271
-0.026179021 0.71100003 -0.038645219 1.169119e-38 299 271
-0.024932399 0.71100003 -0.038645219 1.1600086e-38 300 271
-0.023652466 0.70999998 -0.038590867 1.169264e-38 301 271
-0.022407599 0.70999998 -0.038590867 1.0956887e-38 302 271
-0.021192541 0.71100003 -0.038645219 1.0864692e-38 303 271
-0.01994592 0.71100003 -0.038645219 1.0863985e-38 304 271
-0.018672999 0.70999998 -0.038590867 1.1048735e-38 305 271
-0.017428132 0.70999998 -0.038590867 1.077359e-38 306 271
-0.016183265 0.70999998 -0.038590867 1.077359e-38 307 271
-0.01489632 0.708 -0.038482159 1.0956903e-38 308 271
-0.013654959 0.708 -0.038482159 1.1141295e-38 309 271
-0.0124136 0.708 -0.038482159 1.0776109e-38 310 271
-0.01117224 0.708 -0.038482159 1.0683913e-38 311 271
-0.0099308798 0.708 -0.038482159 1.0590994e-38 312 271
-0.008689519 0.708 -0.038482159 1.0406603e-38 313 271
-0.0074691991 0.70999998 -0.038590867 1.0314758e-38 314 271
-0.0062243328 0.70999998 -0.038590867 1.0314758e-38 315 271
-0.0049794666 0.70999998 -0.038590867 1.05899e-38 316 271
-0.0037345996 0.70999998 -0.038590867 1.0497704e-38 317 271
-0.0024897333 0.70999998 -0.038590867 1.0771773e-38 318 271
-0.0012448666 0.70999998 -0.038590867 1.0679577e-38 319 271
0 0.70999998 -0.038590867 1.0862168e-38 320 271
0.0012448666 0.70999998 -0.038590867 1.0585581e-38 321 271
0.0024897333 0.70999998 -0.038590867 1.0492662e-38 322 271
0.0037345996 0.70999998 -0.038590867 1.0308271e-38 323 271
0.0049794666 0.70999998 -0.038590867 1.012424e-38 324 271
0.0062243328 0.70999998 -0.038590867 1.012424e-38 325 271
0.0074797203 0.71100003 -0.038645219 1.0124959e-38 326 271
0.0087263398 0.71100003 -0.038645219 1.0217154e-38 327 271
0.0099729598 0.71100003 -0.038645219 9.9416437e-39 328 271
0.011266919 0.71399999 -0.038808275 1.0125675e-38 329 271
0.0125714 0.71700001 -0.038971342 1.0034911e-38 330 271
0.013867113 0.71899998 -0.039080046 1.0219304e-38 331 271
0.0151488 0.72000003 -0.039134402 1.0217505e-38 332 271
0.0164112 0.72000003 -0.039134402 1.0217505e-38 333 271
0.017673599 0.72000003 -0.039134402 1.1516172e-38 334 271
-0.037118066 0.73000002 -0.040957868 1.5485979e-38 291 272
-0.035739943 0.72799999 -0.040845651 1.1689375e-38 292 272
-0.034463517 0.72799999 -0.040845651 1.0121691e-38 293 272
-0.033141505 0.727 -0.040789545 1.0218205e-38 294 272
-0.031779166 0.72500002 -0.040677335 1.0586986e-38 295 272
-0.030171359 0.71700001 -0.040228479 1.1233452e-38 296 272
-0.028873893 0.71600002 -0.040172372 1.1417843e-38 297 272
-0.02754136 0.71399999 -0.040060159 1.1691909e-38 298 272
-0.026179021 0.71100003 -0.039891839 1.1784105e-38 299 272
-0.024932399 0.71100003 -0.039891839 1.123238e-38 300 272
-0.023652466 0.70999998 -0.039835732 1.123238e-38 301 272
-0.022407599 0.70999998 -0.039835732 1.0864692e-38 302 272
-0.021192541 0.71100003 -0.039891839 1.0772496e-38 303 272
-0.01994592 0.71100003 -0.039891839 1.0497001e-38 304 272
-0.018672999 0.70999998 -0.039835732 1.0497001e-38 305 272
-0.017428132 0.70999998 -0.039835732 1.0863269e-38 306 272
-0.01613768 0.708 -0.039723519 1.0863269e-38 307 272
-0.01489632 0.708 -0.039723519 1.0771793e-38 308 272
-0.013654959 0.708 -0.039723519 1.1048379e-38 309 272
-0.0124136 0.708 -0.039723519 1.0407326e-38 310 272
-0.01117224 0.708 -0.039723519 1.031513e-38 311 272
-0.0099308798 0.708 -0.039723519 1.04066e-38 312 272
-0.008689519 0.708 -0.039723519 1.0314404e-38 313 272
-0.0074481601 0.708 -0.039723519 1.0221839e-38 314 272
-0.0062243328 0.70999998 -0.039835732 1.0221839e-38 315 272
-0.0049794666 0.70999998 -0.039835732 1.0680296e-38 316 272
-0.0037345996 0.70999998 -0.039835732 1.0496265e-38 317 272
-0.0024897333 0.70999998 -0.039835732 1.086289e-38 318 272
-0.0012448666 0.70999998 -0.039835732 1.0678858e-38 319 272
0 0.70999998 -0.039835732 1.0586663e-38 320 272
0.0012448666 0.70999998 -0.039835732 1.0309716e-38 321 272
0.0024897333 0.70999998 -0.039835732 1.0400469e-38 322 272
0.0037345996 0.70999998 -0.039835732 1.0031688e-38 323 272
0.0049794666 0.70999998 -0.039835732 1.0215001e-38 324 272
0.0062243328 0.70999998 -0.039835732 1.0215001e-38 325 272
0.0074797203 0.71100003 -0.039891839 9.9402116e-39 326 272
0.0087263398 0.71100003 -0.039891839 1.0032407e-38 327 272
0.0099729598 0.71100003 -0.039891839 9.9416437e-39 328 272
0.01129848 0.71600002 -0.040172372 1.021787e-38 329 272
0.0125714 0.71700001 -0.040228479 1.0127104e-38 330 272
0.013867113 0.71899998 -0.040340692 1.0495887e-38 331 272
0.01512776 0.71899998 -0.040340692 1.0403688e-38 332 272
0.0164112 0.72000003 -0.040396802 1.0403688e-38 333 272
0.017673599 0.72000003 -0.040396802 1.1515449e-38 334 272
-0.037118066 0.73000002 -0.0422378 1.7146942e-38 291 273
-0.035739943 0.72799999 -0.042122077 1.4091476e-38 292 273
-0.034463517 0.72799999 -0.042122077 9.4816941e-39 293 273
-0.033141505 0.727 -0.042064216 9.8522717e-39 294 273
-0.031779166 0.72500002 -0.041948501 1.0221413e-38 295 273
-0.03012928 0.71600002 -0.041427758 1.1511468e-38 296 273
-0.028873893 0.71600002 -0.041427758 1.1603664e-38 297 273
-0.02754136 0.71399999 -0.041312039 1.1877372e-38 298 273
-0.026179021 0.71100003 -0.041138459 1.1601145e-38 299 273
-0.024932399 0.71100003 -0.041138459 1.1508246e-38 300 273
-0.023652466 0.70999998 -0.041080594 1.1323496e-38 301 273
-0.022407599 0.70999998 -0.041080594 1.1048001e-38 302 273
-0.021192541 0.71100003 -0.041138459 1.1048001e-38 303 273
-0.01994592 0.71100003 -0.041138459 1.0496998e-38 304 273
-0.018672999 0.70999998 -0.041080594 1.022077e-38 305 273
-0.017428132 0.70999998 -0.041080594 1.0127865e-38 306 273
-0.01613768 0.708 -0.040964879 1.0127865e-38 307 273
-0.01489632 0.708 -0.040964879 1.0037471e-38 308 273
-0.013654959 0.708 -0.040964879 1.0313698e-38 309 273
-0.0124136 0.708 -0.040964879 9.9470737e-39 310 273
-0.01117224 0.708 -0.040964879 9.8548781e-39 311 273
-0.0099308798 0.708 -0.040964879 9.7633957e-39 312 273
-0.008689519 0.708 -0.040964879 9.4871676e-39 313 273
-0.0074481601 0.708 -0.040964879 9.8534291e-39 314 273
-0.0062243328 0.70999998 -0.041080594 9.8534291e-39 315 273
-0.0049794666 0.70999998 -0.041080594 1.0036739e-38 316 273
-0.0037345996 0.70999998 -0.041080594 1.0036739e-38 317 273
-0.0024897333 0.70999998 -0.041080594 1.0219688e-38 318 273
-0.0012448666 0.70999998 -0.041080594 1.0035657e-38 319 273
0 0.70999998 -0.041080594 1.0402632e-38 320 273
0.0012448666 0.70999998 -0.041080594 1.0126403e-38 321 273
0.0024897333 0.70999998 -0.041080594 1.0032763e-38 322 273
0.0037345996 0.70999998 -0.041080594 9.9402087e-39 323 273
0.0049794666 0.70999998 -0.041080594 9.7558231e-39 324 273
0.0062243328 0.70999998 -0.041080594 9.7558231e-39 325 273
0.0074797203 0.71100003 -0.041138459 9.5732311e-39 326 273
0.0087263398 0.71100003 -0.041138459 9.7572622e-39 327 273
0.0099729598 0.71100003 -0.041138459 9.8501669e-39 328 273
0.01129848 0.71600002 -0.041427758 1.0034558e-38 329 273
0.0125714 0.71700001 -0.041485619 1.0220023e-38 330 273
0.013867113 0.71899998 -0.041601337 1.0404414e-38 331 273
0.01512776 0.71899998 -0.041601337 1.0865025e-38 332 273
0.0164112 0.72000003 -0.041659199 1.0588079e-38 333 273
0.017673599 0.72000003 -0.041659199 1.1697677e-38 334 273
-0.035838135 0.73000002 -0.043517731 1.6678736e-38 292 274
-0.034558199 0.73000002 -0.043517731 1.2898716e-38 293 274
-0.032184184 0.70599997 -0.042087011 1.0219633e-38 294 274
-0.030946331 0.70599997 -0.042087011 1.0865003e-38 295 274
-0.029708479 0.70599997 -0.042087011 1.1513629e-38 296 274
-0.028793238 0.71399999 -0.042563915 1.1421433e-38 297 274
-0.02754136 0.71399999 -0.042563915 1.1603308e-38 298 274
-0.026252659 0.713 -0.042504307 1.1603308e-38 299 274
-0.024932399 0.71100003 -0.042385083 1.150896e-38 300 274
-0.023685781 0.71100003 -0.042385083 1.150896e-38 301 274
-0.022439159 0.71100003 -0.042385083 1.095724e-38 302 274
-0.021192541 0.71100003 -0.042385083 1.0865045e-38 303 274
-0.01994592 0.71100003 -0.042385083 1.0313683e-38 304 274
-0.018672999 0.70999998 -0.042325463 1.012929e-38 305 274
-0.017428132 0.70999998 -0.042325463 1.0036741e-38 306 274
-0.016183265 0.70999998 -0.042325463 1.0036741e-38 307 274
-0.01489632 0.708 -0.042206239 1.0037469e-38 308 274
-0.013654959 0.708 -0.042206239 9.9452716e-39 309 274
-0.0124136 0.708 -0.042206239 1.0037469e-38 310 274
-0.01117224 0.708 -0.042206239 9.9452716e-39 311 274
-0.0099308798 0.708 -0.042206239 9.8530732e-39 312 274
-0.008689519 0.708 -0.042206239 9.6686819e-39 313 274
-0.0074691991 0.70999998 -0.042325463 1.012642e-38 314 274
-0.0062243328 0.70999998 -0.042325463 1.012642e-38 315 274
-0.0049794666 0.70999998 -0.042325463 1.0035301e-38 316 274
-0.0037345996 0.70999998 -0.042325463 1.0035301e-38 317 274
-0.0024897333 0.70999998 -0.042325463 1.0311165e-38 318 274
-0.0012448666 0.70999998 -0.042325463 1.0218969e-38 319 274
0 0.70999998 -0.042325463 1.0218603e-38 320 274
0.0012448666 0.70999998 -0.042325463 1.0126406e-38 321 274
0.0024897333 0.70999998 -0.042325463 9.9412934e-39 322 274
0.0037345996 0.70999998 -0.042325463 9.7565434e-39 323 274
0.0049794666 0.70999998 -0.042325463 9.6636275e-39 324 274
0.0062243328 0.70999998 -0.042325463 9.6636275e-39 325 274
0.0074797203 0.71100003 -0.042385083 9.6647023e-39 326 274
0.0087263398 0.71100003 -0.042385083 9.8490949e-39 327 274
0.0099729598 0.71100003 -0.042385083 1.0125672e-38 328 274
0.01129848 0.71600002 -0.042683143 1.0310422e-38 329 274
0.0125714 0.71700001 -0.042742759 1.0495887e-38 330 274
0.013867113 0.71899998 -0.042861983 1.0772474e-38 331 274
0.0151488 0.72000003 -0.042921603 1.0956142e-38 332 274
0.016456785 0.722 -0.043040827 1.123273e-38 333 274
0.017747238 0.72299999 -0.043100435 1.2065736e-38 334 274
0.019014901 0.72299999 -0.043100435 1.5292583e-38 335 274
-0.032184184 0.70599997 -0.043324865 1.2525247e-38 294 275
-0.030946331 0.70599997 -0.043324865 1.0589139e-38 295 275
-0.029708479 0.70599997 -0.043324865 1.1510742e-38 296 275
-0.028793238 0.71399999 -0.043815799 1.2063916e-38 297 275
-0.027502786 0.713 -0.043754432 1.178913e-38 298 275
-0.026179021 0.71100003 -0.043631699 1.1696575e-38 299 275
-0.024932399 0.71100003 -0.043631699 1.2061765e-38 300 275
-0.023685781 0.71100003 -0.043631699 1.1693341e-38 301 275
-0.022439159 0.71100003 -0.043631699 1.1325294e-38 302 275
-0.021192541 0.71100003 -0.043631699 1.1325294e-38 303 275
-0.01994592 0.71100003 -0.043631699 1.0865408e-38 304 275
-0.018672999 0.70999998 -0.043570329 1.0589181e-38 305 275
-0.017428132 0.70999998 -0.043570329 1.0312963e-38 306 275
-0.016183265 0.70999998 -0.043570329 1.0312963e-38 307 275
-0.014938398 0.70999998 -0.043570329 1.0036744e-38 308 275
-0.013693533 0.70999998 -0.043570329 1.0036744e-38 309 275
-0.0124136 0.708 -0.043447599 9.8523571e-39 310 275
-0.01117224 0.708 -0.043447599 9.7601615e-39 311 275
-0.0099308798 0.708 -0.043447599 9.8512753e-39 312 275
-0.008689519 0.708 -0.043447599 9.6672442e-39 313 275
-0.0074691991 0.70999998 -0.043570329 9.8501921e-39 314 275
-0.0062243328 0.70999998 -0.043570329 1.0034225e-38 315 275
-0.0049794666 0.70999998 -0.043570329 9.8516257e-39 316 275
-0.0037345996 0.70999998 -0.043570329 9.94418e-39 317 275
-0.0024897333 0.70999998 -0.043570329 9.8530606e-39 318 275
-0.0012448666 0.70999998 -0.043570329 9.760865e-39 319 275
0 0.70999998 -0.043570329 9.9445304e-39 320 275
0.0012448666 0.70999998 -0.043570329 9.5757478e-39 321 275
0.0024897333 0.70999998 -0.043570329 9.8498138e-39 322 275
0.0037345996 0.70999998 -0.043570329 9.7576182e-39 323 275
0.0049794666 0.70999998 -0.043570329 9.6647023e-39 324 275
0.0062243328 0.70999998 -0.043570329 9.7568993e-39 325 275
0.0074797203 0.71100003 -0.043631699 9.5743031e-39 326 275
0.0087263398 0.71100003 -0.043631699 9.6664987e-39 327 275
0.010001013 0.713 -0.043754432 1.003563e-38 328 275
0.01129848 0.71600002 -0.043938532 1.0220023e-38 329 275
0.0125714 0.71700001 -0.043999899 1.0772829e-38 330 275
0.013867113 0.71899998 -0.044122629 1.1141253e-38 331 275
0.01512776 0.71899998 -0.044122629 1.1141606e-38 332 275
0.0164112 0.72000003 -0.044183999 1.1049411e-38 333 275
0.017747238 0.72299999 -0.044368099 1.2434512e-38 334 275
0.019014901 0.72299999 -0.044368099 1.5845751e-38 335 275
0.020282559 0.72299999 -0.044368099 1.797635e-38 336 275
-0.032184184 0.70599997 -0.044562716 1.4925224e-38 294 276
-0.030946331 0.70599997 -0.044562716 1.1698377e-38 295 276
-0.029918881 0.71100003 -0.044878319 1.0773177e-38 296 276
-0.028793238 0.71399999 -0.045067675 1.1787329e-38 297 276
-0.027502786 0.713 -0.045004558 1.1972816e-38 298 276
-0.026179021 0.71100003 -0.044878319 1.1972816e-38 299 276
-0.024932399 0.71100003 -0.044878319 1.1971017e-38 300 276
-0.023685781 0.71100003 -0.044878319 1.1786625e-38 301 276
-0.022439159 0.71100003 -0.044878319 1.150969e-38 302 276
-0.021192541 0.71100003 -0.044878319 1.1417493e-38 303 276
-0.01994592 0.71100003 -0.044878319 1.0957606e-38 304 276
-0.018672999 0.70999998 -0.044815198 1.0681379e-38 305 276
-0.017428132 0.70999998 -0.044815198 1.0221486e-38 306 276
-0.016183265 0.70999998 -0.044815198 1.012929e-38 307 276
-0.014938398 0.70999998 -0.044815198 1.0128221e-38 308 276
-0.013693533 0.70999998 -0.044815198 1.0036025e-38 309 276
-0.012448666 0.70999998 -0.044815198 9.9427521e-39 310 276
-0.011203799 0.70999998 -0.044815198 9.7583594e-39 311 276
-0.0099589331 0.70999998 -0.044815198 9.941306e-39 312 276
-0.0087140659 0.70999998 -0.044815198 1.0033502e-38 313 276
-0.0074691991 0.70999998 -0.044815198 9.7583468e-39 314 276
-0.0062243328 0.70999998 -0.044815198 1.0034574e-38 315 276
-0.0049794666 0.70999998 -0.044815198 9.8516257e-39 316 276
-0.0037345996 0.70999998 -0.044815198 1.0036376e-38 317 276
-0.0024897333 0.70999998 -0.044815198 9.8537795e-39 318 276
-0.0012448666 0.70999998 -0.044815198 9.7615838e-39 319 276
0 0.70999998 -0.044815198 9.8534137e-39 320 276
0.0012448666 0.70999998 -0.044815198 9.5764667e-39 321 276
0.0024897333 0.70999998 -0.044815198 9.9420122e-39 322 276
0.0037345996 0.70999998 -0.044815198 9.7572622e-39 323 276
0.0049864799 0.71100003 -0.044878319 9.7565462e-39 324 276
0.0062330998 0.71100003 -0.044878319 9.8487418e-39 325 276
0.0074797203 0.71100003 -0.044878319 9.6664987e-39 326 276
0.0087263398 0.71100003 -0.044878319 9.85089e-39 327 276
0.010001013 0.713 -0.045004558 1.0403691e-38 328 276
0.01129848 0.71600002 -0.045193922 1.0680278e-38 329 276
0.0125714 0.71700001 -0.045257039 1.0775701e-38 330 276
0.013867113 0.71899998 -0.045383278 1.1144123e-38 331 276
0.01512776 0.71899998 -0.045383278 1.1143036e-38 332 276
0.0164112 0.72000003 -0.045446403 1.0497666e-38 333 276
0.017747238 0.72299999 -0.04563576 1.3081677e-38 334 276
0.019014901 0.72299999 -0.04563576 1.6493275e-38 335 276
0.020282559 0.72299999 -0.04563576 1.7977069e-38 336 276
-0.032229774 0.70700002 -0.045865446 1.6402525e-38 294 277
-0.031296998 0.71399999 -0.046319555 1.3636655e-38 295 277
-0.030045118 0.71399999 -0.046319555 1.1053724e-38 296 277
-0.028793238 0.71399999 -0.046319555 1.0408355e-38 297 277
-0.027502786 0.713 -0.046254687 1.1512915e-38 298 277
-0.026252659 0.713 -0.046254687 1.1973535e-38 299 277
-0.025002534 0.713 -0.046254687 1.1880266e-38 300 277
-0.023685781 0.71100003 -0.046124939 1.1695875e-38 301 277
-0.022439159 0.71100003 -0.046124939 1.1693724e-38 302 277
-0.021192541 0.71100003 -0.046124939 1.1509692e-38 303 277
-0.01994592 0.71100003 -0.046124939 1.1232395e-38 304 277
-0.0186993 0.71100003 -0.046124939 1.0863973e-38 305 277
-0.017428132 0.70999998 -0.046060063 1.0588831e-38 306 277
-0.016183265 0.70999998 -0.046060063 1.0496275e-38 307 277
-0.014938398 0.70999998 -0.046060063 1.0311886e-38 308 277
-0.013693533 0.70999998 -0.046060063 9.9431052e-39 309 277
-0.012448666 0.70999998 -0.046060063 1.0033502e-38 310 277
-0.011203799 0.70999998 -0.046060063 9.941306e-39 311 277
-0.0099589331 0.70999998 -0.046060063 9.8494635e-39 312 277
-0.0087140659 0.70999998 -0.046060063 9.9416591e-39 313 277
-0.0074691991 0.70999998 -0.046060063 9.6675931e-39 314 277
-0.0062243328 0.70999998 -0.046060063 9.8516257e-39 315 277
-0.0049794666 0.70999998 -0.046060063 9.7605118e-39 316 277
-0.0037345996 0.70999998 -0.046060063 9.8527075e-39 317 277
-0.0024897333 0.70999998 -0.046060063 1.0128571e-38 318 277
-0.0012448666 0.70999998 -0.046060063 1.0220767e-38 319 277
0 0.70999998 -0.046060063 1.0037448e-38 320 277
0.0012448666 0.70999998 -0.046060063 9.6686665e-39 321 277
0.0024897333 0.70999998 -0.046060063 1.0034208e-38 322 277
0.0037345996 0.70999998 -0.046060063 9.8498166e-39 323 277
0.0049864799 0.71100003 -0.046124939 9.8498166e-39 324 277
0.0062330998 0.71100003 -0.046124939 9.9420122e-39 325 277
0.0074797203 0.71100003 -0.046124939 1.0035277e-38 326 277
0.0087508867 0.713 -0.046254687 1.021967e-38 327 277
0.010001013 0.713 -0.046254687 1.0405489e-38 328 277
0.01129848 0.71600002 -0.046449307 1.0866108e-38 329 277
0.0125714 0.71700001 -0.046514176 1.0960814e-38 330 277
0.013867113 0.71899998 -0.046643924 1.1237402e-38 331 277
0.01512776 0.71899998 -0.046643924 1.1051206e-38 332 277
0.0164112 0.72000003 -0.0467088 1.0866815e-38 333 277
0.017747238 0.72299999 -0.046903417 1.4282743e-38 334 277
0.019014901 0.72299999 -0.046903417 1.6772026e-38 335 277
0.020282559 0.72299999 -0.046903417 1.8068904e-38 336 277
-0.031296998 0.71399999 -0.047571439 1.4837013e-38 295 278
-0.030045118 0.71399999 -0.047571439 1.2808323e-38 296 278
-0.028793238 0.71399999 -0.047571439 1.1240639e-38 297 278
-0.027502786 0.713 -0.047504812 1.1788774e-38 298 278
-0.026252659 0.713 -0.047504812 1.2065721e-38 299 278
-0.025002534 0.713 -0.047504812 1.2339446e-38 300 278
-0.023752406 0.713 -0.047504812 1.2063218e-38 301 278
-0.022502279 0.713 -0.047504812 1.1786275e-38 302 278
-0.021252153 0.713 -0.047504812 1.1325297e-38 303 278
-0.01994592 0.71100003 -0.047371563 1.1139481e-38 304 278
-0.0186993 0.71100003 -0.047371563 1.1047285e-38 305 278
-0.01745268 0.71100003 -0.047371563 1.067959e-38 306 278
-0.01620606 0.71100003 -0.047371563 1.0495559e-38 307 278
-0.014938398 0.70999998 -0.047304932 1.0677073e-38 308 278
-0.013693533 0.70999998 -0.047304932 1.0308649e-38 309 278
-0.012448666 0.70999998 -0.047304932 1.0124255e-38 310 278
-0.011203799 0.70999998 -0.047304932 1.0124255e-38 311 278
-0.0099589331 0.70999998 -0.047304932 9.9416563e-39 312 278
-0.0087140659 0.70999998 -0.047304932 1.0126406e-38 313 278
-0.0074691991 0.70999998 -0.047304932 1.0036007e-38 314 278
-0.0062243328 0.70999998 -0.047304932 1.0312234e-38 315 278
-0.0049794666 0.70999998 -0.047304932 1.0312234e-38 316 278
-0.0037345996 0.70999998 -0.047304932 1.040443e-38 317 278
-0.0024897333 0.70999998 -0.047304932 1.022112e-38 318 278
-0.0012448666 0.70999998 -0.047304932 1.022112e-38 319 278
0 0.71100003 -0.047371563 1.0128924e-38 320 278
0.00124662 0.71100003 -0.047371563 9.9441744e-39 321 278
0.0024932399 0.71100003 -0.047371563 1.0218954e-38 322 278
0.0037398601 0.71100003 -0.047371563 1.0126757e-38 323 278
0.0050005065 0.713 -0.047504812 1.0310419e-38 324 278
0.0062506334 0.713 -0.047504812 1.0495171e-38 325 278
0.0075007593 0.713 -0.047504812 1.0312569e-38 326 278
0.0087508867 0.713 -0.047504812 1.068135e-38 327 278
0.01001504 0.71399999 -0.047571439 1.0866464e-38 328 278
0.01129848 0.71600002 -0.047704693 1.1050855e-38 329 278
0.0125714 0.71700001 -0.04777132 1.1053026e-38 330 278
0.013867113 0.71899998 -0.04790457 1.1145222e-38 331 278
0.01512776 0.71899998 -0.04790457 1.0959386e-38 332 278
0.0164112 0.72000003 -0.0479712 1.1328168e-38 333 278
0.017722692 0.722 -0.048104454 1.5389816e-38 334 278
0.018935999 0.72000003 -0.0479712 1.723337e-38 335 278
0.020198401 0.72000003 -0.0479712 1.7791606e-38 336 278
-0.028793238 0.71399999 -0.048823316 1.3730299e-38 297 279
-0.027425639 0.71100003 -0.048618179 1.2989134e-38 298 279
-0.026179021 0.71100003 -0.048618179 1.1882787e-38 299 279
-0.024932399 0.71100003 -0.048618179 1.2339093e-38 300 279
-0.023685781 0.71100003 -0.048618179 1.1970669e-38 301 279
-0.022502279 0.713 -0.048754938 1.1509695e-38 302 279
-0.021252153 0.713 -0.048754938 1.1140553e-38 303 279
-0.020002026 0.713 -0.048754938 1.122988e-38 304 279
-0.0186993 0.71100003 -0.048618179 1.104513e-38 305 279
-0.01745268 0.71100003 -0.048618179 1.0952937e-38 306 279
-0.01620606 0.71100003 -0.048618179 1.067671e-38 307 279
-0.014959441 0.71100003 -0.048618179 1.0767107e-38 308 279
-0.01371282 0.71100003 -0.048618179 1.0582357e-38 309 279
-0.0124662 0.71100003 -0.048618179 1.0307565e-38 310 279
-0.011203799 0.70999998 -0.048549797 1.0123534e-38 311 279
-0.0099589331 0.70999998 -0.048549797 1.0217517e-38 312 279
-0.0087140659 0.70999998 -0.048549797 1.0494464e-38 313 279
-0.0074691991 0.70999998 -0.048549797 1.0314022e-38 314 279
-0.0062243328 0.70999998 -0.048549797 1.0682446e-38 315 279
-0.0049794666 0.70999998 -0.048549797 1.0499136e-38 316 279
-0.0037345996 0.70999998 -0.048549797 1.0406582e-38 317 279
-0.0024897333 0.70999998 -0.048549797 1.0315108e-38 318 279
-0.0012448666 0.70999998 -0.048549797 1.0131077e-38 319 279
0 0.71100003 -0.048618179 1.0221836e-38 320 279
0.00124662 0.71100003 -0.048618179 1.0037445e-38 321 279
0.0024932399 0.71100003 -0.048618179 1.0220394e-38 322 279
0.0037398601 0.71100003 -0.048618179 1.031259e-38 323 279
0.0050005065 0.713 -0.048754938 1.0496968e-38 324 279
0.0062506334 0.713 -0.048754938 1.0681e-38 325 279
0.0075112795 0.71399999 -0.048823316 1.0866461e-38 326 279
0.0087631596 0.71399999 -0.048823316 1.0958657e-38 327 279
0.01001504 0.71399999 -0.048823316 1.1143773e-38 328 279
0.01129848 0.71600002 -0.048960082 1.0867546e-38 329 279
0.0125714 0.71700001 -0.04902846 1.1140906e-38 330 279
0.013867113 0.71899998 -0.049165215 1.150969e-38 331 279
0.01512776 0.71899998 -0.049165215 1.0957591e-38 332 279
0.016388407 0.71899998 -0.049165215 1.2156134e-38 333 279
0.017649053 0.71899998 -0.049165215 1.6036632e-38 334 279
0.018935999 0.72000003 -0.0492336 1.7419566e-38 335 279
0.020198401 0.72000003 -0.0492336 1.733063e-38 336 279
-0.027425639 0.71100003 -0.049864799 1.3086742e-38 298 280
-0.026179021 0.71100003 -0.049864799 1.1058438e-38 299 280
-0.024932399 0.71100003 -0.049864799 1.1052676e-38 300 280
-0.023685781 0.71100003 -0.049864799 1.0960121e-38 301 280
-0.022502279 0.713 -0.050005067 1.1508262e-38 302 280
-0.021252153 0.713 -0.050005067 1.1047285e-38 303 280
-0.020002026 0.713 -0.050005067 1.1228082e-38 304 280
-0.0186993 0.71100003 -0.049864799 1.0951496e-38 305 280
-0.01745268 0.71100003 -0.049864799 1.0766398e-38 306 280
-0.01620606 0.71100003 -0.049864799 1.0582006e-38 307 280
-0.014959441 0.71100003 -0.049864799 1.0489811e-38 308 280
-0.01371282 0.71100003 -0.049864799 1.0489811e-38 309 280
-0.0124662 0.71100003 -0.049864799 9.756193e-39 310 280
-0.01121958 0.71100003 -0.049864799 9.940943e-39 311 280
-0.0099729598 0.71100003 -0.049864799 9.8512585e-39 312 280
-0.0087140659 0.70999998 -0.049794663 1.0220041e-38 313 280
-0.0074691991 0.70999998 -0.049794663 1.0496984e-38 314 280
-0.0062243328 0.70999998 -0.049794663 1.0865408e-38 315 280
-0.0049794666 0.70999998 -0.049794663 1.0957235e-38 316 280
-0.0037345996 0.70999998 -0.049794663 1.0957235e-38 317 280
-0.0024897333 0.70999998 -0.049794663 1.1140906e-38 318 280
-0.00124662 0.71100003 -0.049864799 1.086432e-38 319 280
0 0.71100003 -0.049864799 1.0772126e-38 320 280
0.00124662 0.71100003 -0.049864799 1.067993e-38 321 280
0.0025002533 0.713 -0.050005067 1.0679928e-38 322 280
0.0037503797 0.713 -0.050005067 1.0772123e-38 323 280
0.0050005065 0.713 -0.050005067 1.0681e-38 324 280
0.0062506334 0.713 -0.050005067 1.0957588e-38 325 280
0.0075112795 0.71399999 -0.050075196 1.0775348e-38 326 280
0.0087877065 0.71600002 -0.050215468 1.1236326e-38 327 280
0.010043093 0.71600002 -0.050215468 1.1418213e-38 328 280
0.01131426 0.71700001 -0.0502856 1.0957235e-38 329 280
0.0125714 0.71700001 -0.0502856 1.0678502e-38 330 280
0.013828539 0.71700001 -0.0502856 1.1047285e-38 331 280
0.015085679 0.71700001 -0.0502856 1.16062e-38 332 280
0.016342819 0.71700001 -0.0502856 1.2712547e-38 333 280
0.017599959 0.71700001 -0.0502856 1.6406859e-38 334 280
-0.023752406 0.713 -0.051255193 1.1051601e-38 301 281
-0.022502279 0.713 -0.051255193 1.1139481e-38 302 281
-0.021281958 0.71399999 -0.05132708 1.0678502e-38 303 281
-0.020030079 0.71399999 -0.05132708 1.0859299e-38 304 281
-0.0186993 0.71100003 -0.051111419 1.0490517e-38 305 281
-0.01745268 0.71100003 -0.051111419 1.0489798e-38 306 281
-0.016251646 0.713 -0.051255193 1.0305047e-38 307 281
-0.015001519 0.713 -0.051255193 1.0396523e-38 308 281
-0.013751393 0.713 -0.051255193 1.0304328e-38 309 281
-0.012501267 0.713 -0.051255193 9.756179e-39 310 281
-0.01121958 0.71100003 -0.051111419 1.0032407e-38 311 281
-0.0099729598 0.71100003 -0.051111419 1.0125678e-38 312 281
-0.0087263398 0.71100003 -0.051111419 1.0310069e-38 313 281
-0.0074797203 0.71100003 -0.051111419 1.086289e-38 314 281
-0.0062330998 0.71100003 -0.051111419 1.1047282e-38 315 281
-0.0049864799 0.71100003 -0.051111419 1.1232751e-38 316 281
-0.0037398601 0.71100003 -0.051111419 1.1140555e-38 317 281
-0.0024932399 0.71100003 -0.051111419 1.1048001e-38 318 281
-0.00124662 0.71100003 -0.051111419 1.086397e-38 319 281
0 0.713 -0.051255193 1.0679574e-38 320 281
0.0012501266 0.713 -0.051255193 1.077177e-38 321 281
0.0025002533 0.713 -0.051255193 1.0680296e-38 322 281
0.0037556398 0.71399999 -0.05132708 1.0680296e-38 323 281
0.0050075199 0.71399999 -0.05132708 1.0772493e-38 324 281
0.0062593995 0.71399999 -0.05132708 1.0956884e-38 325 281
0.00753232 0.71600002 -0.051470853 1.1143068e-38 326 281
0.0087877065 0.71600002 -0.051470853 1.1235622e-38 327 281
0.010043093 0.71600002 -0.051470853 1.1234548e-38 328 281
0.01131426 0.71700001 -0.051542737 1.0404785e-38 329 281
0.0125714 0.71700001 -0.051542737 1.067813e-38 330 281
0.013828539 0.71700001 -0.051542737 1.1876673e-38 331 281
0.01506464 0.71600002 -0.051470853 1.3083848e-38 332 281
0.016320027 0.71600002 -0.051470853 1.4374587e-38 333 281
0.017599959 0.71700001 -0.051542737 1.6409027e-38 334 281
-0.021192541 0.71100003 -0.052358042 9.9441744e-39 303 282
-0.01994592 0.71100003 -0.052358042 1.0123536e-38 304 282
-0.0186993 0.71100003 -0.052358042 9.9387864e-39 305 282
