# .PCD v.7 - Point Cloud Data file format
FIELDS x y z rgb imX imY
SIZE 4 4 4 4 4 4
TYPE F F F F F F
COUNT 1 1 1 1 1 1
WIDTH 848
HEIGHT 1
VIEWPOINT 0 0 0 1 0 0 0
POINTS 848
DATA ascii
0.099591084 0.71899998 -0.013867113 5.360991e-39 399 251
0.100992 0.72000003 -0.0138864 5.3620742e-39 400 251
0.10253844 0.722 -0.013924973 5.2698785e-39 401 251
0.10394812 0.72299999 -0.01394426 5.2698757e-39 402 251
0.10579788 0.727 -0.014021406 5.2698757e-39 403 251
0.10707255 0.727 -0.014021406 5.3616972e-39 404 251
0.10849626 0.72799999 -0.014040692 5.4538929e-39 405 251
0.10977269 0.72799999 -0.014040692 5.8187195e-39 406 251
0.11104912 0.72799999 -0.014040692 5.1733501e-39 407 251
0.11263414 0.73000002 -0.014079267 6.7277376e-39 408 251
-0.037721213 0.69400001 -0.01460176 1.3927171e-38 289 252
-0.036504399 0.69400001 -0.01460176 1.2269422e-38 290 252
-0.035236739 0.69300002 -0.014580719 9.9645311e-39 291 252
-0.034021679 0.69300002 -0.014580719 1.0702854e-38 292 252
-0.03280662 0.69300002 -0.014580719 1.3008104e-38 293 252
-0.031591557 0.69300002 -0.014580719 1.5954122e-38 294 252
-0.0303765 0.69300002 -0.014580719 1.6230708e-38 295 252
-0.029161438 0.69300002 -0.014580719 1.5582816e-38 296 252
-0.027946379 0.69300002 -0.014580719 1.4476827e-38 297 252
-0.02673132 0.69300002 -0.014580719 1.3924722e-38 298 252
-0.025553079 0.69400001 -0.01460176 1.3740331e-38 299 252
-0.0244064 0.69599998 -0.014643839 1.3189325e-38 300 252
-0.023219392 0.69700003 -0.01466488 1.2912738e-38 301 252
-0.02199732 0.69700003 -0.01466488 1.2362088e-38 302 252
-0.020775247 0.69700003 -0.01466488 1.2269893e-38 303 252
-0.019553173 0.69700003 -0.01466488 1.1444079e-38 304 252
-0.0183574 0.69800001 -0.01468592 1.1351884e-38 305 252
-0.017133573 0.69800001 -0.01468592 1.0984176e-38 306 252
-0.015955333 0.69999999 -0.014727999 1.0891622e-38 307 252
-0.014727999 0.69999999 -0.014727999 1.079871e-38 308 252
-0.013519952 0.70099998 -0.014749039 1.0521763e-38 309 252
-0.012325933 0.70300001 -0.014791119 9.6008829e-39 310 252
-0.011109119 0.704 -0.014812159 9.324296e-39 311 252
-0.0099028256 0.70599997 -0.014854239 8.7729201e-39 312 252
-0.008689519 0.708 -0.01489632 8.5885289e-39 313 252
-0.0074481601 0.708 -0.01489632 8.4034187e-39 314 252
-0.0062330998 0.71100003 -0.014959441 8.2186673e-39 315 252
-0.0050005065 0.713 -0.015001519 7.6676488e-39 316 252
-0.0037556398 0.71399999 -0.015022559 7.4832575e-39 317 252
-0.0025107733 0.71600002 -0.01506464 7.2070237e-39 318 252
-0.00125714 0.71700001 -0.015085679 7.0226325e-39 319 252
0 0.71899998 -0.01512776 6.9282788e-39 320 252
0.0012624001 0.72000003 -0.0151488 6.4676608e-39 321 252
0.0025318132 0.722 -0.015190879 5.2716316e-39 322 252
0.0037977197 0.722 -0.015190879 5.0872403e-39 323 252
0.0050636264 0.722 -0.015190879 5.1772583e-39 324 252
0.0063382997 0.72299999 -0.015211919 4.9925083e-39 325 252
0.0076059597 0.72299999 -0.015211919 4.9914097e-39 326 252
0.0088981669 0.72500002 -0.015254001 4.8992141e-39 327 252
0.010169334 0.72500002 -0.015254001 4.3481955e-39 328 252
0.0114405 0.72500002 -0.015254001 4.163807e-39 329 252
0.012711667 0.72500002 -0.015254001 4.0712541e-39 330 252
0.014021406 0.727 -0.015296079 3.9790599e-39 331 252
0.015296079 0.727 -0.015296079 3.7950399e-39 332 252
0.016593546 0.72799999 -0.01531712 3.7950399e-39 333 252
0.017869972 0.72799999 -0.01531712 3.6095893e-39 334 252
0.019199001 0.73000002 -0.0153592 3.4255582e-39 335 252
0.020506985 0.73100001 -0.01538024 3.5152553e-39 336 252
0.021848286 0.73299998 -0.015422319 3.2383083e-39 337 252
0.023165042 0.73400003 -0.01544336 2.9617312e-39 338 252
0.024451986 0.73400003 -0.01544336 2.7769812e-39 339 252
0.025738932 0.73400003 -0.01544336 2.4081791e-39 340 252
0.026989058 0.73299998 -0.015422319 1.8550053e-39 341 252
0.028274251 0.73299998 -0.015422319 2.2241409e-39 342 252
0.029559445 0.73299998 -0.015422319 4.1602421e-39 343 252
0.031223357 0.74199998 -0.015611678 6.5558894e-39 344 252
0.032524332 0.74199998 -0.015611678 7.9388252e-39 345 252
0.033825304 0.74199998 -0.015611678 1.0051759e-38 346 252
0.035220962 0.74400002 -0.015653761 1.0697129e-38 347 252
0.036525439 0.74400002 -0.015653761 9.6843891e-39 348 252
0.037829921 0.74400002 -0.015653761 8.9468241e-39 349 252
0.0372408 0.708 -0.01489632 7.7525745e-39 350 252
0.038482159 0.708 -0.01489632 8.0291613e-39 351 252
0.039667413 0.70700002 -0.01487528 8.0323857e-39 352 252
0.040849157 0.70599997 -0.014854239 8.216777e-39 353 252
0.042087011 0.70599997 -0.014854239 9.0407769e-39 354 252
0.045534063 0.74199998 -0.015611678 8.3032203e-39 355 252
0.046835039 0.74199998 -0.015611678 8.6648226e-39 356 252
0.048136011 0.74199998 -0.015611678 8.4807928e-39 357 252
0.047171678 0.708 -0.01489632 7.7482613e-39 358 252
0.048413038 0.708 -0.01489632 8.5783722e-39 359 252
0.049654398 0.708 -0.01489632 8.4854578e-39 360 252
0.050895758 0.708 -0.01489632 7.8400968e-39 361 252
0.052137118 0.708 -0.01489632 7.1043366e-39 362 252
0.053378478 0.708 -0.01489632 6.5511712e-39 363 252
0.054619838 0.708 -0.01489632 5.1696927e-39 364 252
0.055861197 0.708 -0.01489632 4.4321389e-39 365 252
0.057021905 0.70700002 -0.01487528 3.4183611e-39 366 252
0.05826151 0.70700002 -0.01487528 3.0499429e-39 367 252
0.059501119 0.70700002 -0.01487528 2.3163352e-39 368 252
0.060740728 0.70700002 -0.01487528 2.4085294e-39 369 252
0.063558333 0.72500002 -0.015254001 2.1330229e-39 370 252
0.064829499 0.72500002 -0.015254001 2.1330229e-39 371 252
0.066100664 0.72500002 -0.015254001 2.3163352e-39 372 252
0.067371838 0.72500002 -0.015254001 2.5007278e-39 373 252
0.068643004 0.72500002 -0.015254001 2.5010936e-39 374 252
0.069624864 0.722 -0.015190879 2.6858435e-39 375 252
0.070890769 0.722 -0.015190879 2.5961632e-39 376 252
0.072156675 0.722 -0.015190879 2.9653045e-39 377 252
0.072303966 0.71100003 -0.014959441 3.0592896e-39 378 252
0.073447131 0.70999998 -0.014938398 3.4280735e-39 379 252
0.074691996 0.70999998 -0.014938398 3.7961386e-39 380 252
0.075722955 0.708 -0.01489632 3.8883342e-39 381 252
0.076964319 0.708 -0.01489632 3.8887027e-39 382 252
0.078205675 0.708 -0.01489632 3.7961484e-39 383 252
0.079334825 0.70700002 -0.01487528 3.7039527e-39 384 252
0.080574431 0.70700002 -0.01487528 3.5199216e-39 385 252
0.081929758 0.708 -0.01489632 3.3362436e-39 386 252
0.083171122 0.708 -0.01489632 3.0600155e-39 387 252
0.084650926 0.70999998 -0.014938398 3.1507846e-39 388 252
0.085895792 0.70999998 -0.014938398 3.1507846e-39 389 252
0.087140657 0.70999998 -0.014938398 3.2429942e-39 390 252
0.088510022 0.71100003 -0.014959441 3.3351898e-39 391 252
0.089756638 0.71100003 -0.014959441 3.3362744e-39 392 252
0.091259241 0.713 -0.015001519 3.6125012e-39 393 252
0.092509374 0.713 -0.015001519 3.5210356e-39 394 252
0.093890995 0.71399999 -0.015022559 3.6132313e-39 395 252
0.095409386 0.71600002 -0.01506464 3.8883916e-39 396 252
0.096664771 0.71600002 -0.01506464 4.1646184e-39 397 252
0.097920164 0.71600002 -0.01506464 4.0731528e-39 398 252
0.099314056 0.71700001 -0.015085679 4.2575441e-39 399 252
0.10085172 0.71899998 -0.01512776 4.6270441e-39 400 252
0.10225441 0.72000003 -0.0151488 4.3504586e-39 401 252
0.10394812 0.72299999 -0.015211919 4.8085501e-39 402 252
0.10550684 0.72500002 -0.015254001 4.8085501e-39 403 252
0.10707255 0.727 -0.015296079 4.6266629e-39 404 252
0.10849626 0.72799999 -0.01531712 4.6266629e-39 405 252
0.10977269 0.72799999 -0.01531712 5.0836684e-39 406 252
0.11104912 0.72799999 -0.01531712 4.6226917e-39 407 252
0.11263414 0.73000002 -0.0153592 6.0866716e-39 408 252
-0.051870614 0.68800002 -0.015681813 1.47545e-38 277 253
-0.050664321 0.68800002 -0.015681813 1.484955e-38 278 253
-0.049458027 0.68800002 -0.015681813 1.5310528e-38 279 253
-0.045022093 0.69400001 -0.015818574 1.392865e-38 283 253
-0.043805279 0.69400001 -0.015818574 1.4387105e-38 284 253
-0.042588469 0.69400001 -0.015818574 1.4203074e-38 285 253
-0.041371655 0.69400001 -0.015818574 1.420342e-38 286 253
-0.04009698 0.69300002 -0.015795778 1.4480007e-38 287 253
-0.03888192 0.69300002 -0.015795778 1.4202325e-38 288 253
-0.037666857 0.69300002 -0.015795778 1.2081826e-38 289 253
-0.036451802 0.69300002 -0.015795778 1.1162043e-38 290 253
-0.035135046 0.69099998 -0.015750192 1.2360227e-38 291 253
-0.033923492 0.69099998 -0.015750192 1.384044e-38 292 253
-0.032711938 0.69099998 -0.015750192 1.4854592e-38 293 253
-0.031454802 0.69 -0.015727401 1.5677534e-38 294 253
-0.030244999 0.69 -0.015727401 1.5032164e-38 295 253
-0.029077278 0.69099998 -0.015750192 1.4479345e-38 296 253
-0.027865725 0.69099998 -0.015750192 1.3649224e-38 297 253
-0.026654173 0.69099998 -0.015750192 1.3464114e-38 298 253
-0.02551626 0.69300002 -0.015795778 1.3464114e-38 299 253
-0.024336265 0.69400001 -0.015818574 1.282019e-38 300 253
-0.023186078 0.69599998 -0.015864158 1.282019e-38 301 253
-0.021965759 0.69599998 -0.015864158 1.2177697e-38 302 253
-0.020745439 0.69599998 -0.015864158 1.2177697e-38 303 253
-0.019525118 0.69599998 -0.015864158 1.1351531e-38 304 253
-0.018331099 0.69700003 -0.015886955 1.1167138e-38 305 253
-0.017109027 0.69700003 -0.015886955 1.107494e-38 306 253
-0.015909746 0.69800001 -0.015909746 1.0521766e-38 307 253
-0.014727999 0.69999999 -0.015955333 9.6934373e-39 308 253
-0.013519952 0.70099998 -0.015978126 9.4164917e-39 309 253
-0.012325933 0.70300001 -0.016023712 8.8643927e-39 310 253
-0.011109119 0.704 -0.016046507 8.8643927e-39 311 253
-0.0098747732 0.704 -0.016046507 8.5881631e-39 312 253
-0.008689519 0.708 -0.01613768 8.4959675e-39 313 253
-0.0074691991 0.70999998 -0.016183265 8.3108476e-39 314 253
-0.0062330998 0.71100003 -0.01620606 8.1264563e-39 315 253
-0.0050075199 0.71399999 -0.016274439 7.5740042e-39 316 253
-0.00376616 0.71600002 -0.016320027 7.113026e-39 317 253
-0.0025107733 0.71600002 -0.016320027 7.2949062e-39 318 253
-0.00125714 0.71700001 -0.016342819 7.0179605e-39 319 253
0 0.71899998 -0.016388407 6.8346511e-39 320 253
0.0012624001 0.72000003 -0.0164112 6.5577041e-39 321 253
0.0025318132 0.722 -0.016456785 5.6393421e-39 322 253
0.0037977197 0.722 -0.016456785 5.4549494e-39 323 253
0.0050636264 0.722 -0.016456785 5.0872403e-39 324 253
0.0063295332 0.722 -0.016456785 4.9950447e-39 325 253
0.0076059597 0.72299999 -0.01647958 4.9939559e-39 326 253
0.0088981669 0.72500002 -0.016525166 4.8095646e-39 327 253
0.010169334 0.72500002 -0.016525166 4.3496599e-39 328 253
0.0114405 0.72500002 -0.016525166 4.1652672e-39 329 253
0.012746733 0.727 -0.016570752 4.2549405e-39 330 253
0.014021406 0.727 -0.016570752 3.9783522e-39 331 253
0.01531712 0.72799999 -0.016593546 3.9779865e-39 332 253
0.016593546 0.72799999 -0.016593546 3.7932365e-39 333 253
0.017919067 0.73000002 -0.016639132 4.2502742e-39 334 253
0.019225299 0.73100001 -0.016661927 3.6971004e-39 335 253
0.020563092 0.73299998 -0.016707512 3.6020517e-39 336 253
0.021848286 0.73299998 -0.016707512 2.9566823e-39 337 253
0.023165042 0.73400003 -0.016730307 1.8489166e-39 338 253
0.024451986 0.73400003 -0.016730307 8.3441158e-40 339 253
0.025738932 0.73400003 -0.016730307 1.9012818e-41 340 253
0.026989058 0.73299998 -0.016707512 3.7082715e-39 341 253
0.028274251 0.73299998 -0.016707512 7.9395315e-39 342 253
0.028389972 0.704 -0.016046507 9.8756383e-39 343 253
0.029624319 0.704 -0.016046507 1.1069494e-38 344 253
0.030858666 0.704 -0.016046507 1.0424125e-38 345 253
0.032093015 0.704 -0.016046507 8.9529127e-39 346 253
0.03332736 0.704 -0.016046507 8.3997389e-39 347 253
0.034561705 0.704 -0.016046507 8.3982914e-39 348 253
0.035796054 0.704 -0.016046507 8.3982914e-39 349 253
0.037135597 0.70599997 -0.016092092 7.6650451e-39 350 253
0.038373452 0.70599997 -0.016092092 7.5728495e-39 351 253
0.039611302 0.70599997 -0.016092092 8.1224192e-39 352 253
0.040733438 0.704 -0.016046507 8.1224192e-39 353 253
0.041967787 0.704 -0.016046507 8.4876087e-39 354 253
0.043324865 0.70599997 -0.016092092 8.1188318e-39 355 253
0.044562716 0.70599997 -0.016092092 8.0244852e-39 356 253
0.04580057 0.70599997 -0.016092092 7.8400968e-39 357 253
0.047038425 0.70599997 -0.016092092 7.74862e-39 358 253
0.048276275 0.70599997 -0.016092092 8.7631166e-39 359 253
0.049654398 0.708 -0.01613768 1.0237171e-38 360 253
0.050895758 0.708 -0.01613768 1.0144975e-38 361 253
0.052137118 0.708 -0.01613768 9.9609564e-39 362 253
0.053378478 0.708 -0.01613768 1.0145348e-38 363 253
0.054619838 0.708 -0.01613768 1.0419793e-38 364 253
0.055861197 0.708 -0.01613768 9.8662594e-39 365 253
0.057021905 0.70700002 -0.016114887 8.5737255e-39 366 253
0.05826151 0.70700002 -0.016114887 6.1762958e-39 367 253
0.059416957 0.70599997 -0.016092092 3.2354076e-39 368 253
0.060654808 0.70599997 -0.016092092 2.4978537e-39 369 253
0.061892662 0.70599997 -0.016092092 1.5812924e-39 370 253
0.063130513 0.70599997 -0.016092092 1.7656809e-39 371 253
0.06628301 0.727 -0.016570752 2.5000061e-39 372 253
0.067557678 0.727 -0.016570752 2.6843946e-39 373 253
0.068643004 0.72500002 -0.016525166 2.3184875e-39 374 253
0.069914162 0.72500002 -0.016525166 2.6869057e-39 375 253
0.071185336 0.72500002 -0.016525166 2.9634884e-39 376 253
0.072456501 0.72500002 -0.016525166 3.3322667e-39 377 253
0.073422581 0.722 -0.016456785 3.7014164e-39 378 253
0.074688487 0.722 -0.016456785 3.9780019e-39 379 253
0.074691996 0.70999998 -0.016183265 3.8872524e-39 380 253
0.075722955 0.708 -0.01613768 3.8872524e-39 381 253
0.076964319 0.708 -0.01613768 4.1616911e-39 382 253
0.078205675 0.708 -0.01613768 4.0694955e-39 383 253
0.079334825 0.70700002 -0.016114887 3.8858273e-39 384 253
0.080574431 0.70700002 -0.016114887 3.9783816e-39 385 253
0.081929758 0.708 -0.01613768 3.4277288e-39 386 253
0.083171122 0.708 -0.01613768 3.335173e-39 387 253
0.084412478 0.708 -0.01613768 3.0596679e-39 388 253
0.085895792 0.70999998 -0.016183265 3.0596679e-39 389 253
0.087140657 0.70999998 -0.016183265 3.5184881e-39 390 253
0.08838553 0.70999998 -0.016183265 3.5184881e-39 391 253
0.089630395 0.70999998 -0.016183265 3.4270197e-39 392 253
0.091259241 0.713 -0.016251646 3.4270197e-39 393 253
0.092509374 0.713 -0.016251646 3.8858483e-39 394 253
0.093890995 0.71399999 -0.016274439 3.9780439e-39 395 253
0.095409386 0.71600002 -0.016320027 4.2532015e-39 396 253
0.096664771 0.71600002 -0.016320027 4.2532015e-39 397 253
0.097920164 0.71600002 -0.016320027 4.345044e-39 398 253
0.099314056 0.71700001 -0.016342819 4.7141866e-39 399 253
0.10085172 0.71899998 -0.016388407 4.7156216e-39 400 253
0.10225441 0.72000003 -0.0164112 4.5315904e-39 401 253
0.10394812 0.72299999 -0.01647958 4.713458e-39 402 253
0.10550684 0.72500002 -0.016525166 4.6212623e-39 403 253
0.10707255 0.727 -0.016570752 4.3475523e-39 404 253
0.10849626 0.72799999 -0.016593546 4.4397479e-39 405 253
0.10977269 0.72799999 -0.016593546 4.9900477e-39 406 253
0.11104912 0.72799999 -0.016593546 4.897852e-39 407 253
0.11263414 0.73000002 -0.016639132 5.4459881e-39 408 253
-0.052999757 0.68699998 -0.01686356 1.5215814e-38 276 254
-0.051795214 0.68699998 -0.01686356 1.5492403e-38 277 254
-0.050590675 0.68699998 -0.01686356 1.5402005e-38 278 254
-0.049386136 0.68699998 -0.01686356 1.5402005e-38 279 254
-0.048181597 0.68699998 -0.01686356 1.475626e-38 280 254
-0.047045439 0.68800002 -0.016888106 1.4295282e-38 281 254
-0.046039023 0.69099998 -0.016961746 1.3927929e-38 282 254
-0.044827472 0.69099998 -0.016961746 1.3927929e-38 283 254
-0.043742158 0.69300002 -0.01701084 1.4019397e-38 284 254
-0.042404365 0.69099998 -0.016961746 1.4111594e-38 285 254
-0.041192811 0.69099998 -0.016961746 1.4754798e-38 286 254
-0.039981257 0.69099998 -0.016961746 1.4109429e-38 287 254
-0.038769703 0.69099998 -0.016961746 1.1720602e-38 288 254
-0.03755815 0.69099998 -0.016961746 9.692298e-39 289 254
-0.036346599 0.69099998 -0.016961746 1.2174412e-38 290 254
-0.035084199 0.69 -0.0169372 1.4479303e-38 291 254
-0.0338744 0.69 -0.0169372 1.5675736e-38 292 254
-0.032664597 0.69 -0.0169372 1.5860127e-38 293 254
-0.031454802 0.69 -0.0169372 1.5307321e-38 294 254
-0.030244999 0.69 -0.0169372 1.4661951e-38 295 254
-0.029035198 0.69 -0.0169372 1.4018733e-38 296 254
-0.027825398 0.69 -0.0169372 1.3465559e-38 297 254
-0.026615599 0.69 -0.0169372 1.3280449e-38 298 254
-0.02551626 0.69300002 -0.01701084 1.3096056e-38 299 254
-0.024301201 0.69300002 -0.01701084 1.2820546e-38 300 254
-0.023119451 0.69400001 -0.017035386 1.2636154e-38 301 254
-0.021965759 0.69599998 -0.017084479 1.1994382e-38 302 254
-0.020745439 0.69599998 -0.017084479 1.1902186e-38 303 254
-0.019525118 0.69599998 -0.017084479 1.1167505e-38 304 254
-0.018304799 0.69599998 -0.017084479 1.0798723e-38 305 254
-0.017109027 0.69700003 -0.017109027 1.0245905e-38 306 254
-0.015909746 0.69800001 -0.017133573 9.9689592e-39 307 254
-0.01468592 0.69800001 -0.017133573 9.1406334e-39 308 254
-0.013500666 0.69999999 -0.017182667 9.0480791e-39 309 254
-0.012290866 0.70099998 -0.017207211 8.8640396e-39 310 254
-0.011109119 0.704 -0.017280852 8.5878128e-39 311 254
-0.0098747732 0.704 -0.017280852 8.2201023e-39 312 254
-0.008689519 0.708 -0.017379038 7.7587654e-39 313 254
-0.0074691991 0.70999998 -0.017428132 7.5736356e-39 314 254
-0.0062506334 0.713 -0.017501773 7.1126575e-39 315 254
-0.0050075199 0.71399999 -0.017526319 6.6527682e-39 316 254
-0.00376616 0.71600002 -0.017575413 6.4683769e-39 317 254
-0.0025107733 0.71600002 -0.017575413 6.1918124e-39 318 254
-0.00125714 0.71700001 -0.017599959 6.0996154e-39 319 254
0 0.71700001 -0.017599959 5.8241019e-39 320 254
0.0012606466 0.71899998 -0.017649053 5.7319063e-39 321 254
0.0025318132 0.722 -0.017722692 5.639698e-39 322 254
0.0037977197 0.722 -0.017722692 5.4549466e-39 323 254
0.0050636264 0.722 -0.017722692 5.6371743e-39 324 254
0.0063295332 0.722 -0.017722692 5.6371743e-39 325 254
0.0076059597 0.72299999 -0.017747238 5.1772709e-39 326 254
0.0088736191 0.72299999 -0.017747238 4.9928797e-39 327 254
0.010169334 0.72500002 -0.017796334 4.806692e-39 328 254
0.0114405 0.72500002 -0.017796334 4.5301037e-39 329 254
0.012746733 0.727 -0.017845426 4.0691255e-39 330 254
0.014040692 0.72799999 -0.017869972 3.5159531e-39 331 254
0.01531712 0.72799999 -0.017869972 3.146463e-39 332 254
0.016639132 0.73000002 -0.017919067 2.7780392e-39 333 254
0.017992707 0.73299998 -0.017992707 2.5897215e-39 334 254
0.019304199 0.73400003 -0.018017253 2.0365477e-39 335 254
0.020591147 0.73400003 -0.018017253 1.4819418e-39 336 254
0.021878093 0.73400003 -0.018017253 1.0213224e-39 337 254
0.023228159 0.736 -0.018066347 1.040324e-40 338 254
0.024451986 0.73400003 -0.018017253 2.6855072e-39 339 254
0.025738932 0.73400003 -0.018017253 5.1729521e-39 340 254
0.02592128 0.704 -0.017280852 7.9388224e-39 341 254
0.027155625 0.704 -0.017280852 1.0607398e-38 342 254
0.028389972 0.704 -0.017280852 1.0699593e-38 343 254
0.029624319 0.704 -0.017280852 1.0422616e-38 344 254
0.030858666 0.704 -0.017280852 9.9616402e-39 345 254
0.032093015 0.704 -0.017280852 8.8560269e-39 346 254
0.03332736 0.704 -0.017280852 8.5794442e-39 347 254
0.034561705 0.704 -0.017280852 7.6618109e-39 348 254
0.035796054 0.704 -0.017280852 8.0302333e-39 349 254
0.037030395 0.704 -0.017280852 8.0313137e-39 350 254
0.038373452 0.70599997 -0.017329946 8.0313137e-39 351 254
0.039611302 0.70599997 -0.017329946 8.5805232e-39 352 254
0.040733438 0.704 -0.017280852 8.303579e-39 353 254
0.041967787 0.704 -0.017280852 8.2099499e-39 354 254
0.043324865 0.70599997 -0.017329946 8.0255614e-39 355 254
0.044562716 0.70599997 -0.017329946 8.0252027e-39 356 254
0.04580057 0.70599997 -0.017329946 8.0252027e-39 357 254
0.047038425 0.70599997 -0.017329946 8.3932621e-39 358 254
0.048276275 0.70599997 -0.017329946 8.6694861e-39 359 254
0.049584266 0.70700002 -0.017354494 8.6734321e-39 360 254
0.050895758 0.708 -0.017379038 8.7656264e-39 361 254
0.052137118 0.708 -0.017379038 9.042209e-39 362 254
0.053378478 0.708 -0.017379038 9.1344033e-39 363 254
0.054619838 0.708 -0.017379038 9.5917955e-39 364 254
0.055861197 0.708 -0.017379038 9.3155687e-39 365 254
0.057102561 0.708 -0.017379038 8.8549619e-39 366 254
0.05826151 0.70700002 -0.017354494 7.3798431e-39 367 254
0.059416957 0.70599997 -0.017329946 5.9083227e-39 368 254
0.060654808 0.70599997 -0.017329946 5.078216e-39 369 254
0.061892662 0.70599997 -0.017329946 3.7878555e-39 370 254
0.063219935 0.70700002 -0.017354494 3.1424959e-39 371 254
0.066374183 0.72799999 -0.017869972 3.3276018e-39 372 254
0.067557678 0.727 -0.017845426 3.419796e-39 373 254
0.06883236 0.727 -0.017845426 2.6861883e-39 374 254
0.069914162 0.72500002 -0.017796334 2.870218e-39 375 254
0.071185336 0.72500002 -0.017796334 2.9631381e-39 376 254
0.072256617 0.72299999 -0.017747238 3.3315605e-39 377 254
0.073422581 0.722 -0.017722692 3.3330066e-39 378 254
0.074688487 0.722 -0.017722692 3.7017877e-39 379 254
0.0759544 0.722 -0.017722692 3.7939862e-39 380 254
0.077220306 0.722 -0.017722692 3.7017905e-39 381 254
0.076964319 0.708 -0.017379038 3.7003682e-39 382 254
0.078205675 0.708 -0.017379038 3.6078139e-39 383 254
0.079447038 0.708 -0.017379038 3.1493622e-39 384 254
0.080688395 0.708 -0.017379038 3.2415579e-39 385 254
0.081929758 0.708 -0.017379038 3.4259393e-39 386 254
0.083171122 0.708 -0.017379038 3.518135e-39 387 254
0.084412478 0.708 -0.017379038 3.8858301e-39 388 254
0.085895792 0.70999998 -0.017428132 3.793633e-39 389 254
0.087140657 0.70999998 -0.017428132 4.161338e-39 390 254
0.08838553 0.70999998 -0.017428132 4.161338e-39 391 254
0.089630395 0.70999998 -0.017428132 4.619798e-39 392 254
0.091259241 0.713 -0.017501773 4.8963849e-39 393 254
0.092509374 0.713 -0.017501773 5.8125958e-39 394 254
0.093890995 0.71399999 -0.017526319 5.4441735e-39 395 254
0.095409386 0.71600002 -0.017575413 4.8935332e-39 396 254
0.096664771 0.71600002 -0.017575413 4.9857289e-39 397 254
0.097920164 0.71600002 -0.017575413 4.2517792e-39 398 254
0.099314056 0.71700001 -0.017599959 4.4361704e-39 399 254
0.10085172 0.71899998 -0.017649053 4.1631835e-39 400 254
0.10225441 0.72000003 -0.017673599 4.0709878e-39 401 254
0.10394812 0.72299999 -0.017747238 4.7127419e-39 402 254
0.10550684 0.72500002 -0.017796334 4.6205449e-39 403 254
0.10707255 0.727 -0.017845426 4.6205421e-39 404 254
0.10849626 0.72799999 -0.017869972 4.7127391e-39 405 254
0.10977269 0.72799999 -0.017869972 4.2553511e-39 406 254
0.11104912 0.72799999 -0.017869972 4.8085235e-39 407 254
0.11263414 0.73000002 -0.017919067 5.8140322e-39 408 254
-0.054204296 0.68699998 -0.018068098 1.6044873e-38 275 255
-0.05292261 0.68599999 -0.018041799 1.5770786e-38 276 255
-0.051719822 0.68599999 -0.018041799 1.5402005e-38 277 255
-0.050590675 0.68699998 -0.018068098 1.4758424e-38 278 255
-0.049386136 0.68699998 -0.018068098 1.420525e-38 279 255
-0.048181597 0.68699998 -0.018068098 1.3559868e-38 280 255
-0.047045439 0.68800002 -0.0180944 1.3652063e-38 281 255
-0.045972396 0.69 -0.018146999 1.4111597e-38 282 255
-0.0447626 0.69 -0.018146999 1.4019041e-38 283 255
-0.043615919 0.69099998 -0.0181733 1.4018322e-38 284 255
-0.042342998 0.69 -0.018146999 1.4571496e-38 285 255
-0.041133199 0.69 -0.018146999 1.484771e-38 286 255
-0.0399234 0.69 -0.018146999 1.1713059e-38 287 255
-0.038713597 0.69 -0.018146999 9.4157434e-39 288 255
-0.037503798 0.69 -0.018146999 1.0891232e-38 289 255
-0.036293998 0.69 -0.018146999 1.4661587e-38 290 255
-0.03498251 0.68800002 -0.0180944 1.586013e-38 291 255
-0.033776212 0.68800002 -0.0180944 1.5214405e-38 292 255
-0.032569919 0.68800002 -0.0180944 1.4569035e-38 293 255
-0.031363625 0.68800002 -0.0180944 1.4661584e-38 294 255
-0.030157333 0.68800002 -0.0180944 1.4384997e-38 295 255
-0.028951041 0.68800002 -0.0180944 1.3834342e-38 296 255
-0.027744746 0.68800002 -0.0180944 1.3465559e-38 297 255
-0.026615599 0.69 -0.018146999 1.3188975e-38 298 255
-0.025442619 0.69099998 -0.0181733 1.2912389e-38 299 255
-0.024301201 0.69300002 -0.018225901 1.2452489e-38 300 255
-0.023119451 0.69400001 -0.0182522 1.2452489e-38 301 255
-0.021902639 0.69400001 -0.0182522 1.1626323e-38 302 255
-0.020685827 0.69400001 -0.0182522 1.1534127e-38 303 255
-0.019469013 0.69400001 -0.0182522 1.0982388e-38 304 255
-0.018304799 0.69599998 -0.018304799 1.0337019e-38 305 255
-0.017084479 0.69599998 -0.018304799 9.3250247e-39 306 255
-0.015886955 0.69700003 -0.018331099 9.0480791e-39 307 255
-0.01468592 0.69800001 -0.0183574 8.5881785e-39 308 255
-0.013462093 0.69800001 -0.0183574 8.5881785e-39 309 255
-0.012290866 0.70099998 -0.018436298 8.6789238e-39 310 255
-0.011109119 0.704 -0.018515198 8.3105e-39 311 255
-0.0098747732 0.704 -0.018515198 7.5736539e-39 312 255
-0.008689519 0.708 -0.0186204 6.5595033e-39 313 255
-0.0074691991 0.70999998 -0.018672999 5.7315433e-39 314 255
-0.0062506334 0.713 -0.018751899 5.7315433e-39 315 255
-0.0050075199 0.71399999 -0.018778199 6.2836395e-39 316 255
-0.00376616 0.71600002 -0.0188308 6.0992469e-39 317 255
-0.0025107733 0.71600002 -0.0188308 5.8241047e-39 318 255
-0.00125714 0.71700001 -0.018857099 5.7319091e-39 319 255
0 0.71700001 -0.018857099 5.5485968e-39 320 255
0.0012606466 0.71899998 -0.018909698 5.3638468e-39 321 255
0.0025248001 0.72000003 -0.018935999 5.4545991e-39 322 255
0.0037872 0.72000003 -0.018935999 5.3624035e-39 323 255
0.0050496003 0.72000003 -0.018935999 5.3609601e-39 324 255
0.0063120001 0.72000003 -0.018935999 5.1765689e-39 325 255
0.0075954394 0.722 -0.0189886 4.9914574e-39 326 255
0.0088736191 0.72299999 -0.019014901 4.7145117e-39 327 255
0.01014128 0.72299999 -0.019014901 4.4364829e-39 328 255
0.01140894 0.72299999 -0.019014901 3.9758635e-39 329 255
0.012676599 0.72299999 -0.019014901 3.9722608e-39 330 255
0.014021406 0.727 -0.019120099 3.0506646e-39 331 255
0.0153592 0.73000002 -0.019199001 3.2311182e-39 332 255
0.016661927 0.73100001 -0.019225299 2.2173264e-39 333 255
0.017992707 0.73299998 -0.019277899 2.5807349e-39 334 255
0.019304199 0.73400003 -0.019304199 1.6587801e-39 335 255
0.020591147 0.73400003 -0.019304199 2.8124621e-40 336 255
0.021878093 0.73400003 -0.019304199 3.1389254e-39 337 255
0.023228159 0.736 -0.019356798 6.461177e-39 338 255
0.024451986 0.73400003 -0.019304199 9.6880241e-39 339 255
0.024686933 0.704 -0.018515198 1.1160961e-38 340 255
0.02592128 0.704 -0.018515198 1.0699983e-38 341 255
0.027155625 0.704 -0.018515198 9.6893833e-39 342 255
0.028389972 0.704 -0.018515198 9.0440139e-39 343 255
0.029624319 0.704 -0.018515198 8.2131785e-39 344 255
0.030858666 0.704 -0.018515198 7.4756246e-39 345 255
0.032093015 0.704 -0.018515198 6.6483877e-39 346 255
0.03332736 0.704 -0.018515198 6.9246116e-39 347 255
0.034561705 0.704 -0.018515198 7.1983343e-39 348 255
0.035796054 0.704 -0.018515198 7.6589537e-39 349 255
0.037030395 0.704 -0.018515198 7.9387678e-39 350 255
0.038264744 0.704 -0.018515198 8.2149945e-39 351 255
0.039499093 0.704 -0.018515198 8.2146162e-39 352 255
0.040733438 0.704 -0.018515198 7.8454777e-39 353 255
0.041967787 0.704 -0.018515198 8.0255614e-39 354 255
0.043324865 0.70599997 -0.018567799 7.8408142e-39 355 255
0.044562716 0.70599997 -0.018567799 7.7479025e-39 356 255
0.04580057 0.70599997 -0.018567799 8.1170438e-39 357 255
0.047038425 0.70599997 -0.018567799 8.3939796e-39 358 255
0.048276275 0.70599997 -0.018567799 8.4861738e-39 359 255
0.049584266 0.70700002 -0.018594101 8.6712797e-39 360 255
0.050895758 0.708 -0.0186204 8.6712797e-39 361 255
0.052137118 0.708 -0.0186204 8.6716385e-39 362 255
0.053378478 0.708 -0.0186204 8.6716385e-39 363 255
0.054619838 0.708 -0.0186204 8.1195493e-39 364 255
0.055861197 0.708 -0.0186204 8.0273551e-39 365 255
0.057102561 0.708 -0.0186204 7.2923152e-39 366 255
0.058343921 0.708 -0.0186204 7.2923152e-39 367 255
0.059501119 0.70700002 -0.018594101 8.0291782e-39 368 255
0.060740728 0.70700002 -0.018594101 7.9369811e-39 369 255
0.061980337 0.70700002 -0.018594101 6.9203181e-39 370 255
0.063219935 0.70700002 -0.018594101 5.9058116e-39 371 255
0.064459547 0.70700002 -0.018594101 3.4262532e-39 372 255
0.067650609 0.72799999 -0.0191464 2.8730878e-39 373 255
0.06883236 0.727 -0.019120099 2.6872645e-39 374 255
0.069914162 0.72500002 -0.0190675 2.5950702e-39 375 255
0.070988953 0.72299999 -0.019014901 2.6869057e-39 376 255
0.072256617 0.72299999 -0.019014901 3.2397124e-39 377 255
0.073422581 0.722 -0.0189886 3.4259113e-39 378 255
0.074688487 0.722 -0.0189886 3.7021381e-39 379 255
0.0759544 0.722 -0.0189886 3.7010661e-39 380 255
0.077220306 0.722 -0.0189886 3.5166748e-39 381 255
0.078486212 0.722 -0.0189886 3.331213e-39 382 255
0.079752117 0.722 -0.0189886 3.146463e-39 383 255
0.079447038 0.708 -0.0186204 3.3287088e-39 384 255
0.080688395 0.708 -0.0186204 3.5131001e-39 385 255
0.081929758 0.708 -0.0186204 3.6982172e-39 386 255
0.083171122 0.708 -0.0186204 3.9748041e-39 387 255
0.084650926 0.70999998 -0.018672999 4.1602716e-39 388 255
0.085895792 0.70999998 -0.018672999 4.2524672e-39 389 255
0.087140657 0.70999998 -0.018672999 4.3453817e-39 390 255
0.088510022 0.71100003 -0.0186993 4.6219672e-39 391 255
0.089756638 0.71100003 -0.0186993 7.0990187e-39 392 255
0.091259241 0.713 -0.018751899 7.3759657e-39 393 255
0.092639111 0.71399999 -0.018778199 8.566223e-39 394 255
0.093890995 0.71399999 -0.018778199 7.9208536e-39 395 255
0.095409386 0.71600002 -0.0188308 5.8107854e-39 396 255
0.096664771 0.71600002 -0.0188308 5.7185883e-39 397 255
0.097920164 0.71600002 -0.0188308 4.4347103e-39 398 255
0.099314056 0.71700001 -0.018857099 4.8034914e-39 399 255
0.10085172 0.71899998 -0.018909698 4.6212595e-39 400 255
0.10253844 0.722 -0.0189886 4.7138139e-39 401 255
0.10423566 0.72500002 -0.0190675 4.6212427e-39 402 255
0.10550684 0.72500002 -0.0190675 4.4368515e-39 403 255
0.10707255 0.727 -0.019120099 4.5286785e-39 404 255
0.10849626 0.72799999 -0.0191464 4.6212329e-39 405 255
0.10977269 0.72799999 -0.0191464 4.4382836e-39 406 255
0.11104912 0.72799999 -0.0191464 4.8067074e-39 407 255
0.11263414 0.73000002 -0.019199001 5.5378068e-39 408 255
-0.055408835 0.68699998 -0.019272638 1.5860833e-38 274 256
-0.054204296 0.68699998 -0.019272638 1.5768279e-38 275 256
-0.05292261 0.68599999 -0.019244585 1.4942466e-38 276 256
-0.051719822 0.68599999 -0.019244585 1.4481846e-38 277 256
-0.050590675 0.68699998 -0.019272638 1.4573313e-38 278 256
-0.049386136 0.68699998 -0.019272638 1.4204531e-38 279 256
-0.048181597 0.68699998 -0.019272638 1.411376e-38 280 256
-0.047045439 0.68800002 -0.019300694 1.3744979e-38 281 256
-0.045839146 0.68800002 -0.019300694 1.3835732e-38 282 256
-0.044632856 0.68800002 -0.019300694 1.3927929e-38 283 256
-0.043426562 0.68800002 -0.019300694 1.4478581e-38 284 256
-0.042220265 0.68800002 -0.019300694 1.3741016e-38 285 256
-0.041013971 0.68800002 -0.019300694 1.2361299e-38 286 256
-0.039807681 0.68800002 -0.019300694 9.3192023e-39 287 256
-0.038601387 0.68800002 -0.019300694 8.4033991e-39 288 256
-0.037395094 0.68800002 -0.019300694 1.0615736e-38 289 256
-0.0361888 0.68800002 -0.019300694 1.282201e-38 290 256
-0.03498251 0.68800002 -0.019300694 1.3559575e-38 291 256
-0.033776212 0.68800002 -0.019300694 1.3833635e-38 292 256
-0.032569919 0.68800002 -0.019300694 1.3557408e-38 293 256
-0.031363625 0.68800002 -0.019300694 1.3558478e-38 294 256
-0.030157333 0.68800002 -0.019300694 1.3466281e-38 295 256
-0.028951041 0.68800002 -0.019300694 1.3557757e-38 296 256
-0.027744746 0.68800002 -0.019300694 1.3188975e-38 297 256
-0.026615599 0.69 -0.019356798 1.272836e-38 298 256
-0.025442619 0.69099998 -0.019384852 1.2544329e-38 299 256
-0.024231065 0.69099998 -0.019384852 1.2177341e-38 300 256
-0.02308614 0.69300002 -0.01944096 1.2085145e-38 301 256
-0.021871079 0.69300002 -0.01944096 1.1534127e-38 302 256
-0.020656019 0.69300002 -0.01944096 1.1164984e-38 303 256
-0.01944096 0.69300002 -0.01944096 9.8771195e-39 304 256
-0.0182522 0.69400001 -0.019469013 9.3239457e-39 305 256
-0.017035386 0.69400001 -0.019469013 8.6803742e-39 306 256
-0.015864158 0.69599998 -0.019525118 8.5881785e-39 307 256
-0.01466488 0.69700003 -0.019553173 8.1279179e-39 308 256
-0.013462093 0.69800001 -0.019581227 7.6672984e-39 309 256
-0.012238266 0.69800001 -0.019581227 7.572935e-39 310 256
-0.011203799 0.70999998 -0.019917866 6.9275656e-39 311 256
-0.0099589331 0.70999998 -0.019917866 6.3762037e-39 312 256
-0.0087140659 0.70999998 -0.019917866 6.0996154e-39 313 256
-0.0074797203 0.71100003 -0.01994592 5.7312056e-39 314 256
-0.0062593995 0.71399999 -0.020030079 5.7312056e-39 315 256
-0.0050215465 0.71600002 -0.020086186 5.272733e-39 316 256
-0.00376616 0.71600002 -0.020086186 5.272733e-39 317 256
-0.0025142799 0.71700001 -0.020114239 5.6393575e-39 318 256
-0.0012606466 0.71899998 -0.020170346 5.3631308e-39 319 256
0 0.71899998 -0.020170346 5.4542488e-39 320 256
0.0012624001 0.72000003 -0.020198401 5.3616944e-39 321 256
0.0025248001 0.72000003 -0.020198401 5.2691303e-39 322 256
0.0037872 0.72000003 -0.020198401 4.9929035e-39 323 256
0.0050496003 0.72000003 -0.020198401 4.8999806e-39 324 256
0.0063120001 0.72000003 -0.020198401 4.5311995e-39 325 256
0.0075743999 0.72000003 -0.020198401 4.529403e-39 326 256
0.0088613462 0.722 -0.020254506 3.8840336e-39 327 256
0.010127253 0.722 -0.020254506 2.4096266e-39 328 256
0.01139316 0.722 -0.020254506 1.2110834e-39 329 256
0.012676599 0.72299999 -0.020282559 1.0238223e-39 330 256
0.014021406 0.727 -0.020394772 8.3943383e-40 331 256
0.01538024 0.73100001 -0.020506985 1.2013976e-39 332 256
0.016707512 0.73299998 -0.020563092 1.7542127e-39 333 256
0.018017253 0.73400003 -0.020591147 2.3098906e-39 334 256
0.019304199 0.73400003 -0.020591147 2.4942832e-39 335 256
0.020591147 0.73400003 -0.020591147 3.2318203e-39 336 256
0.020954086 0.70300001 -0.019721493 6.6430502e-39 337 256
0.02218668 0.70300001 -0.019721493 9.5017929e-39 338 256
0.023419274 0.70300001 -0.019721493 1.0239358e-38 339 256
0.024686933 0.704 -0.019749546 1.0331869e-38 340 256
0.02592128 0.704 -0.019749546 9.9627262e-39 341 256
0.027155625 0.704 -0.019749546 9.2265975e-39 342 256
0.028389972 0.704 -0.019749546 8.4890437e-39 343 256
0.029624319 0.704 -0.019749546 7.1097176e-39 344 256
0.030858666 0.704 -0.019749546 6.7412994e-39 345 256
0.032093015 0.704 -0.019749546 6.5561991e-39 346 256
0.03332736 0.704 -0.019749546 6.2799709e-39 347 256
0.034561705 0.704 -0.019749546 5.6364162e-39 348 256
0.035796054 0.704 -0.019749546 5.7286118e-39 349 256
0.037030395 0.704 -0.019749546 6.8338608e-39 350 256
0.038264744 0.704 -0.019749546 7.2030034e-39 351 256
0.039499093 0.704 -0.019749546 7.7543597e-39 352 256
0.040733438 0.704 -0.019749546 7.5696125e-39 353 256
0.041967787 0.704 -0.019749546 7.2908774e-39 354 256
0.043202132 0.704 -0.019749546 6.8295476e-39 355 256
0.044562716 0.70599997 -0.019805651 7.1032646e-39 356 256
0.04580057 0.70599997 -0.019805651 7.6564384e-39 357 256
0.047038425 0.70599997 -0.019805651 8.4854676e-39 358 256
0.048276275 0.70599997 -0.019805651 9.130837e-39 359 256
0.04951413 0.70599997 -0.019805651 8.6712797e-39 360 256
0.050823875 0.70700002 -0.019833706 8.2103086e-39 361 256
0.05206348 0.70700002 -0.019833706 6.8317e-39 362 256
0.053378478 0.708 -0.01986176 7.1079239e-39 363 256
0.054619838 0.708 -0.01986176 6.9238942e-39 364 256
0.055861197 0.708 -0.01986176 6.9238942e-39 365 256
0.057102561 0.708 -0.01986176 6.6483877e-39 366 256
0.058343921 0.708 -0.01986176 6.7405819e-39 367 256
0.059585281 0.708 -0.01986176 6.6491052e-39 368 256
0.060826641 0.708 -0.01986176 6.6491052e-39 369 256
0.062068 0.708 -0.01986176 5.8200746e-39 370 256
0.063219935 0.70700002 -0.019833706 5.4509389e-39 371 256
0.064459547 0.70700002 -0.019833706 4.8992085e-39 372 256
0.065327443 0.70300001 -0.019721493 5.2676267e-39 373 256
0.066560037 0.70300001 -0.019721493 5.2640393e-39 374 256
0.069914162 0.72500002 -0.020338668 4.5264855e-39 375 256
0.070988953 0.72299999 -0.020282559 3.4233834e-39 376 256
0.072256617 0.72299999 -0.020282559 3.699966e-39 377 256
0.073422581 0.722 -0.020254506 3.6102899e-39 378 256
0.074688487 0.722 -0.020254506 3.7028443e-39 379 256
0.076059602 0.72299999 -0.020282559 3.6092236e-39 380 256
0.077327259 0.72299999 -0.020282559 3.3322765e-39 381 256
0.078594916 0.72299999 -0.020282559 2.9624318e-39 382 256
0.07986258 0.72299999 -0.020282559 2.5932892e-39 383 256
0.081915736 0.73000002 -0.020478934 2.3170806e-39 384 256
0.083651535 0.73400003 -0.020591147 2.4092763e-39 385 256
0.084938474 0.73400003 -0.020591147 3.145412e-39 386 256
0.083406061 0.70999998 -0.019917866 3.7907814e-39 387 256
0.084650926 0.70999998 -0.019917866 4.3425174e-39 388 256
0.085895792 0.70999998 -0.019917866 4.4347131e-39 389 256
0.087263398 0.71100003 -0.01994592 3.9755258e-39 390 256
0.088510022 0.71100003 -0.01994592 6.5570034e-39 391 256
0.089756638 0.71100003 -0.01994592 1.3534004e-38 392 256
0.091387235 0.71399999 -0.020030079 1.3349973e-38 393 256
0.092639111 0.71399999 -0.020030079 1.4813925e-38 394 256
0.094154 0.71600002 -0.020086186 1.343099e-38 395 256
0.095409386 0.71600002 -0.020086186 1.0398959e-38 396 256
0.096664771 0.71600002 -0.020086186 8.7397976e-39 397 256
0.09805692 0.71700001 -0.020114239 3.513456e-39 398 256
0.099591084 0.71899998 -0.020170346 3.6056517e-39 399 256
0.10127253 0.722 -0.020254506 2.9635459e-39 400 256
0.10268046 0.72299999 -0.020282559 2.9635459e-39 401 256
0.10423566 0.72500002 -0.020338668 2.8720523e-39 402 256
0.10550684 0.72500002 -0.020338668 3.1482804e-39 403 256
0.10707255 0.727 -0.020394772 3.7003626e-39 404 256
0.10849626 0.72799999 -0.020422826 4.1613408e-39 405 256
0.10977269 0.72799999 -0.020422826 4.4372046e-39 406 256
0.11104912 0.72799999 -0.020422826 4.5294002e-39 407 256
0.11278843 0.73100001 -0.020506985 5.4441763e-39 408 256
-0.056613375 0.68699998 -0.020477179 1.5034317e-38 273 257
-0.055408835 0.68699998 -0.020477179 1.5125062e-38 274 257
-0.054204296 0.68699998 -0.020477179 1.4664443e-38 275 257
-0.052999757 0.68699998 -0.020477179 1.4021589e-38 276 257
-0.051795214 0.68699998 -0.020477179 1.4021589e-38 277 257
-0.050590675 0.68699998 -0.020477179 1.4205253e-38 278 257
-0.049386136 0.68699998 -0.020477179 1.4113057e-38 279 257
-0.048181597 0.68699998 -0.020477179 1.3837899e-38 280 257
-0.047045439 0.68800002 -0.020506985 1.3469118e-38 281 257
-0.045839146 0.68800002 -0.020506985 1.3835378e-38 282 257
-0.044632856 0.68800002 -0.020506985 1.4204161e-38 283 257
-0.043426562 0.68800002 -0.020506985 1.4477483e-38 284 257
-0.042220265 0.68800002 -0.020506985 1.2080757e-38 285 257
-0.041013971 0.68800002 -0.020506985 9.0447776e-39 286 257
-0.039807681 0.68800002 -0.020506985 8.1231801e-39 287 257
-0.038601387 0.68800002 -0.020506985 8.3090497e-39 288 257
-0.037395094 0.68800002 -0.020506985 8.8622221e-39 289 257
-0.036136195 0.68699998 -0.020477179 9.5087027e-39 290 257
-0.034931656 0.68699998 -0.020477179 1.0431019e-38 291 257
-0.033727121 0.68699998 -0.020477179 1.1625985e-38 292 257
-0.032522578 0.68699998 -0.020477179 1.2179159e-38 293 257
-0.031318039 0.68699998 -0.020477179 1.3190067e-38 294 257
-0.030157333 0.68800002 -0.020506985 1.3190067e-38 295 257
-0.028951041 0.68800002 -0.020506985 1.3004954e-38 296 257
-0.027744746 0.68800002 -0.020506985 1.2544334e-38 297 257
-0.026615599 0.69 -0.020566599 1.2176269e-38 298 257
-0.025442619 0.69099998 -0.020596405 1.2176269e-38 299 257
-0.024231065 0.69099998 -0.020596405 1.1901833e-38 300 257
-0.02308614 0.69300002 -0.020656019 1.1901833e-38 301 257
-0.021871079 0.69300002 -0.020656019 1.1073868e-38 302 257
-0.020656019 0.69300002 -0.020656019 1.0244107e-38 303 257
-0.01944096 0.69300002 -0.020656019 8.4052264e-39 304 257
-0.018225901 0.69300002 -0.020656019 8.036804e-39 305 257
-0.017035386 0.69400001 -0.020685827 7.8516897e-39 306 257
-0.015864158 0.69599998 -0.020745439 7.7594941e-39 307 257
-0.01466488 0.69700003 -0.020775247 7.2070392e-39 308 257
-0.013442807 0.69700003 -0.020775247 6.3772785e-39 309 257
-0.012220734 0.69700003 -0.020775247 5.3634965e-39 310 257
-0.011361601 0.72000003 -0.021460801 5.0872683e-39 311 257
-0.010099201 0.72000003 -0.021460801 5.4553446e-39 312 257
-0.0087631596 0.71399999 -0.021281958 5.363149e-39 313 257
-0.0075112795 0.71399999 -0.021281958 5.0876327e-39 314 257
-0.0062769335 0.71600002 -0.021341572 5.0876327e-39 315 257
-0.0050215465 0.71600002 -0.021341572 4.9957888e-39 316 257
-0.0037714199 0.71700001 -0.021371379 4.9035931e-39 317 257
-0.0025142799 0.71700001 -0.021371379 5.453174e-39 318 257
-0.0012606466 0.71899998 -0.021430992 5.3609784e-39 319 257
0 0.71899998 -0.021430992 5.3602567e-39 320 257
0.0012606466 0.71899998 -0.021430992 5.1758654e-39 321 257
0.0025142799 0.71700001 -0.021371379 4.9918203e-39 322 257
0.0037714199 0.71700001 -0.021371379 4.6233979e-39 323 257
0.0050285598 0.71700001 -0.021371379 4.5297533e-39 324 257
0.0062857 0.71700001 -0.021371379 4.1609722e-39 325 257
0.0075638802 0.71899998 -0.021430992 4.249921e-39 326 257
0.0088613462 0.722 -0.021520413 3.1439322e-39 327 257
0.010127253 0.722 -0.021520413 1.6681057e-39 328 257
0.01139316 0.722 -0.021520413 7.892113e-42 329 257
0.015978126 0.70099998 -0.020894472 2.7723163e-39 333 257
0.019721493 0.70300001 -0.020954086 6.0012527e-39 336 257
0.020954086 0.70300001 -0.020954086 8.4905347e-39 337 257
0.02218668 0.70300001 -0.020954086 1.0884339e-38 338 257
0.023419274 0.70300001 -0.020954086 1.0054218e-38 339 257
0.024651866 0.70300001 -0.020954086 9.594657e-39 340 257
0.02592128 0.704 -0.020983893 9.3177155e-39 341 257
0.027155625 0.704 -0.020983893 8.3060901e-39 342 257
0.028389972 0.704 -0.020983893 7.7529248e-39 343 257
0.029624319 0.704 -0.020983893 6.5569109e-39 344 257
0.030858666 0.704 -0.020983893 6.4647167e-39 345 257
0.032093015 0.704 -0.020983893 6.0955811e-39 346 257
0.033280019 0.70300001 -0.020954086 6.0033868e-39 347 257
0.034512613 0.70300001 -0.020954086 5.5438646e-39 348 257
0.035745207 0.70300001 -0.020954086 5.5438646e-39 349 257
0.036977798 0.70300001 -0.020954086 5.5467387e-39 350 257
0.038264744 0.704 -0.020983893 5.8233256e-39 351 257
0.039499093 0.704 -0.020983893 7.1093588e-39 352 257
0.040733438 0.704 -0.020983893 7.2937487e-39 353 257
0.041967787 0.704 -0.020983893 7.4749072e-39 354 257
0.043202132 0.704 -0.020983893 7.0142948e-39 355 257
0.044436477 0.704 -0.020983893 7.1940197e-39 356 257
0.045670826 0.704 -0.020983893 7.5624379e-39 357 257
0.046905171 0.704 -0.020983893 7.8411982e-39 358 257
0.048276275 0.70599997 -0.021043506 9.131937e-39 359 257
0.04951413 0.70599997 -0.021043506 8.8556822e-39 360 257
0.050751984 0.70599997 -0.021043506 8.2103128e-39 361 257
0.05206348 0.70700002 -0.021073313 7.197607e-39 362 257
0.053378478 0.708 -0.021103119 7.1054128e-39 363 257
0.054619838 0.708 -0.021103119 7.013936e-39 364 257
0.055861197 0.708 -0.021103119 7.013936e-39 365 257
0.057102561 0.708 -0.021103119 6.0051805e-39 366 257
0.058343921 0.708 -0.021103119 5.820792e-39 367 257
0.059585281 0.708 -0.021103119 5.5445709e-39 368 257
0.060826641 0.708 -0.021103119 5.2676267e-39 369 257
0.062068 0.708 -0.021103119 4.8070185e-39 370 257
0.063219935 0.70700002 -0.021073313 4.6229873e-39 371 257
0.064459547 0.70700002 -0.021073313 4.5333084e-39 372 257
0.065327443 0.70300001 -0.020954086 5.0864822e-39 373 257
0.066560037 0.70300001 -0.020954086 5.9129961e-39 374 257
0.067792632 0.70300001 -0.020954086 5.2676267e-39 375 257
0.070988953 0.72299999 -0.021550218 4.8052206e-39 376 257
0.072256617 0.72299999 -0.021550218 4.7126676e-39 377 257
0.073524274 0.72299999 -0.021550218 4.1616547e-39 378 257
0.074791931 0.72299999 -0.021550218 3.885072e-39 379 257
0.076059602 0.72299999 -0.021550218 3.6074243e-39 380 257
0.077327259 0.72299999 -0.021550218 3.1464475e-39 381 257
0.078594916 0.72299999 -0.021550218 2.6851191e-39 382 257
0.080083504 0.72500002 -0.021609833 2.4085322e-39 383 257
0.081915736 0.73000002 -0.021758866 2.2245109e-39 384 257
0.083195664 0.73000002 -0.021758866 2.3170652e-39 385 257
0.084822752 0.73299998 -0.021848286 3.2372391e-39 386 257
0.083406061 0.70999998 -0.021162732 3.7904129e-39 387 257
0.084650926 0.70999998 -0.021162732 4.4347131e-39 388 257
0.086016782 0.71100003 -0.021192541 4.4347131e-39 389 257
0.087508865 0.713 -0.021252153 5.8111735e-39 390 257
0.088510022 0.71100003 -0.021192541 9.5911943e-39 391 257
0.089756638 0.71100003 -0.021192541 1.6389557e-38 392 257
0.091387235 0.71399999 -0.021281958 1.5559438e-38 393 257
0.092639111 0.71399999 -0.021281958 1.6929755e-38 394 257
0.094154 0.71600002 -0.021341572 1.5546821e-38 395 257
0.095409386 0.71600002 -0.021341572 1.3431338e-38 396 257
0.096664771 0.71600002 -0.021341572 1.1403033e-38 397 257
0.09805692 0.71700001 -0.021371379 6.0794437e-39 398 257
0.099729598 0.72000003 -0.021460801 5.24969e-39 399 257
0.10127253 0.722 -0.021520413 3.0485262e-39 400 257
0.10268046 0.72299999 -0.021550218 3.3254718e-39 401 257
0.10423566 0.72500002 -0.021609833 4.0619425e-39 402 257
0.10550684 0.72500002 -0.021609833 4.1541381e-39 403 257
0.10707255 0.727 -0.021669446 3.971895e-39 404 257
0.10849626 0.72799999 -0.021699252 4.8934912e-39 405 257
0.10977269 0.72799999 -0.021699252 5.16866e-39 406 257
0.1113542 0.73000002 -0.021758866 5.0764629e-39 407 257
0.11278843 0.73100001 -0.021788673 5.9001279e-39 408 257
-0.056283753 0.68300003 -0.02155548 1.4664806e-38 273 258
-0.055086225 0.68300003 -0.02155548 1.4389295e-38 274 258
-0.054125395 0.68599999 -0.021650158 1.4389295e-38 275 258
-0.05292261 0.68599999 -0.021650158 1.4297815e-38 276 258
-0.051719822 0.68599999 -0.021650158 1.4297815e-38 277 258
-0.050517038 0.68599999 -0.021650158 1.3746077e-38 278 258
-0.049386136 0.68699998 -0.021681719 1.3561685e-38 279 258
-0.048181597 0.68699998 -0.021681719 1.3927944e-38 280 258
-0.046977058 0.68699998 -0.021681719 1.3927944e-38 281 258
-0.045772515 0.68699998 -0.021681719 1.4664416e-38 282 258
-0.044567976 0.68699998 -0.021681719 1.3373677e-38 283 258
-0.043363437 0.68699998 -0.021681719 1.0883283e-38 284 258
-0.042220265 0.68800002 -0.021713281 8.4861962e-39 285 258
-0.040954359 0.68699998 -0.021681719 6.9253403e-39 286 258
-0.039749816 0.68699998 -0.021681719 6.7405903e-39 287 258
-0.038545277 0.68699998 -0.021681719 5.5463884e-39 288 258
-0.037340738 0.68699998 -0.021681719 5.1776058e-39 289 258
-0.036136195 0.68699998 -0.021681719 4.2625243e-39 290 258
-0.034931656 0.68699998 -0.021681719 5.5532631e-39 291 258
-0.033727121 0.68699998 -0.021681719 8.4981731e-39 292 258
-0.032522578 0.68699998 -0.021681719 1.0249531e-38 293 258
-0.031318039 0.68699998 -0.021681719 1.2822373e-38 294 258
-0.030113498 0.68699998 -0.021681719 1.245395e-38 295 258
-0.028908957 0.68699998 -0.021681719 1.2176994e-38 296 258
-0.027744746 0.68800002 -0.021713281 1.2176994e-38 297 258
-0.026615599 0.69 -0.021776399 1.1992597e-38 298 258
-0.025442619 0.69099998 -0.021807959 1.1992597e-38 299 258
-0.024231065 0.69099998 -0.021807959 1.1533771e-38 300 258
-0.02308614 0.69300002 -0.021871079 1.1349378e-38 301 258
-0.021871079 0.69300002 -0.021871079 9.694173e-39 302 258
-0.020656019 0.69300002 -0.021871079 8.8644137e-39 303 258
-0.01944096 0.69300002 -0.021871079 7.8527785e-39 304 258
-0.018225901 0.69300002 -0.021871079 7.483996e-39 305 258
-0.017035386 0.69400001 -0.021902639 7.022292e-39 306 258
-0.015864158 0.69599998 -0.021965759 6.9300963e-39 307 258
-0.01466488 0.69700003 -0.02199732 6.5609537e-39 308 258
-0.013442807 0.69700003 -0.02199732 5.8233886e-39 309 258
-0.011361601 0.72000003 -0.022723202 4.9947196e-39 311 258
-0.010099201 0.72000003 -0.022723202 5.2702317e-39 312 258
-0.0087877065 0.71600002 -0.022596961 5.0854803e-39 313 258
-0.00753232 0.71600002 -0.022596961 5.0854705e-39 314 258
-0.0062857 0.71700001 -0.02262852 4.9929161e-39 315 258
-0.0050285598 0.71700001 -0.02262852 4.9925504e-39 316 258
-0.0037714199 0.71700001 -0.02262852 4.9003533e-39 317 258
-0.0025142799 0.71700001 -0.02262852 5.3588106e-39 318 258
-0.00125714 0.71700001 -0.02262852 5.2666149e-39 319 258
0 0.71700001 -0.02262852 5.1758486e-39 320 258
0.00125714 0.71700001 -0.02262852 4.9914574e-39 321 258
0.0025107733 0.71600002 -0.022596961 4.7148649e-39 322 258
0.00376616 0.71600002 -0.022596961 4.1616911e-39 323 258
0.0050215465 0.71600002 -0.022596961 4.2513686e-39 324 258
0.0062769335 0.71600002 -0.022596961 4.0669773e-39 325 258
0.00753232 0.71600002 -0.022596961 3.9758383e-39 326 258
0.0087877065 0.71600002 -0.022596961 3.5148601e-39 327 258
0.0099589331 0.70999998 -0.022407599 3.8818476e-39 328 258
0.012448666 0.70999998 -0.022407599 3.8854797e-39 330 258
