# .PCD v.7 - Point Cloud Data file format
FIELDS x y z rgb imX imY
SIZE 4 4 4 4 4 4
TYPE F F F F F F
COUNT 1 1 1 1 1 1
WIDTH 845
HEIGHT 1
VIEWPOINT 0 0 0 1 0 0 0
POINTS 845
DATA ascii
-0.059885096 0.759 0.02262326 8.5837602e-39 275 223
-0.058554318 0.759 0.02262326 8.9493282e-39 276 223
-0.057374325 0.76099998 0.022682872 8.6723826e-39 277 223
-0.056040037 0.76099998 0.022682872 6.92213e-39 278 223
-0.05470575 0.76099998 0.022682872 6.0923693e-39 279 223
-0.053371463 0.76099998 0.022682872 5.6313967e-39 280 223
-0.052037176 0.76099998 0.022682872 5.5392011e-39 281 223
-0.050702889 0.76099998 0.022682872 5.354098e-39 282 223
-0.049368605 0.76099998 0.022682872 5.0778698e-39 283 223
-0.048034318 0.76099998 0.022682872 4.7087314e-39 284 223
-0.046700031 0.76099998 0.022682872 4.3403076e-39 285 223
-0.045425359 0.76200002 0.02271268 3.6963871e-39 286 223
-0.044089317 0.76200002 0.02271268 3.6038328e-39 287 223
-0.042753279 0.76200002 0.02271268 3.2372139e-39 288 223
-0.041417241 0.76200002 0.02271268 3.3294095e-39 289 223
-0.040081199 0.76200002 0.02271268 3.4216079e-39 290 223
-0.038694311 0.76099998 0.022682872 3.4216079e-39 291 223
-0.037360024 0.76099998 0.022682872 3.4212422e-39 292 223
-0.036073081 0.76200002 0.02271268 3.5134378e-39 293 223
-0.034737039 0.76200002 0.02271268 3.6981752e-39 294 223
-0.033488665 0.764 0.022772292 3.4215897e-39 295 223
-0.032149121 0.764 0.022772292 3.3276018e-39 296 223
-0.030728921 0.76200002 0.02271268 2.8666307e-39 297 223
-0.029354304 0.76099998 0.022682872 2.6815247e-39 298 223
-0.028020019 0.76099998 0.022682872 2.5893305e-39 299 223
-0.017747238 0.72299999 0.021550218 2.3095248e-39 306 223
-0.016456785 0.722 0.021520413 2.5857516e-39 307 223
-0.015190879 0.722 0.021520413 1.7639223e-39 308 223
-0.013924973 0.722 0.021520413 3.0546611e-39 309 223
-0.012624 0.72000003 0.021460801 3.607095e-39 310 223
-0.011361601 0.72000003 0.021460801 2.9617256e-39 311 223
-0.010099201 0.72000003 0.021460801 1.6742041e-39 312 223
-0.0088367993 0.72000003 0.021460801 2.3195637e-39 313 223
-0.0075743999 0.72000003 0.021460801 3.3301129e-39 314 223
-0.0063032326 0.71899998 0.021430992 3.7907253e-39 315 223
-0.0050425865 0.71899998 0.021430992 3.7006835e-39 316 223
-0.0037819401 0.71899998 0.021430992 3.7006835e-39 317 223
-0.0025212932 0.71899998 0.021430992 3.7939539e-39 318 223
-0.0012553866 0.71600002 0.021341572 3.9783424e-39 319 223
0 0.71600002 0.021341572 3.9805046e-39 320 223
0.0012553866 0.71600002 0.021341572 4.5336784e-39 321 223
0.0025107733 0.71600002 0.021341572 5.1779884e-39 322 223
0.00376616 0.71600002 0.021341572 6.0081078e-39 323 223
0.0050215465 0.71600002 0.021341572 6.8378685e-39 324 223
0.0062769335 0.71600002 0.021341572 6.8378685e-39 325 223
0.00753232 0.71600002 0.021341572 6.5627263e-39 326 223
0.0087877065 0.71600002 0.021341572 7.1159001e-39 327 223
0.010043093 0.71600002 0.021341572 7.0204647e-39 328 223
0.01129848 0.71600002 0.021341572 6.2828996e-39 329 223
0.012553867 0.71600002 0.021341572 5.8208425e-39 330 223
-0.093179137 0.72799999 0.020422826 8.2111115e-39 247 224
-0.091902718 0.72799999 0.020422826 7.9355812e-39 248 224
-0.090626292 0.72799999 0.020422826 7.6589943e-39 249 224
-0.089349858 0.72799999 0.020422826 7.1086918e-39 250 224
-0.088073432 0.72799999 0.020422826 7.1086918e-39 251 224
-0.086797006 0.72799999 0.020422826 7.2019622e-39 252 224
-0.08552058 0.72799999 0.020422826 7.3863549e-39 253 224
-0.084475599 0.73000002 0.020478934 8.3968901e-39 254 224
-0.083651535 0.73400003 0.020591147 8.212859e-39 255 224
-0.082364589 0.73400003 0.020591147 7.9366126e-39 256 224
-0.08129856 0.736 0.020647252 7.3837975e-39 257 224
-0.080660343 0.74199998 0.020815572 6.6462423e-39 258 224
-0.079359367 0.74199998 0.020815572 6.6462423e-39 259 224
-0.078268796 0.74400002 0.02087168 6.279615e-39 260 224
-0.077171214 0.74599999 0.020927785 6.5562019e-39 261 224
-0.07586322 0.74599999 0.020927785 6.3678618e-39 262 224
-0.074655175 0.74699998 0.020955838 4.5243331e-39 263 224
-0.073345438 0.74699998 0.020955838 4.7937412e-39 264 224
-0.072035693 0.74699998 0.020955838 4.7937412e-39 265 224
-0.070915319 0.74900001 0.021011947 5.7189387e-39 266 224
-0.069602072 0.74900001 0.021011947 6.2721124e-39 267 224
-0.068379998 0.75 0.02104 3.5181223e-39 268 224
-0.067065001 0.75 0.02104 4.3478844e-39 269 224
-0.06592533 0.75199997 0.021096105 5.9130353e-39 270 224
-0.064606823 0.75199997 0.021096105 6.6509591e-39 271 224
-0.063288316 0.75199997 0.021096105 7.6632879e-39 272 224
-0.062134624 0.75400001 0.021152213 8.1246262e-39 273 224
-0.060893264 0.755 0.021180267 8.9518407e-39 274 224
-0.059885096 0.759 0.02129248 8.7674495e-39 275 224
-0.058554318 0.759 0.02129248 9.226285e-39 276 224
-0.05722354 0.759 0.02129248 8.8571424e-39 277 224
-0.055892758 0.759 0.02129248 6.8320881e-39 278 224
-0.05470575 0.76099998 0.021348584 5.6335463e-39 279 224
-0.053371463 0.76099998 0.021348584 6.0902015e-39 280 224
-0.052037176 0.76099998 0.021348584 6.1823971e-39 281 224
-0.050702889 0.76099998 0.021348584 6.1827684e-39 282 224
-0.049368605 0.76099998 0.021348584 5.8139873e-39 283 224
-0.048034318 0.76099998 0.021348584 5.4444944e-39 284 224
-0.046700031 0.76099998 0.021348584 4.6150938e-39 285 224
-0.045425359 0.76200002 0.02137664 4.0630088e-39 286 224
-0.044089317 0.76200002 0.02137664 3.6945851e-39 287 224
-0.042753279 0.76200002 0.02137664 3.144298e-39 288 224
-0.041417241 0.76200002 0.02137664 3.2364936e-39 289 224
-0.040081199 0.76200002 0.02137664 3.2372167e-39 290 224
-0.038694311 0.76099998 0.021348584 3.3294123e-39 291 224
-0.037360024 0.76099998 0.021348584 3.4226659e-39 292 224
-0.036073081 0.76200002 0.02137664 3.6070558e-39 293 224
-0.034737039 0.76200002 0.02137664 3.9758313e-39 294 224
-0.033576332 0.76599997 0.021488851 3.7914428e-39 295 224
-0.032233275 0.76599997 0.021488851 3.7885729e-39 296 224
-0.030809574 0.764 0.021432746 3.1432133e-39 297 224
-0.029470026 0.764 0.021432746 2.95739e-39 298 224
-0.028130481 0.764 0.021432746 3.0495842e-39 299 224
-0.016456785 0.722 0.020254506 4.1584541e-39 307 224
-0.0151488 0.72000003 0.020198401 4.7137915e-39 308 224
-0.0138864 0.72000003 0.020198401 5.3591609e-39 309 224
-0.012624 0.72000003 0.020198401 4.8073968e-39 310 224
-0.011361601 0.72000003 0.020198401 4.4382556e-39 311 224
-0.010099201 0.72000003 0.020198401 4.2531314e-39 312 224
-0.0088367993 0.72000003 0.020198401 3.6077718e-39 313 224
-0.0075743999 0.72000003 0.020198401 3.6074131e-39 314 224
-0.0063120001 0.72000003 0.020198401 3.6996073e-39 315 224
-0.0050496003 0.72000003 0.020198401 3.6999731e-39 316 224
-0.0037872 0.72000003 0.020198401 3.7921701e-39 317 224
-0.0025212932 0.71899998 0.020170346 3.3347821e-39 318 224
-0.00125714 0.71700001 0.020114239 3.5191733e-39 319 224
0 0.71600002 0.020086186 3.8876055e-39 320 224
0.0012553866 0.71600002 0.020086186 4.256388e-39 321 224
0.0025107733 0.71600002 0.020086186 4.2585586e-39 322 224
0.00376616 0.71600002 0.020086186 4.9961237e-39 323 224
0.0050215465 0.71600002 0.020086186 6.3743666e-39 324 224
0.0062769335 0.71600002 0.020086186 6.0981384e-39 325 224
0.0075112795 0.71399999 0.020030079 5.5489443e-39 326 224
0.0087631596 0.71399999 0.020030079 6.8396832e-39 327 224
0.01001504 0.71399999 0.020030079 7.1123268e-39 328 224
0.01117224 0.708 0.01986176 5.9137836e-39 329 224
0.0124136 0.708 0.01986176 5.269468e-39 330 224
-0.09445557 0.72799999 0.0191464 7.661881e-39 246 225
-0.093179137 0.72799999 0.0191464 7.661881e-39 247 225
-0.091902718 0.72799999 0.0191464 7.2026797e-39 248 225
-0.090626292 0.72799999 0.0191464 6.7420603e-39 249 225
-0.089349858 0.72799999 0.0191464 6.2817982e-39 250 225
-0.088073432 0.72799999 0.0191464 6.1896026e-39 251 225
-0.086797006 0.72799999 0.0191464 6.4643916e-39 252 225
-0.08552058 0.72799999 0.0191464 7.2023154e-39 253 225
-0.084244154 0.72799999 0.0191464 9.3195667e-39 254 225
-0.083195664 0.73000002 0.019199001 8.7663929e-39 255 225
-0.082252368 0.73299998 0.019277899 7.7547395e-39 256 225
-0.081077635 0.73400003 0.019304199 5.9108339e-39 257 225
-0.080008104 0.736 0.019356798 5.5384696e-39 258 225
-0.079359367 0.74199998 0.0195146 6.3685764e-39 259 225
-0.078268796 0.74400002 0.019567199 7.6578859e-39 260 225
-0.077171214 0.74599999 0.019619798 8.6716791e-39 261 225
-0.07586322 0.74599999 0.019619798 8.5802122e-39 262 225
-0.074555233 0.74599999 0.019619798 8.4880165e-39 263 225
-0.073345438 0.74699998 0.019646099 9.7679681e-39 264 225
-0.072035693 0.74699998 0.019646099 8.7538176e-39 265 225
-0.070725955 0.74699998 0.019646099 5.5320124e-39 266 225
-0.069694996 0.75 0.019724999 5.0714e-39 267 225
-0.068379998 0.75 0.019724999 3.6074215e-39 268 225
-0.067065001 0.75 0.019724999 3.8843685e-39 269 225
-0.06592533 0.75199997 0.0197776 4.4375395e-39 270 225
-0.064606823 0.75199997 0.0197776 5.6360813e-39 271 225
-0.06345664 0.75400001 0.019830201 7.1083191e-39 272 225
-0.062134624 0.75400001 0.019830201 7.8458841e-39 273 225
-0.060893264 0.755 0.0198565 8.4912353e-39 274 225
-0.059727304 0.75700003 0.019909101 8.4912353e-39 275 225
-0.058400027 0.75700003 0.019909101 8.4887172e-39 276 225
-0.05722354 0.759 0.0199617 7.5667595e-39 277 225
-0.055892758 0.759 0.0199617 6.6473381e-39 278 225
-0.05470575 0.76099998 0.020014299 6.0945231e-39 279 225
-0.053371463 0.76099998 0.020014299 6.0012527e-39 280 225
-0.052037176 0.76099998 0.020014299 6.2774794e-39 281 225
-0.050702889 0.76099998 0.020014299 6.187439e-39 282 225
-0.049368605 0.76099998 0.020014299 5.8186565e-39 283 225
-0.048034318 0.76099998 0.020014299 5.9051068e-39 284 225
-0.046700031 0.76099998 0.020014299 4.9835106e-39 285 225
-0.045365743 0.76099998 0.020014299 4.153408e-39 286 225
-0.044031456 0.76099998 0.020014299 3.8771813e-39 287 225
-0.042697169 0.76099998 0.020014299 3.0513835e-39 288 225
-0.041362885 0.76099998 0.020014299 3.1435791e-39 289 225
-0.040028598 0.76099998 0.020014299 3.4201618e-39 290 225
-0.038694311 0.76099998 0.020014299 3.6967501e-39 291 225
-0.037360024 0.76099998 0.020014299 3.6077746e-39 292 225
-0.036025736 0.76099998 0.020014299 3.8843629e-39 293 225
-0.034964975 0.76700002 0.020172099 3.9783424e-39 294 225
-0.033620168 0.76700002 0.020172099 3.6095655e-39 295 225
-0.03227536 0.76700002 0.020172099 3.5145014e-39 296 225
-0.031091858 0.77100003 0.020277301 2.8691418e-39 297 225
-0.029740039 0.77100003 0.020277301 2.7751539e-39 298 225
-0.016456785 0.722 0.0189886 5.6350121e-39 307 225
-0.0151488 0.72000003 0.018935999 4.0741618e-39 308 225
-0.0138864 0.72000003 0.018935999 4.2589118e-39 309 225
-0.012624 0.72000003 0.018935999 4.3489424e-39 310 225
-0.011361601 0.72000003 0.018935999 4.0719968e-39 311 225
-0.010099201 0.72000003 0.018935999 3.7946896e-39 312 225
-0.0088367993 0.72000003 0.018935999 3.4259085e-39 313 225
-0.0075743999 0.72000003 0.018935999 3.6074215e-39 314 225
-0.0063120001 0.72000003 0.018935999 3.6074215e-39 315 225
-0.0050496003 0.72000003 0.018935999 3.5152259e-39 316 225
-0.0037872 0.72000003 0.018935999 3.6074215e-39 317 225
-0.0025212932 0.71899998 0.018909698 3.5163063e-39 318 225
-0.00125714 0.71700001 0.018857099 3.7928918e-39 319 225
0 0.71700001 0.018857099 3.9762082e-39 320 225
0.0012553866 0.71600002 0.0188308 4.3449907e-39 321 225
0.0025107733 0.71600002 0.0188308 4.254593e-39 322 225
0.00376616 0.71600002 0.0188308 4.0702017e-39 323 225
0.0050215465 0.71600002 0.0188308 2.7844809e-39 324 225
0.0062769335 0.71600002 0.0188308 2.8766752e-39 325 225
0.0075112795 0.71399999 0.018778199 3.4313119e-39 326 225
0.0087631596 0.71399999 0.018778199 4.7220507e-39 327 225
0.01001504 0.71399999 0.018778199 5.9145053e-39 328 225
0.01117224 0.708 0.0186204 5.4535271e-39 329 225
0.0124136 0.708 0.0186204 5.1769192e-39 330 225
-0.094715066 0.73000002 0.017919067 7.2919915e-39 246 226
-0.093179137 0.72799999 0.017869972 8.4905347e-39 247 226
-0.091902718 0.72799999 0.017869972 7.8451624e-39 248 226
-0.090626292 0.72799999 0.017869972 7.384543e-39 249 226
-0.089349858 0.72799999 0.017869972 5.6400287e-39 250 226
-0.087952457 0.727 0.017845426 5.6400287e-39 251 226
-0.086677782 0.727 0.017845426 6.0985e-39 252 226
-0.085403107 0.727 0.017845426 7.2970417e-39 253 226
-0.084244154 0.72799999 0.017869972 1.0057137e-38 254 226
-0.083195664 0.73000002 0.017919067 1.0057137e-38 255 226
-0.082027942 0.73100001 0.017943613 9.0443951e-39 256 226
-0.080746263 0.73100001 0.017943613 7.384515e-39 257 226
-0.079790697 0.73400003 0.018017253 4.2534901e-39 258 226
-0.079573281 0.74400002 0.01826272 5.0832396e-39 259 226
-0.078479193 0.74599999 0.018311813 7.0168647e-39 260 226
-0.077171214 0.74599999 0.018311813 8.1235724e-39 261 226
-0.07586322 0.74599999 0.018311813 9.8698972e-39 262 226
-0.074555233 0.74599999 0.018311813 1.0975886e-38 263 226
-0.073345438 0.74699998 0.018336359 1.1617999e-38 264 226
-0.072035693 0.74699998 0.018336359 1.0142509e-38 265 226
-0.070725955 0.74699998 0.018336359 6.7319962e-39 266 226
-0.069694996 0.75 0.018409999 4.8884465e-39 267 226
-0.068379998 0.75 0.018409999 5.7254099e-39 268 226
-0.067243837 0.75199997 0.018459093 6.1860293e-39 269 226
-0.06592533 0.75199997 0.018459093 5.9108577e-39 270 226
-0.064606823 0.75199997 0.018459093 5.7261077e-39 271 226
-0.06345664 0.75400001 0.018508185 5.4513215e-39 272 226
-0.062134624 0.75400001 0.018508185 7.0186472e-39 273 226
-0.060812615 0.75400001 0.018508185 8.0299096e-39 274 226
-0.059569497 0.755 0.018532733 8.3061364e-39 275 226
-0.058245733 0.755 0.018532733 8.2124792e-39 276 226
-0.057072755 0.75700003 0.018581826 7.0139374e-39 277 226
-0.055745479 0.75700003 0.018581826 6.739147e-39 278 226
-0.054418206 0.75700003 0.018581826 6.739147e-39 279 226
-0.053231198 0.759 0.01863092 7.1990419e-39 280 226
-0.051900417 0.759 0.01863092 7.1990419e-39 281 226
-0.050569639 0.759 0.01863092 8.0255642e-39 282 226
-0.049238857 0.759 0.01863092 7.8415331e-39 283 226
-0.048034318 0.76099998 0.018680012 6.1827684e-39 284 226
-0.046700031 0.76099998 0.018680012 4.2466742e-39 285 226
-0.045365743 0.76099998 0.018680012 3.3265284e-39 286 226
-0.044031456 0.76099998 0.018680012 3.3265284e-39 287 226
-0.042697169 0.76099998 0.018680012 3.0510303e-39 288 226
-0.041362885 0.76099998 0.018680012 2.9588347e-39 289 226
-0.040028598 0.76099998 0.018680012 3.1439476e-39 290 226
-0.038694311 0.76099998 0.018680012 3.4205359e-39 291 226
-0.037360024 0.76099998 0.018680012 3.7943183e-39 292 226
-0.03545766 0.74900001 0.018385453 3.9783494e-39 293 226
-0.034144413 0.74900001 0.018385453 4.9906852e-39 294 226
-0.032743499 0.74699998 0.018336359 4.6219083e-39 295 226
-0.031433757 0.74699998 0.018336359 4.6193972e-39 296 226
-0.01647958 0.72299999 0.017747238 5.1786624e-39 307 226
-0.015190879 0.722 0.017722692 4.9939307e-39 308 226
-0.0138864 0.72000003 0.017673599 4.7177039e-39 309 226
-0.012624 0.72000003 0.017673599 4.5322519e-39 310 226
-0.011361601 0.72000003 0.017673599 4.255665e-39 311 226
-0.010099201 0.72000003 0.017673599 4.0705506e-39 312 226
-0.0088367993 0.72000003 0.017673599 3.6095739e-39 313 226
-0.0075743999 0.72000003 0.017673599 3.5166608e-39 314 226
-0.0063120001 0.72000003 0.017673599 3.3319108e-39 315 226
-0.0050496003 0.72000003 0.017673599 2.9642227e-39 316 226
-0.0037872 0.72000003 0.017673599 2.7801916e-39 317 226
-0.0025212932 0.71899998 0.017649053 2.7805545e-39 318 226
-0.00125714 0.71700001 0.017599959 2.9653045e-39 319 226
0 0.71700001 0.017599959 3.3330094e-39 320 226
0.0012553866 0.71600002 0.017575413 3.6092362e-39 321 226
0.0025107733 0.71600002 0.017575413 3.4255736e-39 322 226
0.00376616 0.71600002 0.017575413 3.4255736e-39 323 226
0.0050215465 0.71600002 0.017575413 2.6898204e-39 324 226
0.0062769335 0.71600002 0.017575413 2.8745704e-39 325 226
0.0075112795 0.71399999 0.017526319 2.5997786e-39 326 226
0.0087631596 0.71399999 0.017526319 4.0749087e-39 327 226
0.01001504 0.71399999 0.017526319 4.4433226e-39 328 226
0.011266919 0.71399999 0.017526319 4.4433226e-39 329 226
-0.096783996 0.736 0.016775893 6.5497727e-39 245 227
-0.094715066 0.73000002 0.016639132 6.7406324e-39 246 227
-0.093179137 0.72799999 0.016593546 9.1377173e-39 247 227
-0.091902718 0.72799999 0.016593546 9.6883716e-39 248 227
-0.090626292 0.72799999 0.016593546 9.3199478e-39 249 227
-0.089349858 0.72799999 0.016593546 8.6778126e-39 250 227
-0.087952457 0.727 0.016570752 8.8622039e-39 251 227
-0.086677782 0.727 0.016570752 9.5979738e-39 252 227
-0.085403107 0.727 0.016570752 1.0058951e-38 253 227
-0.084128432 0.727 0.016570752 1.1624115e-38 254 227
-0.082967728 0.72799999 0.016593546 1.1900344e-38 255 227
-0.081915736 0.73000002 0.016639132 1.199109e-38 256 227
-0.080746263 0.73100001 0.016661927 1.116169e-38 257 227
-0.079790697 0.73400003 0.016730307 1.0241529e-38 258 227
-0.079894133 0.74699998 0.017026618 1.0057137e-38 259 227
-0.078584395 0.74699998 0.017026618 9.7834399e-39 260 227
-0.07727465 0.74699998 0.017026618 1.0428809e-38 261 227
-0.07596492 0.74699998 0.017026618 1.189964e-38 262 227
-0.074655175 0.74699998 0.017026618 1.2084031e-38 263 227
-0.073345438 0.74699998 0.017026618 1.2176233e-38 264 227
-0.072035693 0.74699998 0.017026618 1.1899287e-38 265 227
-0.067243837 0.75199997 0.017140586 1.1715978e-38 269 227
-0.06592533 0.75199997 0.017140586 1.1619806e-38 270 227
-0.064606823 0.75199997 0.017140586 1.0052841e-38 271 227
-0.06345664 0.75400001 0.017186172 8.4890829e-39 272 227
-0.062134624 0.75400001 0.017186172 7.8437135e-39 273 227
-0.060812615 0.75400001 0.017186172 7.9373371e-39 274 227
-0.059569497 0.755 0.017208965 8.5827065e-39 275 227
-0.058245733 0.755 0.017208965 8.2139253e-39 276 227
-0.056921966 0.755 0.017208965 7.5685559e-39 277 227
-0.055598196 0.755 0.017208965 7.1100987e-39 278 227
-0.054418206 0.75700003 0.017254554 7.3866842e-39 279 227
-0.053231198 0.759 0.017300138 7.0179059e-39 280 227
-0.051900417 0.759 0.017300138 7.3863283e-39 281 227
-0.050569639 0.759 0.017300138 7.7543891e-39 282 227
-0.049238857 0.759 0.017300138 7.7543891e-39 283 227
-0.047908079 0.759 0.017300138 7.1961987e-39 284 227
-0.046577301 0.759 0.017300138 4.0615683e-39 285 227
-0.045365743 0.76099998 0.017345725 2.4070945e-39 286 227
-0.044031456 0.76099998 0.017345725 2.8684243e-39 287 227
-0.042584959 0.759 0.017300138 2.9584662e-39 288 227
-0.041254178 0.759 0.017300138 2.9584662e-39 289 227
-0.040028598 0.76099998 0.017345725 2.8669894e-39 290 227
-0.038694311 0.76099998 0.017345725 3.6045432e-39 291 227
-0.036770906 0.74900001 0.017072206 6.1867159e-39 292 227
-0.03545766 0.74900001 0.017072206 6.2789115e-39 293 227
-0.034144413 0.74900001 0.017072206 4.4432624e-39 294 227
-0.032743499 0.74699998 0.017026618 4.0741239e-39 295 227
-0.031433757 0.74699998 0.017026618 4.348913e-39 296 227
-0.03008369 0.74599999 0.017003827 4.348913e-39 297 227
-0.028775707 0.74599999 0.017003827 4.9935803e-39 298 227
-0.027320439 0.74199998 0.016912652 5.362723e-39 299 227
-0.026019465 0.74199998 0.016912652 4.9006784e-39 300 227
-0.024685178 0.741 0.016889861 4.9006784e-39 301 227
-0.023385961 0.741 0.016889861 4.5329553e-39 302 227
-0.017747238 0.72299999 0.01647958 5.0847068e-39 306 227
-0.01647958 0.72299999 0.01647958 5.1769024e-39 307 227
-0.015190879 0.722 0.016456785 4.8099177e-39 308 227
-0.0138864 0.72000003 0.0164112 4.6251678e-39 309 227
-0.012624 0.72000003 0.0164112 4.0734429e-39 310 227
-0.01139316 0.722 0.016456785 3.8890503e-39 311 227
-0.010127253 0.722 0.016456785 3.5202747e-39 312 227
-0.0088367993 0.72000003 0.0164112 3.2433277e-39 313 227
-0.0075743999 0.72000003 0.0164112 3.2411669e-39 314 227
-0.0063120001 0.72000003 0.0164112 2.9642199e-39 315 227
-0.0050496003 0.72000003 0.0164112 2.6883407e-39 316 227
-0.0037872 0.72000003 0.0164112 2.6883407e-39 317 227
-0.0025248001 0.72000003 0.0164112 2.7808936e-39 318 227
-0.0012606466 0.71899998 0.016388407 3.1493146e-39 319 227
0 0.71700001 0.016342819 3.2425892e-39 320 227
0.00125714 0.71700001 0.016342819 3.2425892e-39 321 227
0.0025142799 0.71700001 0.016342819 3.3340632e-39 322 227
0.00376616 0.71600002 0.016320027 3.2418662e-39 323 227
0.0050215465 0.71600002 0.016320027 3.0589238e-39 324 227
0.0062769335 0.71600002 0.016320027 3.1511195e-39 325 227
0.00753232 0.71600002 0.016320027 3.7046562e-39 326 227
0.0087877065 0.71600002 0.016320027 4.0737974e-39 327 227
0.010043093 0.71600002 0.016320027 4.442224e-39 328 227
-0.098074451 0.736 0.015485439 5.7225386e-39 244 228
-0.096783996 0.736 0.015485439 5.630343e-39 245 228
-0.095234051 0.73400003 0.01544336 5.3634517e-39 246 228
-0.093435131 0.73000002 0.0153592 7.5765069e-39 247 228
-0.092155196 0.73000002 0.0153592 8.9540267e-39 248 228
-0.090626292 0.72799999 0.01531712 8.7699956e-39 249 228
-0.089349858 0.72799999 0.01531712 9.4139161e-39 250 228
-0.087952457 0.727 0.015296079 9.9670899e-39 251 228
-0.086677782 0.727 0.015296079 1.0886898e-38 252 228
-0.085403107 0.727 0.015296079 1.1071289e-38 253 228
-0.084128432 0.727 0.015296079 1.143935e-38 254 228
-0.082853764 0.727 0.015296079 1.1715577e-38 255 228
-0.081915736 0.73000002 0.0153592 1.1714508e-38 256 228
-0.080746263 0.73100001 0.01538024 1.1806703e-38 257 228
-0.07946457 0.73100001 0.01538024 1.1439721e-38 258 228
-0.080108039 0.74900001 0.01575896 1.1070939e-38 259 228
-0.0787948 0.74900001 0.01575896 1.0703954e-38 260 228
-0.07727465 0.74699998 0.015716879 1.1072378e-38 261 228
-0.07596492 0.74699998 0.015716879 1.1806703e-38 262 228
-0.074655175 0.74699998 0.015716879 1.1622312e-38 263 228
-0.064778648 0.75400001 0.01586416 1.0791828e-38 271 228
-0.06345664 0.75400001 0.01586416 1.0054598e-38 272 228
-0.062134624 0.75400001 0.01586416 9.3170331e-39 273 228
-0.056846574 0.75400001 0.01586416 9.0407951e-39 277 228
-0.055524562 0.75400001 0.01586416 8.9489498e-39 278 228
-0.054202545 0.75400001 0.01586416 8.7649187e-39 279 228
-0.052950665 0.755 0.015885198 8.7656264e-39 280 228
-0.051626898 0.755 0.015885198 8.7656264e-39 281 228
-0.050303131 0.755 0.015885198 9.2255395e-39 282 228
-0.049109112 0.75700003 0.015927281 9.0411483e-39 283 228
-0.04778184 0.75700003 0.015927281 7.0146787e-39 284 228
-0.046454567 0.75700003 0.015927281 3.9722439e-39 285 228
-0.045127295 0.75700003 0.015927281 2.2241409e-39 286 228
-0.043800019 0.75700003 0.015927281 2.9616948e-39 287 228
-0.042472746 0.75700003 0.015927281 3.69602e-39 288 228
-0.041254178 0.759 0.015969358 3.7882142e-39 289 228
-0.0399234 0.759 0.015969358 3.4226659e-39 290 228
-0.03798246 0.74699998 0.015716879 4.3442494e-39 291 228
-0.036672719 0.74699998 0.015716879 7.2912642e-39 292 228
-0.035362978 0.74699998 0.015716879 7.7526025e-39 293 228
-0.034053236 0.74699998 0.015716879 5.451669e-39 294 228
-0.032699663 0.74599999 0.015695838 4.8984952e-39 295 228
-0.031391677 0.74599999 0.015695838 4.2560013e-39 296 228
-0.030003037 0.74400002 0.015653761 4.6247782e-39 297 228
-0.02869856 0.74400002 0.015653761 4.9935621e-39 298 228
-0.027320439 0.74199998 0.015611678 5.1783121e-39 299 228
-0.026019465 0.74199998 0.015611678 5.1758052e-39 300 228
-0.024685178 0.741 0.01559064 5.2683595e-39 301 228
-0.023385961 0.741 0.01559064 4.8985162e-39 302 228
-0.0190675 0.72500002 0.015254001 5.0829271e-39 305 228
-0.017796334 0.72500002 0.015254001 5.1772751e-39 306 228
-0.01647958 0.72299999 0.015211919 5.1772751e-39 307 228
-0.015190879 0.722 0.015190879 4.9006812e-39 308 228
-0.013924973 0.722 0.015190879 4.6244545e-39 309 228
-0.012624 0.72000003 0.0151488 3.8886971e-39 310 228
-0.011361601 0.72000003 0.0151488 3.7043059e-39 311 228
-0.010099201 0.72000003 0.0151488 3.8868993e-39 312 228
-0.0088367993 0.72000003 0.0151488 3.5184755e-39 313 228
-0.0075743999 0.72000003 0.0151488 3.7925358e-39 314 228
-0.0063120001 0.72000003 0.0151488 3.5163091e-39 315 228
-0.0050496003 0.72000003 0.0151488 3.1496705e-39 316 228
-0.0037872 0.72000003 0.0151488 3.0574763e-39 317 228
-0.0025248001 0.72000003 0.0151488 2.5057473e-39 318 228
-0.0012606466 0.71899998 0.01512776 2.7823328e-39 319 228
0 0.71899998 0.01512776 2.7827041e-39 320 228
0.0012606466 0.71899998 0.01512776 2.7827041e-39 321 228
0.0025142799 0.71700001 0.015085679 2.965652e-39 322 228
0.0037714199 0.71700001 0.015085679 2.965652e-39 323 228
0.0050285598 0.71700001 0.015085679 2.7827041e-39 324 228
0.0062769335 0.71600002 0.01506464 3.2436808e-39 325 228
0.00753232 0.71600002 0.01506464 3.3384002e-39 326 228
0.0087877065 0.71600002 0.01506464 3.6149885e-39 327 228
0.010043093 0.71600002 0.01506464 4.3493221e-39 328 228
-0.098074451 0.736 0.014194986 5.6288926e-39 244 229
-0.096783996 0.736 0.014194986 5.8132839e-39 245 229
-0.095234051 0.73400003 0.014156413 4.5351259e-39 246 229
-0.093947105 0.73400003 0.014156413 6.6556254e-39 247 229
-0.092533909 0.73299998 0.014137126 7.9424112e-39 248 229
-0.090626292 0.72799999 0.014040692 8.3115538e-39 249 229
-0.089349858 0.72799999 0.014040692 9.598327e-39 250 229
-0.088073432 0.72799999 0.014040692 9.9667493e-39 251 229
-0.086677782 0.727 0.014021406 1.1624466e-38 252 229
-0.085403107 0.727 0.014021406 1.1716661e-38 253 229
-0.084128432 0.727 0.014021406 1.1715582e-38 254 229
-0.082853764 0.727 0.014021406 1.1623387e-38 255 229
-0.082027942 0.73100001 0.014098554 1.1071656e-38 256 229
-0.080746263 0.73100001 0.014098554 1.1071656e-38 257 229
-0.075768545 0.69700003 0.013442807 1.0888347e-38 258 229
-0.074546471 0.69700003 0.013442807 1.0888347e-38 259 229
-0.073324397 0.69700003 0.013442807 1.1071656e-38 260 229
-0.072102323 0.69700003 0.013442807 1.1256406e-38 261 229
-0.071490414 0.70300001 0.013558527 1.1347523e-38 262 229
-0.070257813 0.70300001 0.013558527 1.1070936e-38 263 229
-0.056846574 0.75400001 0.014542146 1.0332279e-38 277 229
-0.055377278 0.75199997 0.014503572 1.0145715e-38 278 229
-0.054058768 0.75199997 0.014503572 9.6850954e-39 279 229
-0.052950665 0.755 0.014561433 9.1354935e-39 280 229
-0.051626898 0.755 0.014561433 9.1354935e-39 281 229
-0.050303131 0.755 0.014561433 9.1355061e-39 282 229
-0.048979364 0.755 0.014561433 8.6748867e-39 283 229
-0.04778184 0.75700003 0.014600007 7.4745638e-39 284 229
-0.04633183 0.755 0.014561433 4.5243331e-39 285 229
-0.045008067 0.755 0.014561433 2.4088881e-39 286 229
-0.043684296 0.755 0.014561433 3.5152189e-39 287 229
-0.042304426 0.75400001 0.014542146 3.9754725e-39 288 229
-0.040982414 0.75400001 0.014542146 4.4364437e-39 289 229
-0.0393974 0.74900001 0.014445714 5.3587503e-39 290 229
-0.03798246 0.74699998 0.014407139 6.3729022e-39 291 229
-0.036672719 0.74699998 0.014407139 7.5700035e-39 292 229
-0.03531564 0.74599999 0.014387853 6.8324384e-39 293 229
-0.034007654 0.74599999 0.014387853 4.8052276e-39 294 229
-0.032612 0.74400002 0.01434928 3.5145014e-39 295 229
-0.031307522 0.74400002 0.01434928 4.5257821e-39 296 229
-0.030003037 0.74400002 0.01434928 4.8949233e-39 297 229
-0.02869856 0.74400002 0.01434928 4.6240719e-39 298 229
-0.027320439 0.74199998 0.014310705 4.6240719e-39 299 229
-0.026019465 0.74199998 0.014310705 4.7119502e-39 300 229
-0.024685178 0.741 0.01429142 4.343532e-39 301 229
-0.023385961 0.741 0.01429142 4.2484777e-39 302 229
-0.019120099 0.727 0.014021406 5.8172524e-39 305 229
-0.017796334 0.72500002 0.013982833 5.635731e-39 306 229
-0.01647958 0.72299999 0.01394426 5.727928e-39 307 229
-0.015190879 0.722 0.013924973 5.0840033e-39 308 229
-0.013924973 0.722 0.013924973 4.8074164e-39 309 229
-0.012624 0.72000003 0.0138864 4.2564077e-39 310 229
-0.011361601 0.72000003 0.0138864 4.072015e-39 311 229
-0.010099201 0.72000003 0.0138864 4.2546056e-39 312 229
-0.0088367993 0.72000003 0.0138864 4.0705745e-39 313 229
-0.0075743999 0.72000003 0.0138864 4.1616743e-39 314 229
-0.0063120001 0.72000003 0.0138864 4.1616743e-39 315 229
-0.0050496003 0.72000003 0.0138864 3.4287784e-39 316 229
-0.0037872 0.72000003 0.0138864 2.875606e-39 317 229
-0.0025248001 0.72000003 0.0138864 2.5064689e-39 318 229
-0.0012624001 0.72000003 0.0138864 2.7830572e-39 319 229
0 0.71899998 0.013867113 3.2411613e-39 320 229
0.0012606466 0.71899998 0.013867113 3.2411613e-39 321 229
0.0025212932 0.71899998 0.013867113 2.965652e-39 322 229
0.0037714199 0.71700001 0.013828539 3.1496845e-39 323 229
0.0050285598 0.71700001 0.013828539 3.1507663e-39 324 229
0.0062857 0.71700001 0.013828539 3.5191887e-39 325 229
0.0075428397 0.71700001 0.013828539 3.8897719e-39 326 229
0.0087999795 0.71700001 0.013828539 3.981969e-39 327 229
0.01005712 0.71700001 0.013828539 4.6237482e-39 328 229
-0.098074451 0.736 0.012904533 5.5384921e-39 244 230
-0.096783996 0.736 0.012904533 5.8154377e-39 245 230
-0.095234051 0.73400003 0.012869466 4.902814e-39 246 230
-0.093947105 0.73400003 0.012869466 6.2857485e-39 247 230
-0.092533909 0.73299998 0.012851933 8.0345914e-39 248 230
-0.091248721 0.73299998 0.012851933 8.6799608e-39 249 230
-0.089718066 0.73100001 0.012816866 8.7689152e-39 250 230
-0.088315405 0.73000002 0.012799333 8.3079385e-39 251 230
-0.086797006 0.72799999 0.012764266 8.4959227e-39 252 230
-0.08552058 0.72799999 0.012764266 9.5104347e-39 253 230
-0.084475599 0.73000002 0.012799333 1.0979462e-38 254 230
-0.083195664 0.73000002 0.012799333 1.1071659e-38 255 230
-0.078549333 0.69999999 0.012273333 1.0886192e-38 256 230
-0.077321991 0.69999999 0.012273333 1.07018e-38 257 230
-0.075768545 0.69700003 0.012220734 1.0333724e-38 258 230
-0.074546471 0.69700003 0.012220734 9.9645829e-39 259 230
-0.073324397 0.69700003 0.012220734 9.4150091e-39 260 230
-0.072723009 0.70300001 0.012325933 9.5993989e-39 261 230
-0.071490414 0.70300001 0.012325933 9.7841587e-39 262 230
-0.070257813 0.70300001 0.012325933 9.8763558e-39 263 230
-0.069025226 0.70300001 0.012325933 1.0518851e-38 264 230
-0.055377278 0.75199997 0.013185065 1.0515942e-38 278 230
-0.054058768 0.75199997 0.013185065 1.0515942e-38 279 230
-0.052880533 0.75400001 0.013220133 1.0605954e-38 280 230
-0.051558517 0.75400001 0.013220133 1.0329366e-38 281 230
-0.050236505 0.75400001 0.013220133 9.411723e-39 282 230
-0.048914492 0.75400001 0.013220133 8.9507449e-39 283 230
-0.047655597 0.755 0.013237666 8.5783694e-39 284 230
-0.04633183 0.755 0.013237666 6.7344835e-39 285 230
-0.045008067 0.755 0.013237666 4.5275617e-39 286 230
-0.043626439 0.75400001 0.013220133 4.9888916e-39 287 230
-0.04219221 0.75199997 0.013185065 5.5413465e-39 288 230
-0.040710647 0.74900001 0.013132467 5.910129e-39 289 230
-0.0393974 0.74900001 0.013132467 6.7402428e-39 290 230
-0.03798246 0.74699998 0.013097399 7.3856122e-39 291 230
-0.036623627 0.74599999 0.013079867 6.7409589e-39 292 230
-0.03531564 0.74599999 0.013079867 6.0955895e-39 293 230
-0.034007654 0.74599999 0.013079867 5.0774985e-39 294 230
-0.032612 0.74400002 0.0130448 3.9711677e-39 295 230
-0.031307522 0.74400002 0.0130448 3.697106e-39 296 230
-0.030003037 0.74400002 0.0130448 3.8814973e-39 297 230
-0.02869856 0.74400002 0.0130448 2.9627822e-39 298 230
-0.027320439 0.74199998 0.013009733 2.9627822e-39 299 230
-0.026019465 0.74199998 0.013009733 3.6023992e-39 300 230
-0.024685178 0.741 0.0129922 3.1417812e-39 301 230
-0.023385961 0.741 0.0129922 2.6775787e-39 302 230
-0.019120099 0.727 0.012746733 5.8215684e-39 305 230
-0.017796334 0.72500002 0.012711667 6.1881831e-39 306 230
-0.01647958 0.72299999 0.012676599 6.1881831e-39 307 230
-0.015190879 0.722 0.012659066 5.2694708e-39 308 230
-0.013924973 0.722 0.012659066 5.0847194e-39 309 230
-0.012624 0.72000003 0.012624 4.8092143e-39 310 230
-0.011361601 0.72000003 0.012624 4.7170187e-39 311 230
-0.010099201 0.72000003 0.012624 5.0829215e-39 312 230
-0.0088245263 0.71899998 0.012606465 4.8988904e-39 313 230
-0.0075638802 0.71899998 0.012606465 4.532605e-39 314 230
-0.0063032326 0.71899998 0.012606465 4.532605e-39 315 230
-0.0050425865 0.71899998 0.012606465 4.3492927e-39 316 230
-0.0037819401 0.71899998 0.012606465 4.2570971e-39 317 230
-0.0025212932 0.71899998 0.012606465 4.9003127e-39 318 230
-0.0012624001 0.72000003 0.012624 4.2549433e-39 319 230
0 0.72000003 0.012624 3.1514698e-39 320 230
0.0012624001 0.72000003 0.012624 2.9670771e-39 321 230
0.0025248001 0.72000003 0.012624 2.8734536e-39 322 230
0.0037819401 0.71899998 0.012606465 3.1500405e-39 323 230
0.0050425865 0.71899998 0.012606465 3.0592868e-39 324 230
0.0062857 0.71700001 0.0125714 3.5206251e-39 325 230
0.0075428397 0.71700001 0.0125714 4.0734485e-39 326 230
0.0087999795 0.71700001 0.0125714 4.0734485e-39 327 230
0.010099201 0.72000003 0.012624 4.621593e-39 328 230
-0.098074451 0.736 0.01161408 5.1740115e-39 244 231
-0.096783996 0.736 0.01161408 5.6346309e-39 245 231
-0.095234051 0.73400003 0.011582521 5.0890003e-39 246 231
-0.093947105 0.73400003 0.011582521 5.6421741e-39 247 231
-0.092660166 0.73400003 0.011582521 7.2041273e-39 248 231
-0.091373213 0.73400003 0.011582521 7.757301e-39 249 231
-0.090086266 0.73400003 0.011582521 7.2952313e-39 250 231
-0.08879932 0.73400003 0.011582521 6.7420575e-39 251 231
-0.083458662 0.69999999 0.011045999 6.1035054e-39 252 231
-0.082231328 0.69999999 0.011045999 7.1176573e-39 253 231
-0.081004001 0.69999999 0.011045999 9.5986801e-39 254 231
-0.080118567 0.70300001 0.01109334 1.0151495e-38 255 231
-0.078885972 0.70300001 0.01109334 1.024225e-38 256 231
-0.077321991 0.69999999 0.011045999 9.6890764e-39 257 231
-0.075877249 0.69800001 0.01101444 9.1362572e-39 258 231
-0.074653424 0.69800001 0.01101444 8.3986908e-39 259 231
-0.073745191 0.70099998 0.011061779 6.6541807e-39 260 231
-0.072723009 0.70300001 0.01109334 7.1148001e-39 261 231
-0.071490414 0.70300001 0.01109334 7.4832407e-39 262 231
-0.070257813 0.70300001 0.01109334 7.9438601e-39 263 231
-0.069025226 0.70300001 0.01109334 9.2302801e-39 264 231
-0.067889065 0.704 0.011109119 9.4150301e-39 265 231
-0.066654719 0.704 0.011109119 1.0241897e-38 266 231
-0.056846574 0.75400001 0.01189812 9.9656675e-39 277 231
-0.055524562 0.75400001 0.01189812 1.0242245e-38 278 231
-0.054202545 0.75400001 0.01189812 1.0426996e-38 279 231
-0.052740261 0.75199997 0.011866559 1.0883283e-38 280 231
-0.051421758 0.75199997 0.011866559 1.0422304e-38 281 231
-0.050236505 0.75400001 0.01189812 9.6876107e-39 282 231
-0.048914492 0.75400001 0.01189812 9.4110224e-39 283 231
-0.04759248 0.75400001 0.01189812 9.5925284e-39 284 231
-0.046270464 0.75400001 0.01189812 8.4858207e-39 285 231
-0.044948451 0.75400001 0.01189812 6.8302692e-39 286 231
-0.043626439 0.75400001 0.01189812 6.6458766e-39 287 231
-0.04219221 0.75199997 0.011866559 6.6455234e-39 288 231
-0.040710647 0.74900001 0.01181922 7.1065016e-39 289 231
-0.0393974 0.74900001 0.01181922 7.2933984e-39 290 231
-0.03798246 0.74699998 0.011787659 7.5696251e-39 291 231
-0.036623627 0.74599999 0.011771879 6.3707372e-39 292 231
-0.03531564 0.74599999 0.011771879 5.7253692e-39 293 231
-0.034007654 0.74599999 0.011771879 5.354084e-39 294 231
-0.032612 0.74400002 0.011740319 4.6165273e-39 295 231
-0.031307522 0.74400002 0.011740319 4.063362e-39 296 231
-0.030003037 0.74400002 0.011740319 3.6023908e-39 297 231
-0.02869856 0.74400002 0.011740319 2.5897019e-39 298 231
-0.027394081 0.74400002 0.011740319 2.5897019e-39 299 231
-0.026089599 0.74400002 0.011740319 2.7726666e-39 300 231
-0.024718491 0.74199998 0.01170876 2.3116898e-39 301 231
-0.023417519 0.74199998 0.01170876 1.6659533e-39 302 231
-0.020394772 0.727 0.01147206 4.6201511e-39 304 231
-0.019120099 0.727 0.01147206 7.2016287e-39 305 231
-0.017796334 0.72500002 0.0114405 7.2905874e-39 306 231
-0.01647958 0.72299999 0.01140894 7.1983917e-39 307 231
-0.015190879 0.722 0.01139316 6.2803815e-39 308 231
-0.013924973 0.722 0.01139316 6.1878271e-39 309 231
-0.012624 0.72000003 0.011361601 5.8211928e-39 310 231
-0.011361601 0.72000003 0.011361601 5.7289972e-39 311 231
-0.010085173 0.71899998 0.01134582 5.7282755e-39 312 231
-0.0088245263 0.71899998 0.01134582 5.6360785e-39 313 231
-0.0075638802 0.71899998 0.01134582 5.3609237e-39 314 231
-0.0062857 0.71700001 0.01131426 5.2683694e-39 315 231
-0.0050285598 0.71700001 0.01131426 4.7180668e-39 316 231
-0.0037714199 0.71700001 0.01131426 4.8106212e-39 317 231
-0.0025212932 0.71899998 0.01134582 5.4545361e-39 318 231
-0.0012606466 0.71899998 0.01134582 4.7169724e-39 319 231
0 0.71899998 0.01134582 3.7035534e-39 320 231
0.0012606466 0.71899998 0.01134582 3.242941e-39 321 231
0.0025212932 0.71899998 0.01134582 2.5979429e-39 322 231
0.0037819401 0.71899998 0.01134582 2.8745284e-39 323 231
0.0050425865 0.71899998 0.01134582 2.6930308e-39 324 231
0.0063032326 0.71899998 0.01134582 3.4305958e-39 325 231
0.0075638802 0.71899998 0.01134582 3.981613e-39 326 231
0.0088245263 0.71899998 0.01134582 3.981613e-39 327 231
0.010099201 0.72000003 0.011361601 4.621593e-39 328 231
-0.098074451 0.736 0.010323626 5.2676267e-39 244 232
-0.096783996 0.736 0.010323626 5.4520193e-39 245 232
-0.095493548 0.736 0.010323626 5.2719315e-39 246 232
-0.094203092 0.736 0.010323626 5.5485141e-39 247 232
-0.088367991 0.69999999 0.0098186666 6.4650852e-39 248 232
-0.087140664 0.69999999 0.0098186666 6.3725309e-39 249 232
-0.08591333 0.69999999 0.0098186666 5.6356875e-39 250 232
-0.084685996 0.69999999 0.0098186666 4.9903265e-39 251 232
-0.083458662 0.69999999 0.0098186666 4.0762763e-39 252 232
-0.082231328 0.69999999 0.0098186666 4.81384e-39 253 232
-0.081004001 0.69999999 0.0098186666 6.9275235e-39 254 232
-0.079890631 0.70099998 0.0098326923 7.2041118e-39 255 232
-0.078661539 0.70099998 0.0098326923 6.0131273e-39 256 232
-0.077321991 0.69999999 0.0098186666 4.8145841e-39 257 232
-0.076094657 0.69999999 0.0098186666 4.7180668e-39 258 232
-0.07486733 0.69999999 0.0098186666 4.2574474e-39 259 232
-0.073745191 0.70099998 0.0098326923 3.5238481e-39 260 232
-0.072723009 0.70300001 0.0098607466 3.8000762e-39 261 232
-0.071490414 0.70300001 0.0098607466 4.0737974e-39 262 232
-0.070057929 0.70099998 0.0098326923 3.9816018e-39 263 232
-0.068828844 0.70099998 0.0098326923 3.9833983e-39 264 232
-0.067792632 0.70300001 0.0098607466 4.8127988e-39 265 232
-0.066654719 0.704 0.0098747732 4.9060762e-39 266 232
-0.065420374 0.704 0.0098747732 5.9202282e-39 267 232
-0.054058768 0.75199997 0.010548052 9.5079292e-39 279 232
-0.052740261 0.75199997 0.010548052 1.1068045e-38 280 232
-0.051421758 0.75199997 0.010548052 1.1252438e-38 281 232
-0.047371563 0.71100003 0.0099729598 1.088473e-38 282 232
-0.046124939 0.71100003 0.0099729598 1.0608143e-38 283 232
-0.04759248 0.75400001 0.010576107 1.079072e-38 284 232
-0.046270464 0.75400001 0.010576107 9.315231e-39 285 232
-0.044948451 0.75400001 0.010576107 7.3816465e-39 286 232
-0.043626439 0.75400001 0.010576107 7.2894509e-39 287 232
-0.04219221 0.75199997 0.010548052 7.4742107e-39 288 232
-0.040873703 0.75199997 0.010548052 7.935549e-39 289 232
-0.0393974 0.74900001 0.010505973 7.7536563e-39 290 232
-0.03798246 0.74699998 0.010477919 7.292318e-39 291 232
-0.036623627 0.74599999 0.010463892 5.8172075e-39 292 232
-0.03531564 0.74599999 0.010463892 5.3565923e-39 293 232
-0.034007654 0.74599999 0.010463892 4.9874707e-39 294 232
-0.032743499 0.74699998 0.010477919 4.3421013e-39 295 232
-0.031433757 0.74699998 0.010477919 3.8800497e-39 296 232
-0.030124018 0.74699998 0.010477919 3.2346901e-39 297 232
-0.028814279 0.74699998 0.010477919 2.6815247e-39 298 232
-0.027504537 0.74699998 0.010477919 2.6815247e-39 299 232
-0.026194798 0.74699998 0.010477919 2.2223473e-39 300 232
-0.024885058 0.74699998 0.010477919 2.0379588e-39 301 232
-0.023575317 0.74699998 0.010477919 2.4946252e-39 302 232
-0.020394772 0.727 0.010197386 7.8416031e-39 304 232
-0.019120099 0.727 0.010197386 9.6855157e-39 305 232
-0.017796334 0.72500002 0.010169334 7.295625e-39 306 232
-0.01647958 0.72299999 0.01014128 7.110875e-39 307 232
-0.015190879 0.722 0.010127253 6.1928648e-39 308 232
-0.013924973 0.722 0.010127253 6.0084735e-39 309 232
-0.012606465 0.71899998 0.010085173 5.9152059e-39 310 232
-0.01134582 0.71899998 0.010085173 5.8230103e-39 311 232
-0.01005712 0.71700001 0.01005712 5.6375456e-39 312 232
-0.0087999795 0.71700001 0.01005712 5.6375456e-39 313 232
-0.0075428397 0.71700001 0.01005712 5.3623979e-39 314 232
-0.0062857 0.71700001 0.01005712 5.1783668e-39 315 232
-0.0050285598 0.71700001 0.01005712 5.0865214e-39 316 232
-0.0037714199 0.71700001 0.01005712 4.9021302e-39 317 232
-0.0025142799 0.71700001 0.01005712 4.8106366e-39 318 232
-0.0012606466 0.71899998 0.010085173 4.0727128e-39 319 232
0 0.71899998 0.010085173 3.7028443e-39 320 232
0.0012606466 0.71899998 0.010085173 3.0574763e-39 321 232
0.0025212932 0.71899998 0.010085173 2.6894169e-39 322 232
0.0037819401 0.71899998 0.010085173 2.7816111e-39 323 232
0.0050425865 0.71899998 0.010085173 2.8759745e-39 324 232
0.0063032326 0.71899998 0.010085173 3.7057352e-39 325 232
0.0075638802 0.71899998 0.010085173 3.8912153e-39 326 232
0.0088245263 0.71899998 0.010085173 3.7990196e-39 327 232
0.010085173 0.71899998 0.010085173 4.163489e-39 328 232
-0.088367991 0.69999999 0.0085913334 4.7162578e-39 248 233
-0.087140664 0.69999999 0.0085913334 4.5315078e-39 249 233
-0.083458662 0.69999999 0.0085913334 3.7071421e-39 252 233
-0.082231328 0.69999999 0.0085913334 3.7071421e-39 253 233
-0.081004001 0.69999999 0.0085913334 5.4534697e-39 254 233
-0.079776667 0.69999999 0.0085913334 6.1910347e-39 255 233
-0.078549333 0.69999999 0.0085913334 5.6396756e-39 256 233
-0.077321991 0.69999999 0.0085913334 4.8099149e-39 257 233
-0.076094657 0.69999999 0.0085913334 3.8901461e-39 258 233
-0.07486733 0.69999999 0.0085913334 3.8901461e-39 259 233
-0.073639996 0.69999999 0.0085913334 3.7994008e-39 260 233
-0.072723009 0.70300001 0.0086281532 3.6146508e-39 261 233
-0.071490414 0.70300001 0.0086281532 3.7050345e-39 262 233
-0.070057929 0.70099998 0.0086036054 3.4280889e-39 263 233
-0.068828844 0.70099998 0.0086036054 2.970338e-39 264 233
-0.067792632 0.70300001 0.0086281532 3.3391191e-39 265 233
-0.066654719 0.704 0.0086404262 3.6168018e-39 266 233
-0.065327443 0.70300001 0.0086281532 3.8008329e-39 267 233
-0.064094849 0.70300001 0.0086281532 5.5489626e-39 268 233
-0.062951677 0.704 0.0086404262 6.3787246e-39 269 233
-0.061892662 0.70599997 0.0086649731 7.9420875e-39 270 233
-0.060654808 0.70599997 0.0086649731 8.0342831e-39 271 233
-0.059416957 0.70599997 0.0086649731 8.2200995e-39 272 233
-0.054058768 0.75199997 0.0092295464 9.8731188e-39 279 233
-0.052389596 0.74699998 0.0091681797 1.0241175e-38 280 233
-0.051079858 0.74699998 0.0091681797 1.0609958e-38 281 233
-0.047371563 0.71100003 0.0087263398 1.0701432e-38 282 233
-0.046124939 0.71100003 0.0087263398 1.0609235e-38 283 233
-0.045004558 0.713 0.0087508867 1.0885804e-38 284 233
-0.043938532 0.71600002 0.0087877065 9.5950647e-39 285 233
-0.042742759 0.71700001 0.0087999795 8.0259201e-39 286 233
-0.041485619 0.71700001 0.0087999795 7.657502e-39 287 233
-0.042304426 0.75400001 0.0092540924 7.7489815e-39 288 233
-0.040982414 0.75400001 0.0092540924 7.6567859e-39 289 233
-0.039292198 0.74699998 0.0091681797 6.6451605e-39 290 233
-0.03798246 0.74699998 0.0091681797 5.9997995e-39 291 233
-0.036525439 0.74400002 0.0091313599 4.7123089e-39 292 233
-0.035220962 0.74400002 0.0091313599 4.343532e-39 293 233
-0.033916477 0.74400002 0.0091313599 4.8037941e-39 294 233
-0.032612 0.74400002 0.0091313599 4.4353717e-39 295 233
-0.031433757 0.74699998 0.0091681797 4.1551975e-39 296 233
-0.030124018 0.74699998 0.0091681797 3.6023908e-39 297 233
-0.028814279 0.74699998 0.0091681797 3.3250907e-39 298 233
-0.027504537 0.74699998 0.0091681797 2.8641195e-39 299 233
-0.026194798 0.74699998 0.0091681797 2.5882543e-39 300 233
-0.024951685 0.74900001 0.0091927266 2.4960601e-39 301 233
-0.02363844 0.74900001 0.0091927266 2.8666391e-39 302 233
-0.0190675 0.72500002 0.0088981669 9.7780673e-39 305 233
-0.017673599 0.72000003 0.0088367993 8.6753071e-39 306 233
-0.0164112 0.72000003 0.0088367993 8.3990803e-39 307 233
-0.0151488 0.72000003 0.0088367993 8.3061392e-39 308 233
-0.0138864 0.72000003 0.0088367993 8.2139436e-39 309 233
-0.012606465 0.71899998 0.0088245263 7.9373637e-39 310 233
-0.01131426 0.71700001 0.0087999795 7.8451681e-39 311 233
-0.01005712 0.71700001 0.0087999795 7.7519158e-39 312 233
-0.0087999795 0.71700001 0.0087999795 7.7519158e-39 313 233
-0.0075428397 0.71700001 0.0087999795 7.5682631e-39 314 233
-0.0062857 0.71700001 0.0087999795 7.1998393e-39 315 233
-0.0050215465 0.71600002 0.0087877065 6.3732974e-39 316 233
-0.00376616 0.71600002 0.0087877065 6.0963504e-39 317 233
-0.0025142799 0.71700001 0.0087999795 5.0850571e-39 318 233
-0.0012606466 0.71899998 0.0088245263 4.6237188e-39 319 233
0 0.71899998 0.0088245263 3.4255358e-39 320 233
0.0012606466 0.71899998 0.0088245263 3.0567588e-39 321 233
0.0025212932 0.71899998 0.0088245263 2.5965108e-39 322 233
0.0037714199 0.71700001 0.0087999795 2.7812608e-39 323 233
0.0050285598 0.71700001 0.0087999795 2.2313492e-39 324 233
0.0062857 0.71700001 0.0087999795 2.8767186e-39 325 233
0.0075428397 0.71700001 0.0087999795 3.338766e-39 326 233
0.0088245263 0.71899998 0.0088245263 3.8001042e-39 327 233
0.01005712 0.71700001 0.0087999795 4.1649141e-39 328 233
0.01131426 0.71700001 0.0087999795 4.0727184e-39 329 233
-0.083458662 0.69999999 0.0073639993 4.438959e-39 252 234
-0.082231328 0.69999999 0.0073639993 5.0843284e-39 253 234
-0.081004001 0.69999999 0.0073639993 5.544236e-39 254 234
-0.079776667 0.69999999 0.0073639993 5.7286286e-39 255 234
-0.078549333 0.69999999 0.0073639993 5.4527802e-39 256 234
-0.077321991 0.69999999 0.0073639993 5.1765521e-39 257 234
-0.076094657 0.69999999 0.0073639993 4.5333505e-39 258 234
-0.07486733 0.69999999 0.0073639993 4.4411548e-39 259 234
-0.073639996 0.69999999 0.0073639993 4.0741674e-39 260 234
-0.072723009 0.70300001 0.0073955595 3.981613e-39 261 234
-0.071490414 0.70300001 0.0073955595 4.0738115e-39 262 234
-0.070257813 0.70300001 0.0073955595 4.0738115e-39 263 234
-0.069025226 0.70300001 0.0073955595 4.3486061e-39 264 234
-0.067792632 0.70300001 0.0073955595 4.5329973e-39 265 234
-0.066654719 0.704 0.0074060797 4.8081605e-39 266 234
-0.065327443 0.70300001 0.0073955595 4.8081605e-39 267 234
-0.064094849 0.70300001 0.0073955595 3.3384366e-39 268 234
-0.062862262 0.70300001 0.0073955595 3.246241e-39 269 234
-0.061717331 0.704 0.0074060797 3.1587131e-39 270 234
-0.060482983 0.704 0.0074060797 4.8182344e-39 271 234
-0.059416957 0.70599997 0.0074271196 8.4008978e-39 272 234
-0.053699337 0.74699998 0.0078584393 1.0151498e-38 279 234
-0.052389596 0.74699998 0.0078584393 9.5990458e-39 280 234
-0.051079858 0.74699998 0.0078584393 9.3228191e-39 281 234
-0.047371563 0.71100003 0.0074797203 9.5954557e-39 282 234
-0.046124939 0.71100003 0.0074797203 9.8716839e-39 283 234
-0.045004558 0.713 0.0075007593 9.8734691e-39 284 234
-0.043938532 0.71600002 0.00753232 9.7812735e-39 285 234
-0.042683143 0.71600002 0.00753232 1.0513424e-38 286 234
-0.041427758 0.71600002 0.00753232 9.8680545e-39 287 234
-0.040172372 0.71600002 0.00753232 7.6589537e-39 288 234
-0.038916986 0.71600002 0.00753232 5.2622457e-39 289 234
-0.039292198 0.74699998 0.0078584393 1.5809337e-39 290 234
-0.03793161 0.74599999 0.0078479191 8.4337989e-40 291 234
-0.036525439 0.74400002 0.0078268806 1.1013085e-40 292 234
-0.035220962 0.74400002 0.0078268806 1.40085e-39 293 234
-0.033916477 0.74400002 0.0078268806 5.3544511e-39 294 234
-0.032612 0.74400002 0.0078268806 5.5392011e-39 295 234
-0.031307522 0.74400002 0.0078268806 4.9824344e-39 296 234
-0.030003037 0.74400002 0.0078268806 4.3370748e-39 297 234
-0.028814279 0.74699998 0.0078584393 3.5084029e-39 298 234
-0.027578179 0.74900001 0.0078794798 3.1399848e-39 299 234
-0.026264934 0.74900001 0.0078794798 2.9545201e-39 300 234
-0.024951685 0.74900001 0.0078794798 2.9545201e-39 301 234
-0.021609833 0.72500002 0.0076270006 7.7494103e-39 303 234
-0.020338668 0.72500002 0.0076270006 8.671724e-39 304 234
-0.0190675 0.72500002 0.0076270006 9.132342e-39 305 234
-0.017673599 0.72000003 0.0075743999 8.6749567e-39 306 234
-0.0164112 0.72000003 0.0075743999 8.6749567e-39 307 234
-0.0151488 0.72000003 0.0075743999 8.2164869e-39 308 234
-0.013867113 0.71899998 0.0075638802 8.1242913e-39 309 234
-0.0125714 0.71700001 0.0075428397 8.1242913e-39 310 234
-0.01131426 0.71700001 0.0075428397 8.1242913e-39 311 234
-0.010043093 0.71600002 0.00753232 8.123941e-39 312 234
-0.0087877065 0.71600002 0.00753232 8.861506e-39 313 234
-0.00753232 0.71600002 0.00753232 9.5032755e-39 314 234
-0.0062769335 0.71600002 0.00753232 8.8579061e-39 315 234
