# .PCD v.7 - Point Cloud Data file format
FIELDS x y z rgb imX imY
SIZE 4 4 4 4 4 4
TYPE F F F F F F
COUNT 1 1 1 1 1 1
WIDTH 838
HEIGHT 1
VIEWPOINT 0 0 0 1 0 0 0
POINTS 838
DATA ascii
0.020647252 0.736 -0.045165867 1.1297235e-38 336 275
0.021997318 0.73799998 -0.0452886 1.1481266e-38 337 275
0.023291279 0.73799998 -0.0452886 1.1115357e-38 338 275
0.024585238 0.73799998 -0.0452886 1.1207553e-38 339 275
0.025879199 0.73799998 -0.0452886 1.1390149e-38 340 275
0.027173158 0.73799998 -0.0452886 1.0929171e-38 341 275
0.028389972 0.736 -0.045165867 1.1295805e-38 342 275
0.029599773 0.73400003 -0.045043133 1.1203968e-38 343 275
0.030886721 0.73400003 -0.045043133 1.1295802e-38 344 275
0.032129832 0.73299998 -0.044981763 1.1663509e-38 345 275
0.033415023 0.73299998 -0.044981763 1.1297237e-38 346 275
0.034700219 0.73299998 -0.044981763 1.1481269e-38 347 275
0.035887226 0.73100001 -0.044859033 1.1573464e-38 348 275
0.036965527 0.727 -0.044613566 1.166566e-38 349 275
0.038240198 0.727 -0.044613566 1.2031571e-38 350 275
0.039514873 0.727 -0.044613566 1.1663149e-38 351 275
0.040789545 0.727 -0.044613566 1.1846822e-38 352 275
0.042122077 0.72799999 -0.044674929 1.2030496e-38 353 275
0.043398503 0.72799999 -0.044674929 1.1663509e-38 354 275
0.044613566 0.727 -0.044613566 1.1755704e-38 355 275
0.045888241 0.727 -0.044613566 1.166601e-38 356 275
0.047162913 0.727 -0.044613566 1.166601e-38 357 275
0.048437584 0.727 -0.044613566 1.1665647e-38 358 275
0.0495755 0.72500002 -0.044490833 1.1665647e-38 359 275
0.050846666 0.72500002 -0.044490833 1.1572742e-38 360 275
0.052261602 0.727 -0.044613566 1.1665297e-38 361 275
0.053536277 0.727 -0.044613566 1.1758211e-38 362 275
0.054810952 0.727 -0.044613566 1.1758211e-38 363 275
0.056085624 0.727 -0.044613566 1.1482345e-38 364 275
0.057360299 0.727 -0.044613566 1.1390149e-38 365 275
0.058634974 0.727 -0.044613566 1.1573464e-38 366 275
0.059909642 0.727 -0.044613566 1.1481269e-38 367 275
0.061268479 0.72799999 -0.044674929 1.1298675e-38 368 275
0.062544905 0.72799999 -0.044674929 1.1298675e-38 369 275
0.064084329 0.73100001 -0.044859033 1.1022809e-38 370 275
0.065544859 0.73299998 -0.044981763 1.1022809e-38 371 275
0.066921227 0.73400003 -0.045043133 1.0011896e-38 372 275
0.068208173 0.73400003 -0.045043133 9.9197007e-39 373 275
0.069495119 0.73400003 -0.045043133 7.1639184e-39 374 275
0.070782073 0.73400003 -0.045043133 6.9795257e-39 375 275
-0.0998348 0.73000002 -0.046077598 2.3500519e-38 242 276
-0.098284848 0.72799999 -0.045951359 1.7320531e-38 243 276
-0.097008422 0.72799999 -0.045951359 1.4163226e-38 244 276
-0.095600501 0.727 -0.045888241 1.1950172e-38 245 276
-0.094325826 0.727 -0.045888241 6.8008784e-39 246 276
-0.09305115 0.727 -0.045888241 5.6945308e-39 247 276
-0.09127152 0.72299999 -0.04563576 7.6223588e-39 248 276
-0.090003856 0.72299999 -0.04563576 7.438685e-39 249 276
-0.087877065 0.71600002 -0.045193922 8.2652227e-39 250 276
-0.086621679 0.71600002 -0.045193922 8.8162441e-39 251 276
-0.085366286 0.71600002 -0.045193922 8.4489147e-39 252 276
-0.084110901 0.71600002 -0.045193922 8.5411117e-39 253 276
-0.082971238 0.71700001 -0.045257039 9.1843133e-39 254 276
-0.082056001 0.72000003 -0.045446403 9.4605401e-39 255 276
-0.080793604 0.72000003 -0.045446403 1.1022455e-38 256 276
-0.0795312 0.72000003 -0.045446403 1.1299401e-38 257 276
-0.078486212 0.722 -0.045572639 1.1297953e-38 258 276
-0.077220306 0.722 -0.045572639 1.1390149e-38 259 276
-0.0759544 0.722 -0.045572639 1.1203957e-38 260 276
-0.074791931 0.72299999 -0.04563576 1.111212e-38 261 276
-0.073524274 0.72299999 -0.04563576 1.120396e-38 262 276
-0.072256617 0.72299999 -0.04563576 1.120396e-38 263 276
-0.070988953 0.72299999 -0.04563576 1.1479468e-38 264 276
-0.069721296 0.72299999 -0.04563576 1.1571305e-38 265 276
-0.06845364 0.72299999 -0.04563576 1.1571306e-38 266 276
-0.067185976 0.72299999 -0.04563576 1.1663143e-38 267 276
-0.065918319 0.72299999 -0.04563576 1.166314e-38 268 276
-0.064829499 0.72500002 -0.045761999 1.1846814e-38 269 276
-0.063558333 0.72500002 -0.045761999 1.1846811e-38 270 276
-0.062287167 0.72500002 -0.045761999 1.1846811e-38 271 276
-0.061016005 0.72500002 -0.045761999 1.1571305e-38 272 276
-0.059992049 0.72799999 -0.045951359 1.1571305e-38 273 276
-0.058876935 0.73000002 -0.046077598 1.1295797e-38 274 276
-0.057597004 0.73000002 -0.046077598 1.1295797e-38 275 276
-0.056317069 0.73000002 -0.046077598 1.0746226e-38 276 276
-0.055037133 0.73000002 -0.046077598 1.0654029e-38 277 276
-0.053830836 0.73100001 -0.046140719 1.0836625e-38 278 276
-0.052549154 0.73100001 -0.046140719 1.0836625e-38 279 276
-0.051267464 0.73100001 -0.046140719 1.1295795e-38 280 276
-0.049985781 0.73100001 -0.046140719 1.1387632e-38 281 276
-0.048704091 0.73100001 -0.046140719 1.0928449e-38 282 276
-0.04755215 0.73299998 -0.046266954 1.0928449e-38 283 276
-0.046266954 0.73299998 -0.046266954 1.0928449e-38 284 276
-0.044981763 0.73299998 -0.046266954 1.0928449e-38 285 276
-0.043696571 0.73299998 -0.046266954 1.1020281e-38 286 276
-0.042411376 0.73299998 -0.046266954 1.1203954e-38 287 276
-0.041182294 0.73400003 -0.046330083 1.111212e-38 288 276
-0.039895348 0.73400003 -0.046330083 1.1387631e-38 289 276
-0.038713597 0.736 -0.046456318 1.1665297e-38 290 276
-0.037575684 0.73900002 -0.046645679 1.1480547e-38 291 276
-0.036279973 0.73900002 -0.046645679 1.1388354e-38 292 276
-0.034984261 0.73900002 -0.046645679 1.1020289e-38 293 276
-0.032392833 0.73900002 -0.046645679 1.12958e-38 295 276
-0.03109712 0.73900002 -0.046645679 1.1846807e-38 296 276
-0.029801406 0.73900002 -0.046645679 1.2030479e-38 297 276
-0.028505694 0.73900002 -0.046645679 1.1847162e-38 298 276
-0.027209979 0.73900002 -0.046645679 1.1939357e-38 299 276
-0.025879199 0.73799998 -0.046582557 1.1938641e-38 300 276
-0.024585238 0.73799998 -0.046582557 1.1846803e-38 301 276
-0.023291279 0.73799998 -0.046582557 1.1754965e-38 302 276
-0.021997318 0.73799998 -0.046582557 1.2030474e-38 303 276
-0.020703359 0.73799998 -0.046582557 1.1755695e-38 304 276
-0.0194357 0.73900002 -0.046645679 1.184789e-38 305 276
-0.018139986 0.73900002 -0.046645679 1.1848256e-38 306 276
-0.016821479 0.73799998 -0.046582557 1.1848256e-38 307 276
-0.015527519 0.73799998 -0.046582557 1.175606e-38 308 276
-0.014233559 0.73799998 -0.046582557 1.175606e-38 309 276
-0.012939599 0.73799998 -0.046582557 1.1663865e-38 310 276
-0.01161408 0.736 -0.046456318 1.175606e-38 311 276
-0.010295574 0.73400003 -0.046330083 1.1663859e-38 312 276
-0.0090086265 0.73400003 -0.046330083 1.1756413e-38 313 276
-0.0077216802 0.73400003 -0.046330083 1.14809e-38 314 276
-0.006408433 0.73100001 -0.046140719 1.1296507e-38 315 276
-0.0051267464 0.73100001 -0.046140719 1.1295788e-38 316 276
-0.00384506 0.73100001 -0.046140719 1.1203952e-38 317 276
-0.0025809065 0.736 -0.046456318 1.120396e-38 318 276
-0.0012939599 0.73799998 -0.046582557 1.0836614e-38 319 276
0 0.736 -0.046456318 1.092846e-38 320 276
0.0012904532 0.736 -0.046456318 1.0836624e-38 321 276
0.0025809065 0.736 -0.046456318 1.1112134e-38 322 276
0.0038713599 0.736 -0.046456318 1.1203971e-38 323 276
0.005161813 0.736 -0.046456318 1.0928462e-38 324 276
0.0064522666 0.736 -0.046456318 1.0928462e-38 325 276
0.0077216802 0.73400003 -0.046330083 1.0652944e-38 326 276
0.0090086265 0.73400003 -0.046330083 1.0836617e-38 327 276
0.010323626 0.736 -0.046456318 1.0837331e-38 328 276
0.01161408 0.736 -0.046456318 1.0745136e-38 329 276
0.012904533 0.736 -0.046456318 1.0928453e-38 330 276
0.014194986 0.736 -0.046456318 1.0928453e-38 331 276
0.015485439 0.736 -0.046456318 1.1020292e-38 332 276
0.016730307 0.73400003 -0.046330083 1.1387998e-38 333 276
0.018017253 0.73400003 -0.046330083 1.1022446e-38 334 276
0.019304199 0.73400003 -0.046330083 1.1022446e-38 335 276
0.020591147 0.73400003 -0.046330083 1.1114638e-38 336 276
0.021878093 0.73400003 -0.046330083 1.129867e-38 337 276
0.023165042 0.73400003 -0.046330083 1.1115713e-38 338 276
0.024451986 0.73400003 -0.046330083 1.1207909e-38 339 276
0.025703866 0.73299998 -0.046266954 1.1388348e-38 340 276
0.026989058 0.73299998 -0.046266954 1.1296151e-38 341 276
0.028274251 0.73299998 -0.046266954 1.1203961e-38 342 276
0.029559445 0.73299998 -0.046266954 1.1387634e-38 343 276
0.030844638 0.73299998 -0.046266954 1.1295802e-38 344 276
0.032042164 0.73100001 -0.046140719 1.1479478e-38 345 276
0.033278264 0.73000002 -0.046077598 1.148055e-38 346 276
0.034558199 0.73000002 -0.046077598 1.148055e-38 347 276
0.035838135 0.73000002 -0.046077598 1.1756413e-38 348 276
0.036863834 0.72500002 -0.045761999 1.1848609e-38 349 276
0.038135 0.72500002 -0.045761999 1.1755339e-38 350 276
0.039406165 0.72500002 -0.045761999 1.1663143e-38 351 276
0.040677335 0.72500002 -0.045761999 1.1754977e-38 352 276
0.041948501 0.72500002 -0.045761999 1.1846814e-38 353 276
0.043338891 0.727 -0.045888241 1.1755339e-38 354 276
0.044613566 0.727 -0.045888241 1.1755339e-38 355 276
0.045888241 0.727 -0.045888241 1.1665647e-38 356 276
0.047162913 0.727 -0.045888241 1.1941874e-38 357 276
0.048304334 0.72500002 -0.045761999 1.1941871e-38 358 276
0.0495755 0.72500002 -0.045761999 1.175784e-38 359 276
0.050846666 0.72500002 -0.045761999 1.1758562e-38 360 276
0.051974058 0.72299999 -0.04563576 1.1850759e-38 361 276
0.053241719 0.72299999 -0.04563576 1.1760361e-38 362 276
0.054509375 0.72299999 -0.04563576 1.1944392e-38 363 276
0.055777039 0.72299999 -0.04563576 1.1484863e-38 364 276
0.057044696 0.72299999 -0.04563576 1.1208275e-38 365 276
0.058312356 0.72299999 -0.04563576 1.1298672e-38 366 276
0.059744831 0.72500002 -0.045761999 1.1298672e-38 367 276
0.061184317 0.727 -0.045888241 1.111536e-38 368 276
0.062544905 0.72799999 -0.045951359 1.1023164e-38 369 276
0.063821331 0.72799999 -0.045951359 1.0746226e-38 370 276
0.0652766 0.73000002 -0.046077598 1.0746226e-38 371 276
0.066921227 0.73400003 -0.046330083 9.2757803e-39 372 276
0.06839402 0.736 -0.046456318 8.7244002e-39 373 276
0.069684476 0.736 -0.046456318 7.0724486e-39 374 276
-0.099561274 0.72799999 -0.047227785 1.8119704e-38 242 277
-0.098284848 0.72799999 -0.047227785 1.4432238e-38 243 277
-0.097008422 0.72799999 -0.047227785 1.020852e-38 244 277
-0.095600501 0.727 -0.047162913 7.6270419e-39 245 277
-0.094325826 0.727 -0.047162913 3.9489263e-39 246 277
-0.092539176 0.72299999 -0.046903417 4.2244328e-39 247 277
-0.09127152 0.72299999 -0.046903417 5.6023324e-39 248 277
-0.090003856 0.72299999 -0.046903417 6.3402562e-39 249 277
-0.087631598 0.71399999 -0.046319555 8.908074e-39 250 277
-0.086379714 0.71399999 -0.046319555 8.4488895e-39 251 277
-0.085127831 0.71399999 -0.046319555 7.2550434e-39 252 277
-0.083875954 0.71399999 -0.046319555 7.2550434e-39 253 277
-0.082855515 0.71600002 -0.046449307 6.0611736e-39 254 277
-0.081714094 0.71700001 -0.046514176 6.3366857e-39 255 277
-0.080793604 0.72000003 -0.0467088 8.3570666e-39 256 277
-0.0795312 0.72000003 -0.0467088 8.8180447e-39 257 277
-0.078268804 0.72000003 -0.0467088 1.0379963e-38 258 277
-0.0770064 0.72000003 -0.0467088 1.0748745e-38 259 277
-0.0759544 0.722 -0.046838548 1.1391948e-38 260 277
-0.074688487 0.722 -0.046838548 1.0746579e-38 261 277
-0.073422581 0.722 -0.046838548 1.1479462e-38 262 277
-0.072156675 0.722 -0.046838548 1.1387625e-38 263 277
-0.070890769 0.722 -0.046838548 1.1479462e-38 264 277
-0.069721296 0.72299999 -0.046903417 1.1479462e-38 265 277
-0.06845364 0.72299999 -0.046903417 1.1479464e-38 266 277
-0.067185976 0.72299999 -0.046903417 1.1663137e-38 267 277
-0.065918319 0.72299999 -0.046903417 1.1479465e-38 268 277
-0.064650662 0.72299999 -0.046903417 1.1571302e-38 269 277
-0.063382991 0.72299999 -0.046903417 1.1387631e-38 270 277
-0.062115334 0.72299999 -0.046903417 1.1479828e-38 271 277
-0.060847677 0.72299999 -0.046903417 1.1295794e-38 272 277
-0.059744831 0.72500002 -0.047033165 1.1295794e-38 273 277
-0.058634974 0.727 -0.047162913 1.1020286e-38 274 277
-0.057360299 0.727 -0.047162913 1.1112123e-38 275 277
-0.056162767 0.72799999 -0.047227785 1.0929171e-38 276 277
-0.054886345 0.72799999 -0.047227785 1.1205758e-38 277 277
-0.053757198 0.73000002 -0.047357533 1.1113209e-38 278 277
-0.052477267 0.73000002 -0.047357533 1.1113209e-38 279 277
-0.051197331 0.73000002 -0.047357533 1.1295798e-38 280 277
-0.0499174 0.73000002 -0.047357533 1.1020289e-38 281 277
-0.048637468 0.73000002 -0.047357533 1.1020286e-38 282 277
-0.047422405 0.73100001 -0.047422405 1.0836612e-38 283 277
-0.046140719 0.73100001 -0.047422405 1.1203953e-38 284 277
-0.044859033 0.73100001 -0.047422405 1.1020279e-38 285 277
-0.043577347 0.73100001 -0.047422405 1.1203956e-38 286 277
-0.042295661 0.73100001 -0.047422405 1.1295793e-38 287 277
-0.041126184 0.73299998 -0.04755215 1.1020289e-38 288 277
-0.039840993 0.73299998 -0.04755215 1.1388354e-38 289 277
-0.038608398 0.73400003 -0.047617026 1.1663859e-38 290 277
-0.025809066 0.736 -0.047746774 1.2030478e-38 300 277
-0.024518613 0.736 -0.047746774 1.2030478e-38 301 277
-0.023228159 0.736 -0.047746774 1.2030475e-38 302 277
-0.021878093 0.73400003 -0.047617026 1.221415e-38 303 277
-0.020591147 0.73400003 -0.047617026 1.1939004e-38 304 277
-0.019356798 0.736 -0.047746774 1.1939004e-38 305 277
-0.018066347 0.736 -0.047746774 1.2214156e-38 306 277
-0.016775893 0.736 -0.047746774 1.2122318e-38 307 277
-0.015485439 0.736 -0.047746774 1.184682e-38 308 277
-0.014194986 0.736 -0.047746774 1.184682e-38 309 277
-0.012904533 0.736 -0.047746774 1.157131e-38 310 277
-0.011582521 0.73400003 -0.047617026 1.1663149e-38 311 277
-0.010281546 0.73299998 -0.04755215 1.1573098e-38 312 277
-0.0089963535 0.73299998 -0.04755215 1.175749e-38 313 277
-0.0077111595 0.73299998 -0.04755215 1.1664568e-38 314 277
-0.0063996664 0.73000002 -0.047357533 1.1387981e-38 315 277
-0.0051197335 0.73000002 -0.047357533 1.138762e-38 316 277
-0.00384506 0.73100001 -0.047422405 1.1479457e-38 317 277
-0.0025738934 0.73400003 -0.047617026 1.1112117e-38 318 277
-0.0012869467 0.73400003 -0.047617026 1.0652933e-38 319 277
0 0.736 -0.047746774 1.0652953e-38 320 277
0.0012869467 0.73400003 -0.047617026 1.0836625e-38 321 277
0.0025738934 0.73400003 -0.047617026 1.0928465e-38 322 277
0.0038713599 0.736 -0.047746774 1.0928465e-38 323 277
0.0051477868 0.73400003 -0.047617026 1.0928458e-38 324 277
0.006434733 0.73400003 -0.047617026 1.0836621e-38 325 277
0.0077216802 0.73400003 -0.047617026 1.0744778e-38 326 277
0.0090086265 0.73400003 -0.047617026 1.1295798e-38 327 277
0.010295574 0.73400003 -0.047617026 1.1114638e-38 328 277
0.011582521 0.73400003 -0.047617026 1.0745854e-38 329 277
0.012851933 0.73299998 -0.04755215 1.1203957e-38 330 277
0.014137126 0.73299998 -0.04755215 1.1295794e-38 331 277
0.015422319 0.73299998 -0.04755215 1.1020292e-38 332 277
0.016707512 0.73299998 -0.04755215 1.0836618e-38 333 277
0.017992707 0.73299998 -0.04755215 1.1020296e-38 334 277
0.019199001 0.73000002 -0.047357533 1.1112133e-38 335 277
0.020478934 0.73000002 -0.047357533 1.0929894e-38 336 277
0.021758866 0.73000002 -0.047357533 1.1114285e-38 337 277
0.023038799 0.73000002 -0.047357533 1.1205402e-38 338 277
0.024318734 0.73000002 -0.047357533 1.0929174e-38 339 277
0.025598666 0.73000002 -0.047357533 1.1387627e-38 340 277
0.026878599 0.73000002 -0.047357533 1.1571302e-38 341 277
0.028197108 0.73100001 -0.047422405 1.1112131e-38 342 277
0.029478792 0.73100001 -0.047422405 1.1295804e-38 343 277
0.03076048 0.73100001 -0.047422405 1.1112853e-38 344 277
0.031998333 0.73000002 -0.047357533 1.0928821e-38 345 277
0.033187091 0.72799999 -0.047227785 1.1571308e-38 346 277
0.034463517 0.72799999 -0.047227785 1.1663146e-38 347 277
0.035739943 0.72799999 -0.047227785 1.1663862e-38 348 277
0.03671129 0.722 -0.046838548 1.1848253e-38 349 277
0.0379772 0.722 -0.046838548 1.1939007e-38 350 277
0.039243106 0.722 -0.046838548 1.1939007e-38 351 277
0.040509012 0.722 -0.046838548 1.1846811e-38 352 277
0.041774917 0.722 -0.046838548 1.1663137e-38 353 277
0.043100435 0.72299999 -0.046903417 1.1755689e-38 354 277
0.044368099 0.72299999 -0.046903417 1.1847885e-38 355 277
0.04563576 0.72299999 -0.046903417 1.203155e-38 356 277
0.046903417 0.72299999 -0.046903417 1.22163e-38 357 277
0.048171077 0.72299999 -0.046903417 1.2124823e-38 358 277
0.049438741 0.72299999 -0.046903417 1.2217019e-38 359 277
0.050706398 0.72299999 -0.046903417 1.2125548e-38 360 277
0.051974058 0.72299999 -0.046903417 1.2033351e-38 361 277
0.053168077 0.722 -0.046838548 1.1850406e-38 362 277
0.054433983 0.722 -0.046838548 1.1666013e-38 363 277
0.055699892 0.722 -0.046838548 1.1022811e-38 364 277
0.056965802 0.722 -0.046838548 1.1022811e-38 365 277
0.058231708 0.722 -0.046838548 1.0932414e-38 366 277
0.059497613 0.722 -0.046838548 1.0932414e-38 367 277
0.060763516 0.722 -0.046838548 1.111536e-38 368 277
0.062544905 0.72799999 -0.047227785 1.1023164e-38 369 277
0.063821331 0.72799999 -0.047227785 1.0472153e-38 370 277
0.065097757 0.72799999 -0.047227785 1.0103729e-38 371 277
0.066556528 0.73000002 -0.047357533 8.5410879e-39 372 277
-0.1008377 0.72799999 -0.048504211 1.4095462e-38 241 278
-0.099561274 0.72799999 -0.048504211 1.0561082e-38 242 278
-0.098284848 0.72799999 -0.048504211 1.0010069e-38 243 278
-0.097008422 0.72799999 -0.048504211 9.5508916e-39 244 278
-0.095600501 0.727 -0.048437584 8.7243721e-39 245 278
-0.094066329 0.72500002 -0.048304334 4.9591168e-39 246 278
-0.092539176 0.72299999 -0.048171077 5.6938078e-39 247 278
-0.09127152 0.72299999 -0.048171077 5.6019863e-39 248 278
-0.090003856 0.72299999 -0.048171077 7.3526285e-39 249 278
-0.087631598 0.71399999 -0.047571439 1.0653306e-38 250 278
-0.086379714 0.71399999 -0.047571439 9.5509042e-39 251 278
-0.085127831 0.71399999 -0.047571439 7.9896882e-39 252 278
-0.083875954 0.71399999 -0.047571439 7.5305107e-39 253 278
-0.082855515 0.71600002 -0.047704693 7.2550126e-39 254 278
-0.08160013 0.71600002 -0.047704693 7.438685e-39 255 278
-0.080681384 0.71899998 -0.04790457 7.4387046e-39 256 278
-0.0795312 0.72000003 -0.0479712 7.9897246e-39 257 278
-0.078160092 0.71899998 -0.04790457 8.7247799e-39 258 278
-0.076899439 0.71899998 -0.04790457 9.462345e-39 259 278
-0.075743996 0.72000003 -0.0479712 1.1297616e-38 260 278
-0.074481606 0.72000003 -0.0479712 1.0929193e-38 261 278
-0.072914116 0.71700001 -0.04777132 1.1754974e-38 262 278
-0.07165698 0.71700001 -0.04777132 1.1754974e-38 263 278
-0.070399836 0.71700001 -0.04777132 1.1387623e-38 264 278
-0.069142699 0.71700001 -0.04777132 1.1387623e-38 265 278
-0.068074919 0.71899998 -0.04790457 1.1112117e-38 266 278
-0.067093052 0.722 -0.048104454 1.1388704e-38 267 278
-0.065827139 0.722 -0.048104454 1.111212e-38 268 278
-0.064561233 0.722 -0.048104454 1.111212e-38 269 278
-0.063295327 0.722 -0.048104454 1.1113562e-38 270 278
-0.062029421 0.722 -0.048104454 1.0929171e-38 271 278
-0.060763516 0.722 -0.048104454 1.0836975e-38 272 278
-0.059580017 0.72299999 -0.048171077 1.0561106e-38 273 278
-0.058312356 0.72299999 -0.048171077 1.1020286e-38 274 278
-0.057044696 0.72299999 -0.048171077 1.120396e-38 275 278
-0.055931333 0.72500002 -0.048304334 1.102029e-38 276 278
-0.054810952 0.727 -0.048437584 1.1204683e-38 277 278
-0.053536277 0.727 -0.048437584 1.1297956e-38 278 278
-0.052261602 0.727 -0.048437584 1.1297956e-38 279 278
-0.051057063 0.72799999 -0.048504211 1.1387634e-38 280 278
-0.049712259 0.727 -0.048437584 1.120396e-38 281 278
-0.048437584 0.727 -0.048437584 1.1387627e-38 282 278
-0.047227785 0.72799999 -0.048504211 1.1203953e-38 283 278
-0.046077598 0.73000002 -0.048637468 1.1387618e-38 284 278
-0.044797666 0.73000002 -0.048637468 1.1571294e-38 285 278
-0.043517731 0.73000002 -0.048637468 1.1112113e-38 286 278
-0.0422378 0.73000002 -0.048637468 1.1387623e-38 287 278
-0.040957868 0.73000002 -0.048637468 1.1387981e-38 288 278
-0.039732285 0.73100001 -0.048704091 1.1480178e-38 289 278
-0.038450599 0.73100001 -0.048704091 1.1938644e-38 290 278
-0.037321456 0.73400003 -0.048903972 1.1938644e-38 291 278
-0.032129832 0.73299998 -0.048837345 1.1754969e-38 295 278
-0.030844638 0.73299998 -0.048837345 1.2030477e-38 296 278
-0.025738932 0.73400003 -0.048903972 1.2122312e-38 300 278
-0.024451986 0.73400003 -0.048903972 1.2122312e-38 301 278
-0.023165042 0.73400003 -0.048903972 1.2122309e-38 302 278
-0.021878093 0.73400003 -0.048903972 1.2122309e-38 303 278
-0.020591147 0.73400003 -0.048903972 1.1938644e-38 304 278
-0.019304199 0.73400003 -0.048903972 1.2030481e-38 305 278
-0.018017253 0.73400003 -0.048903972 1.1939004e-38 306 278
-0.016730307 0.73400003 -0.048903972 1.1663135e-38 307 278
-0.01544336 0.73400003 -0.048903972 1.1663143e-38 308 278
-0.014156413 0.73400003 -0.048903972 1.1663143e-38 309 278
-0.012869466 0.73400003 -0.048903972 1.1663865e-38 310 278
-0.011582521 0.73400003 -0.048903972 1.1479475e-38 311 278
-0.010281546 0.73299998 -0.048837345 1.1756413e-38 312 278
-0.0089963535 0.73299998 -0.048837345 1.1756413e-38 313 278
-0.0077111595 0.73299998 -0.048837345 1.1571294e-38 314 278
-0.0063996664 0.73000002 -0.048637468 1.1663849e-38 315 278
-0.0051197335 0.73000002 -0.048637468 1.1479451e-38 316 278
-0.0038397999 0.73000002 -0.048637468 1.1203942e-38 317 278
-0.0025738934 0.73400003 -0.048903972 1.1295784e-38 318 278
-0.0012869467 0.73400003 -0.048903972 1.1295784e-38 319 278
0.0012869467 0.73400003 -0.048903972 1.1020289e-38 321 278
0.0025738934 0.73400003 -0.048903972 1.102029e-38 322 278
0.0038608401 0.73400003 -0.048903972 1.102029e-38 323 278
0.005140773 0.73299998 -0.048837345 1.1203952e-38 324 278
0.0064259665 0.73299998 -0.048837345 1.1295788e-38 325 278
0.00769012 0.73100001 -0.048704091 1.1296502e-38 326 278
0.0089718066 0.73100001 -0.048704091 1.1573449e-38 327 278
0.010253493 0.73100001 -0.048704091 1.1849313e-38 328 278
0.01148784 0.72799999 -0.048504211 1.1296139e-38 329 278
0.012764266 0.72799999 -0.048504211 1.1479451e-38 330 278
0.014040692 0.72799999 -0.048504211 1.1479451e-38 331 278
0.0153592 0.73000002 -0.048637468 1.1112117e-38 332 278
0.016639132 0.73000002 -0.048637468 1.0836608e-38 333 278
0.017919067 0.73000002 -0.048637468 1.0744785e-38 334 278
0.0191464 0.72799999 -0.048504211 1.0929177e-38 335 278
0.020422826 0.72799999 -0.048504211 1.1020288e-38 336 278
0.021699252 0.72799999 -0.048504211 1.1112842e-38 337 278
0.022975679 0.72799999 -0.048504211 1.1295798e-38 338 278
0.024252106 0.72799999 -0.048504211 1.1020289e-38 339 278
0.025528532 0.72799999 -0.048504211 1.1295793e-38 340 278
0.026804959 0.72799999 -0.048504211 1.138763e-38 341 278
0.028081384 0.72799999 -0.048504211 1.1296154e-38 342 278
0.029357811 0.72799999 -0.048504211 1.1388351e-38 343 278
0.030634239 0.72799999 -0.048504211 1.1204686e-38 344 278
0.031910665 0.72799999 -0.048504211 1.1204686e-38 345 278
0.032913569 0.722 -0.048104454 1.1571315e-38 346 278
0.034179479 0.722 -0.048104454 1.1571315e-38 347 278
0.035445385 0.722 -0.048104454 1.1479478e-38 348 278
0.03671129 0.722 -0.048104454 1.1755704e-38 349 278
0.037871998 0.72000003 -0.0479712 1.184789e-38 350 278
0.039134402 0.72000003 -0.0479712 1.184789e-38 351 278
0.040396802 0.72000003 -0.0479712 1.1480903e-38 352 278
0.041659199 0.72000003 -0.0479712 1.1388348e-38 353 278
0.042921603 0.72000003 -0.0479712 1.1663859e-38 354 278
0.044183999 0.72000003 -0.0479712 1.1663859e-38 355 278
0.045446403 0.72000003 -0.0479712 1.1572745e-38 356 278
0.0467088 0.72000003 -0.0479712 1.1572745e-38 357 278
0.0479712 0.72000003 -0.0479712 1.1573114e-38 358 278
0.0492336 0.72000003 -0.0479712 1.1573114e-38 359 278
0.050496001 0.72000003 -0.0479712 1.1941173e-38 360 278
0.051758397 0.72000003 -0.0479712 1.1941173e-38 361 278
0.053020801 0.72000003 -0.0479712 1.1664588e-38 362 278
0.054283202 0.72000003 -0.0479712 1.1480197e-38 363 278
0.055545598 0.72000003 -0.0479712 1.0929544e-38 364 278
0.056808002 0.72000003 -0.0479712 1.1021739e-38 365 278
0.058070403 0.72000003 -0.0479712 1.0381761e-38 366 278
0.059332799 0.72000003 -0.0479712 1.0381761e-38 367 278
0.060763516 0.722 -0.048104454 1.0564704e-38 368 278
0.062115334 0.72299999 -0.048171077 1.06569e-38 369 278
0.063382991 0.72299999 -0.048171077 9.8307365e-39 370 278
0.065097757 0.72799999 -0.048504211 9.1853671e-39 371 278
0.066556528 0.73000002 -0.048637468 7.6241707e-39 372 278
-0.1008377 0.72799999 -0.049780637 9.8314526e-39 241 279
-0.099561274 0.72799999 -0.049780637 1.1203932e-38 242 279
-0.098284848 0.72799999 -0.049780637 1.1938627e-38 243 279
-0.096875168 0.727 -0.049712259 1.1203945e-38 244 279
-0.095337495 0.72500002 -0.0495755 1.0469249e-38 245 279
-0.093806833 0.72299999 -0.049438741 7.7141873e-39 246 279
-0.092539176 0.72299999 -0.049438741 7.3468397e-39 247 279
-0.091145277 0.722 -0.04937036 5.1427976e-39 248 279
-0.089630403 0.72000003 -0.0492336 8.2745792e-39 249 279
-0.088367999 0.72000003 -0.0492336 1.2307439e-38 250 279
-0.086621679 0.71600002 -0.048960082 1.2030852e-38 251 279
-0.085127831 0.71399999 -0.048823316 1.0929527e-38 252 279
-0.083875954 0.71399999 -0.048823316 9.8264079e-39 253 279
-0.082624078 0.71399999 -0.048823316 7.9922175e-39 254 279
-0.081372194 0.71399999 -0.048823316 7.2550112e-39 255 279
-0.080344744 0.71600002 -0.048960082 6.7039926e-39 256 279
-0.079199821 0.71700001 -0.04902846 5.9693073e-39 257 279
-0.077942684 0.71700001 -0.04902846 5.3264588e-39 258 279
-0.076685533 0.71700001 -0.04902846 6.7962079e-39 259 279
-0.075638793 0.71899998 -0.049165215 9.8264415e-39 260 279
-0.074481606 0.72000003 -0.0492336 1.0193791e-38 261 279
-0.072812423 0.71600002 -0.048960082 1.1387638e-38 262 279
-0.071557038 0.71600002 -0.048960082 1.1571312e-38 263 279
-0.070301652 0.71600002 -0.048960082 1.1388351e-38 264 279
-0.069046266 0.71600002 -0.048960082 1.1388351e-38 265 279
-0.067885563 0.71700001 -0.04902846 1.1114638e-38 266 279
-0.066628419 0.71700001 -0.04902846 1.0930247e-38 267 279
-0.065644801 0.72000003 -0.0492336 1.0929171e-38 268 279
-0.064382397 0.72000003 -0.0492336 1.0929171e-38 269 279
-0.06312 0.72000003 -0.0492336 1.0836978e-38 270 279
-0.061857603 0.72000003 -0.0492336 1.0652946e-38 271 279
-0.060595199 0.72000003 -0.0492336 1.0836619e-38 272 279
-0.059497613 0.722 -0.04937036 1.056111e-38 273 279
-0.058231708 0.722 -0.04937036 1.0928451e-38 274 279
-0.056965802 0.722 -0.04937036 1.1112842e-38 275 279
-0.055699892 0.722 -0.04937036 1.1113559e-38 276 279
-0.054509375 0.72299999 -0.049438741 1.1113559e-38 277 279
-0.053241719 0.72299999 -0.049438741 1.1388354e-38 278 279
-0.052117832 0.72500002 -0.0495755 1.148055e-38 279 279
-0.050846666 0.72500002 -0.0495755 1.157131e-38 280 279
-0.0495755 0.72500002 -0.0495755 1.1479473e-38 281 279
-0.048304334 0.72500002 -0.0495755 1.1479469e-38 282 279
-0.047162913 0.727 -0.049712259 1.1663143e-38 283 279
-0.045951359 0.72799999 -0.049780637 1.1296154e-38 284 279
-0.044674929 0.72799999 -0.049780637 1.1112123e-38 285 279
-0.043398503 0.72799999 -0.049780637 1.1571295e-38 286 279
-0.042122077 0.72799999 -0.049780637 1.2214512e-38 287 279
-0.040845651 0.72799999 -0.049780637 1.176108e-38 288 279
-0.039677933 0.73000002 -0.0499174 1.1300102e-38 289 279
-0.038398001 0.73000002 -0.0499174 1.2032998e-38 290 279
-0.0244064 0.69599998 -0.047592476 1.2397831e-38 300 279
-0.023186078 0.69599998 -0.047592476 1.2489668e-38 301 279
-0.021965759 0.69599998 -0.047592476 1.2031921e-38 302 279
-0.020745439 0.69599998 -0.047592476 1.1571302e-38 303 279
-0.010253493 0.73100001 -0.049985781 1.1571306e-38 312 279
-0.0089718066 0.73100001 -0.049985781 1.1203959e-38 313 279
-0.00769012 0.73100001 -0.049985781 1.1387635e-38 314 279
-0.0063996664 0.73000002 -0.0499174 1.2030852e-38 315 279
-0.0051197335 0.73000002 -0.0499174 1.1481622e-38 316 279
-0.0038397999 0.73000002 -0.0499174 1.0928448e-38 317 279
-0.0025598668 0.73000002 -0.0499174 1.1479462e-38 318 279
0.0076585598 0.72799999 -0.049780637 1.1759635e-38 326 279
0.0089349858 0.72799999 -0.049780637 1.1759635e-38 327 279
0.010239467 0.73000002 -0.0499174 1.203155e-38 328 279
0.01148784 0.72799999 -0.049780637 1.203155e-38 329 279
0.012764266 0.72799999 -0.049780637 1.1573452e-38 330 279
0.014040692 0.72799999 -0.049780637 1.1573452e-38 331 279
0.01531712 0.72799999 -0.049780637 1.1022443e-38 332 279
0.016570752 0.727 -0.049712259 1.06533e-38 333 279
0.017845426 0.727 -0.049712259 1.0745499e-38 334 279
0.019120099 0.727 -0.049712259 1.0745499e-38 335 279
0.020338668 0.72500002 -0.0495755 1.1204683e-38 336 279
0.021609833 0.72500002 -0.0495755 1.1297237e-38 337 279
0.022880999 0.72500002 -0.0495755 1.148055e-38 338 279
0.024218792 0.727 -0.049712259 1.1388354e-38 339 279
0.025423333 0.72500002 -0.0495755 1.1388348e-38 340 279
0.026694499 0.72500002 -0.0495755 1.1388348e-38 341 279
0.027965667 0.72500002 -0.0495755 1.1388702e-38 342 279
0.029236834 0.72500002 -0.0495755 1.1573452e-38 343 279
0.030508002 0.72500002 -0.0495755 1.1205036e-38 344 279
0.03156 0.72000003 -0.0492336 1.1205036e-38 345 279
0.0328224 0.72000003 -0.0492336 1.157131e-38 346 279
0.034084801 0.72000003 -0.0492336 1.157131e-38 347 279
0.035347197 0.72000003 -0.0492336 1.1479486e-38 348 279
0.036609601 0.72000003 -0.0492336 1.1387649e-38 349 279
0.037819397 0.71899998 -0.049165215 1.1663509e-38 350 279
0.039080046 0.71899998 -0.049165215 1.1755704e-38 351 279
0.040228479 0.71700001 -0.04902846 1.1205758e-38 352 279
0.041485619 0.71700001 -0.04902846 1.1205758e-38 353 279
0.042742759 0.71700001 -0.04902846 1.1112129e-38 354 279
0.043938532 0.71600002 -0.048960082 1.0928455e-38 355 279
0.045193922 0.71600002 -0.048960082 1.1112134e-38 356 279
0.046449307 0.71600002 -0.048960082 1.1020297e-38 357 279
0.04777132 0.71700001 -0.04902846 1.1571315e-38 358 279
0.048960082 0.71600002 -0.048960082 1.1847184e-38 359 279
0.050215468 0.71600002 -0.048960082 1.1755339e-38 360 279
0.051470853 0.71600002 -0.048960082 1.2031565e-38 361 279
0.052726239 0.71600002 -0.048960082 1.1387998e-38 362 279
0.054057021 0.71700001 -0.04902846 1.1387998e-38 363 279
0.055314157 0.71700001 -0.04902846 1.0471437e-38 364 279
0.056571297 0.71700001 -0.04902846 1.0747664e-38 365 279
0.057989739 0.71899998 -0.049165215 1.0563635e-38 366 279
0.059250388 0.71899998 -0.049165215 1.0563635e-38 367 279
0.060595199 0.72000003 -0.0492336 1.0473956e-38 368 279
0.062029421 0.722 -0.04937036 1.0289206e-38 369 279
0.063382991 0.72299999 -0.049438741 8.9098718e-39 370 279
0.065097757 0.72799999 -0.049780637 8.0815461e-39 371 279
-0.10197386 0.727 -0.050986931 1.0744778e-38 240 280
-0.10069919 0.727 -0.050986931 1.2400355e-38 241 280
-0.099561274 0.72799999 -0.051057063 1.3231188e-38 242 280
-0.098284848 0.72799999 -0.051057063 1.2678373e-38 243 280
-0.096875168 0.727 -0.050986931 1.230671e-38 244 280
-0.095337495 0.72500002 -0.050846666 1.1387625e-38 245 280
-0.093806833 0.72299999 -0.050706398 9.6427313e-39 246 280
-0.092539176 0.72299999 -0.050706398 8.6325366e-39 247 280
-0.090892807 0.72000003 -0.050496001 6.2448165e-39 248 280
-0.089630403 0.72000003 -0.050496001 8.2691743e-39 249 280
-0.088367999 0.72000003 -0.050496001 1.0930613e-38 250 280
-0.087105595 0.72000003 -0.050496001 1.0930613e-38 251 280
-0.085127831 0.71399999 -0.050075196 1.0656508e-38 252 280
-0.083758481 0.713 -0.050005067 1.010334e-38 253 280
-0.082276918 0.71100003 -0.049864799 1.0472116e-38 254 280
-0.080574431 0.70700002 -0.049584266 1.0011504e-38 255 280
-0.079334825 0.70700002 -0.049584266 1.0010069e-38 256 280
-0.07809522 0.70700002 -0.049584266 9.3672206e-39 257 280
-0.07761655 0.71399999 -0.050075196 6.703994e-39 258 280
-0.076257721 0.713 -0.050005067 7.2550154e-39 259 280
-0.075007595 0.713 -0.050005067 6.9795341e-39 260 280
-0.073860914 0.71399999 -0.050075196 7.7142293e-39 261 280
-0.072609037 0.71399999 -0.050075196 1.0101949e-38 262 280
-0.071357153 0.71399999 -0.050075196 1.0469296e-38 263 280
-0.070105277 0.71399999 -0.050075196 1.1113209e-38 264 280
-0.068853401 0.71399999 -0.050075196 1.12976e-38 265 280
-0.067601517 0.71399999 -0.050075196 1.1481616e-38 266 280
-0.066535495 0.71600002 -0.050215468 1.1205389e-38 267 280
-0.06528011 0.71600002 -0.050215468 1.1663129e-38 268 280
-0.064114138 0.71700001 -0.0502856 1.1571292e-38 269 280
-0.062856995 0.71700001 -0.0502856 1.1663129e-38 270 280
-0.061771683 0.71899998 -0.050425861 1.1571292e-38 271 280
-0.060511041 0.71899998 -0.050425861 1.1112116e-38 272 280
-0.059250388 0.71899998 -0.050425861 1.1479462e-38 273 280
-0.058070403 0.72000003 -0.050496001 1.08384e-38 274 280
-0.056808002 0.72000003 -0.050496001 1.1022793e-38 275 280
-0.055545598 0.72000003 -0.050496001 1.1296505e-38 276 280
-0.054283202 0.72000003 -0.050496001 1.1296505e-38 277 280
-0.053241719 0.72299999 -0.050706398 1.1479475e-38 278 280
-0.051974058 0.72299999 -0.050706398 1.12958e-38 279 280
-0.050846666 0.72500002 -0.050846666 1.1938644e-38 280 280
-0.049438741 0.72299999 -0.050706398 1.2122318e-38 281 280
-0.048171077 0.72299999 -0.050706398 1.2214149e-38 282 280
-0.047162913 0.727 -0.050986931 1.2214149e-38 283 280
-0.045951359 0.72799999 -0.051057063 1.2581492e-38 284 280
-0.044674929 0.72799999 -0.051057063 1.2397819e-38 285 280
-0.043398503 0.72799999 -0.051057063 1.2489657e-38 286 280
-0.042122077 0.72799999 -0.051057063 1.3684613e-38 287 280
-0.040845651 0.72799999 -0.051057063 1.3044982e-38 288 280
-0.032093015 0.704 -0.049373865 1.2492877e-38 294 280
-0.030858666 0.704 -0.049373865 1.2492877e-38 295 280
-0.028228667 0.69999999 -0.049093332 1.2307051e-38 297 280
-0.026924185 0.69800001 -0.048953064 1.2948833e-38 298 280
-0.025700359 0.69800001 -0.048953064 1.2948833e-38 299 280
-0.0244064 0.69599998 -0.048812799 1.2582206e-38 300 280
-0.023186078 0.69599998 -0.048812799 1.2674401e-38 301 280
-0.021965759 0.69599998 -0.048812799 1.2857348e-38 302 280
-0.020745439 0.69599998 -0.048812799 1.2857348e-38 303 280
-0.019525118 0.69599998 -0.048812799 1.2581487e-38 304 280
-0.0012396066 0.70700002 -0.049584266 1.2490711e-38 319 280
0 0.70700002 -0.049584266 1.2307767e-38 320 280
0.0012396066 0.70700002 -0.049584266 1.2307767e-38 321 280
0.0024792133 0.70700002 -0.049584266 1.2309213e-38 322 280
0.0037188199 0.70700002 -0.049584266 1.2401409e-38 323 280
0.0076585598 0.72799999 -0.051057063 1.2492164e-38 326 280
0.0089349858 0.72799999 -0.051057063 1.2307414e-38 327 280
0.010211413 0.72799999 -0.051057063 1.248965e-38 328 280
0.01147206 0.727 -0.050986931 1.2581487e-38 329 280
0.012746733 0.727 -0.050986931 1.1848238e-38 330 280
0.013982833 0.72500002 -0.050846666 1.1756042e-38 331 280
0.015254001 0.72500002 -0.050846666 1.16642e-38 332 280
0.016525166 0.72500002 -0.050846666 1.1479448e-38 333 280
0.017796334 0.72500002 -0.050846666 1.1387611e-38 334 280
0.019014901 0.72299999 -0.050706398 1.1572003e-38 335 280
0.020254506 0.722 -0.050636265 1.1663493e-38 336 280
0.021520413 0.722 -0.050636265 1.1847885e-38 337 280
0.02281788 0.72299999 -0.050706398 1.1756408e-38 338 280
0.024085538 0.72299999 -0.050706398 1.1756408e-38 339 280
0.025318133 0.722 -0.050636265 1.1390499e-38 340 280
0.026584039 0.722 -0.050636265 1.1298304e-38 341 280
0.027849946 0.722 -0.050636265 1.14809e-38 342 280
0.029115854 0.722 -0.050636265 1.14809e-38 343 280
0.030381758 0.722 -0.050636265 1.1205755e-38 344 280
0.031516165 0.71899998 -0.050425861 1.1390505e-38 345 280
0.032776814 0.71899998 -0.050425861 1.1114285e-38 346 280
0.034084801 0.72000003 -0.050496001 1.102209e-38 347 280
0.035347197 0.72000003 -0.050496001 1.1295811e-38 348 280
0.036558751 0.71899998 -0.050425861 1.1479843e-38 349 280
0.037714198 0.71700001 -0.0502856 1.1390152e-38 350 280
0.038971342 0.71700001 -0.0502856 1.1390152e-38 351 280
0.040172372 0.71600002 -0.050215468 1.1297585e-38 352 280
0.041427758 0.71600002 -0.050215468 1.1481616e-38 353 280
0.042683143 0.71600002 -0.050215468 1.1114638e-38 354 280
0.043815799 0.71399999 -0.050075196 1.0930247e-38 355 280
0.045067675 0.71399999 -0.050075196 1.1204686e-38 356 280
0.046319555 0.71399999 -0.050075196 1.1112489e-38 357 280
0.047571439 0.71399999 -0.050075196 1.1112853e-38 358 280
0.048823316 0.71399999 -0.050075196 1.1297603e-38 359 280
0.050075196 0.71399999 -0.050075196 1.1113935e-38 360 280
0.05132708 0.71399999 -0.050075196 1.1113935e-38 361 280
0.052578956 0.71399999 -0.050075196 1.1021737e-38 362 280
0.053830836 0.71399999 -0.050075196 1.1021737e-38 363 280
0.05508272 0.71399999 -0.050075196 1.0839499e-38 364 280
0.056492399 0.71600002 -0.050215468 1.0654749e-38 365 280
0.057828441 0.71700001 -0.0502856 1.0562203e-38 366 280
0.059250388 0.71899998 -0.050425861 1.0562203e-38 367 280
0.060511041 0.71899998 -0.050425861 9.6452887e-39 368 280
0.062029421 0.722 -0.050636265 9.6452887e-39 369 280
0.063821331 0.72799999 -0.051057063 8.0847957e-39 370 280
-0.10197386 0.727 -0.052261602 1.0744778e-38 240 281
-0.10042217 0.72500002 -0.052117832 1.3228321e-38 241 281
-0.099151 0.72500002 -0.052117832 1.3504547e-38 242 281
-0.097879834 0.72500002 -0.052117832 1.2951732e-38 243 281
-0.096608669 0.72500002 -0.052117832 1.2673688e-38 244 281
-0.095074497 0.72299999 -0.051974058 1.2122307e-38 245 281
-0.093806833 0.72299999 -0.051974058 1.1112101e-38 246 281
-0.092411183 0.722 -0.051902171 1.0469247e-38 247 281
-0.090892807 0.72000003 -0.051758397 7.806027e-39 248 281
-0.089630403 0.72000003 -0.051758397 8.2652115e-39 249 281
-0.088367999 0.72000003 -0.051758397 9.9182616e-39 250 281
-0.087105595 0.72000003 -0.051758397 1.0469283e-38 251 281
-0.084412478 0.708 -0.050895758 9.9182658e-39 252 281
-0.083171122 0.708 -0.050895758 1.0010103e-38 253 281
-0.081814043 0.70700002 -0.050823875 1.0379957e-38 254 281
-0.080460466 0.70599997 -0.050751984 1.0841294e-38 255 281
-0.079222605 0.70599997 -0.050751984 1.2309584e-38 256 281
-0.07798475 0.70599997 -0.050751984 1.1756411e-38 257 281
-0.076746903 0.70599997 -0.050751984 9.4590673e-39 258 281
-0.07561601 0.70700002 -0.050823875 8.2651947e-39 259 281
-0.074376404 0.70700002 -0.050823875 4.3162683e-39 260 281
-0.073550582 0.71100003 -0.051111419 5.4182943e-39 261 281
-0.072507344 0.713 -0.051255193 8.999894e-39 262 281
-0.071357153 0.71399999 -0.05132708 9.8264247e-39 263 281
-0.070007093 0.713 -0.051255193 1.0836978e-38 264 281
-0.068756968 0.713 -0.051255193 1.1482348e-38 265 281
-0.067506835 0.713 -0.051255193 1.1481269e-38 266 281
-0.066256717 0.713 -0.051255193 1.1204683e-38 267 281
-0.065097757 0.71399999 -0.05132708 1.1663849e-38 268 281
-0.063845873 0.71399999 -0.05132708 1.1663849e-38 269 281
-0.062593997 0.71399999 -0.05132708 1.1480178e-38 270 281
-0.061513945 0.71600002 -0.051470853 1.1480178e-38 271 281
-0.06025856 0.71600002 -0.051470853 1.1387631e-38 272 281
-0.059085581 0.71700001 -0.051542737 1.1663859e-38 273 281
-0.057989739 0.71899998 -0.05168651 1.111571e-38 274 281
-0.056729097 0.71899998 -0.05168651 1.1023515e-38 275 281
-0.055468451 0.71899998 -0.05168651 1.1571294e-38 276 281
-0.054207806 0.71899998 -0.05168651 1.138762e-38 277 281
-0.053020801 0.72000003 -0.051758397 1.1846804e-38 278 281
-0.051902171 0.722 -0.051902171 1.2306347e-38 279 281
-0.050636265 0.722 -0.051902171 1.2031205e-38 280 281
-0.049438741 0.72299999 -0.051974058 1.2215597e-38 281 281
-0.048171077 0.72299999 -0.051974058 1.2309229e-38 282 281
-0.047162913 0.727 -0.052261602 1.2770567e-38 283 281
-0.041729331 0.69999999 -0.050320663 1.3503463e-38 286 281
-0.040386278 0.69800001 -0.050176892 1.3411266e-38 287 281
-0.039162453 0.69800001 -0.050176892 1.2860963e-38 288 281
-0.037938625 0.69800001 -0.050176892 1.2676572e-38 289 281
-0.0367148 0.69800001 -0.050176892 1.2491458e-38 290 281
-0.032093015 0.704 -0.050608214 1.2584373e-38 294 281
-0.030814834 0.70300001 -0.050536323 1.2584373e-38 295 281
-0.029455997 0.69999999 -0.050320663 1.2767323e-38 296 281
-0.028228667 0.69999999 -0.050320663 1.2675126e-38 297 281
-0.026924185 0.69800001 -0.050176892 1.276732e-38 298 281
-0.025700359 0.69800001 -0.050176892 1.2951711e-38 299 281
-0.024441468 0.69700003 -0.050105009 1.2584011e-38 300 281
-0.023186078 0.69599998 -0.050033119 1.2952433e-38 301 281
-0.021965759 0.69599998 -0.050033119 1.2859884e-38 302 281
-0.020745439 0.69599998 -0.050033119 1.2859884e-38 303 281
-0.019525118 0.69599998 -0.050033119 1.3137544e-38 304 281
0 0.70700002 -0.050823875 1.2311733e-38 320 281
0.0012396066 0.70700002 -0.050823875 1.194331e-38 321 281
0.0024792133 0.70700002 -0.050823875 1.2219181e-38 322 281
0.0037188199 0.70700002 -0.050823875 1.2311735e-38 323 281
0.0049584266 0.70700002 -0.050823875 1.2585099e-38 324 281
0.011361601 0.72000003 -0.051758397 1.2308512e-38 329 281
0.012624 0.72000003 -0.051758397 1.2033e-38 330 281
0.0138864 0.72000003 -0.051758397 1.2033e-38 331 281
0.0151488 0.72000003 -0.051758397 1.1666013e-38 332 281
0.016456785 0.722 -0.051902171 1.1573817e-38 333 281
0.017673599 0.72000003 -0.051758397 1.1482698e-38 334 281
0.018935999 0.72000003 -0.051758397 1.1298307e-38 335 281
0.020198401 0.72000003 -0.051758397 1.1665291e-38 336 281
0.021460801 0.72000003 -0.051758397 1.1665291e-38 337 281
0.022786319 0.722 -0.051902171 1.1573817e-38 338 281
0.024052227 0.722 -0.051902171 1.1481622e-38 339 281
0.025318133 0.722 -0.051902171 1.148055e-38 340 281
0.026510401 0.72000003 -0.051758397 1.1572745e-38 341 281
0.027772799 0.72000003 -0.051758397 1.1297235e-38 342 281
0.029035201 0.72000003 -0.051758397 1.1297235e-38 343 281
0.030255521 0.71899998 -0.05168651 1.1205758e-38 344 281
0.031384666 0.71600002 -0.051470853 1.1390149e-38 345 281
0.032548878 0.71399999 -0.05132708 1.1297235e-38 346 281
0.033800758 0.71399999 -0.05132708 1.1573461e-38 347 281
0.035298105 0.71899998 -0.05168651 1.1297953e-38 348 281
0.036406212 0.71600002 -0.051470853 1.1205758e-38 349 281
0.037556399 0.71399999 -0.05132708 1.1390505e-38 350 281
0.038808275 0.71399999 -0.05132708 1.1390505e-38 351 281
0.040060159 0.71399999 -0.05132708 1.129867e-38 352 281
0.041312039 0.71399999 -0.05132708 1.1114638e-38 353 281
0.042563915 0.71399999 -0.05132708 1.1390505e-38 354 281
0.043754432 0.713 -0.051255193 1.1482701e-38 355 281
0.045004558 0.713 -0.051255193 1.1482698e-38 356 281
0.046124939 0.71100003 -0.051111419 1.1390502e-38 357 281
0.047371563 0.71100003 -0.051111419 1.1114638e-38 358 281
0.048754938 0.713 -0.051255193 1.0930247e-38 359 281
0.050005067 0.713 -0.051255193 1.0929171e-38 360 281
0.051111419 0.71100003 -0.051111419 1.0929171e-38 361 281
0.052358042 0.71100003 -0.051111419 1.0930613e-38 362 281
0.053755447 0.713 -0.051255193 1.1022809e-38 363 281
0.055005573 0.713 -0.051255193 1.0747301e-38 364 281
0.0563346 0.71399999 -0.05132708 1.0655105e-38 365 281
0.057747785 0.71600002 -0.051470853 1.0011533e-38 366 281
0.059003171 0.71600002 -0.051470853 9.9193378e-39 367 281
0.06025856 0.71600002 -0.051470853 8.6325731e-39 368 281
0.062029421 0.722 -0.051902171 8.4488993e-39 369 281
-0.1014128 0.72299999 -0.053241719 1.157419e-38 240 282
-0.10014514 0.72299999 -0.053241719 1.2680538e-38 241 282
-0.098877482 0.72299999 -0.053241719 1.3504903e-38 242 282
-0.097609811 0.72299999 -0.053241719 1.2951729e-38 243 282
-0.096342154 0.72299999 -0.053241719 1.3132864e-38 244 282
-0.095074497 0.72299999 -0.053241719 1.2948832e-38 245 282
-0.093677096 0.722 -0.053168077 1.1754956e-38 246 282
-0.092411183 0.722 -0.053168077 1.0928424e-38 247 282
-0.090892807 0.72000003 -0.053020801 8.9998982e-39 248 282
-0.089630403 0.72000003 -0.053020801 8.9998982e-39 249 282
-0.088367999 0.72000003 -0.053020801 8.3570708e-39 250 282
-0.086621679 0.71600002 -0.052726239 8.0815601e-39 251 282
-0.084293254 0.70700002 -0.05206348 8.0815685e-39 252 282
-0.083053641 0.70700002 -0.05206348 8.1734054e-39 253 282
-0.081814043 0.70700002 -0.05206348 8.1741229e-39 254 282
-0.080460466 0.70599997 -0.051989835 9.0038849e-39 255 282
-0.078998186 0.704 -0.051842559 1.1665307e-38 256 282
-0.077763841 0.704 -0.051842559 1.1757502e-38 257 282
-0.076529488 0.704 -0.051842559 1.1296139e-38 258 282
-0.075295143 0.704 -0.051842559 1.0469248e-38 259 282
-0.07406079 0.704 -0.051842559 9.4590575e-39 260 282
-0.07303334 0.70599997 -0.051989835 8.9080431e-39 261 282
-0.072507344 0.713 -0.052505318 5.7856391e-39 262 282
-0.071357153 0.71399999 -0.052578956 6.3366604e-39 263 282
-0.069810718 0.71100003 -0.052358042 7.6223742e-39 264 282
-0.068564095 0.71100003 -0.052358042 8.4514174e-39 265 282
-0.067317478 0.71100003 -0.052358042 1.092846e-38 266 282
-0.066256717 0.713 -0.052505318 1.1480199e-38 267 282
-0.065006584 0.713 -0.052505318 1.2122315e-38 268 282
-0.063845873 0.71399999 -0.052578956 1.2214152e-38 269 282
-0.062593997 0.71399999 -0.052578956 1.2214868e-38 270 282
-0.061342116 0.71399999 -0.052578956 1.1938641e-38 271 282
-0.060090236 0.71399999 -0.052578956 1.2030837e-38 272 282
-0.059003171 0.71600002 -0.052726239 1.2307064e-38 273 282
-0.057747785 0.71600002 -0.052726239 1.1848957e-38 274 282
-0.056571297 0.71700001 -0.052799881 1.1480534e-38 275 282
-0.055237014 0.71600002 -0.052726239 1.2122304e-38 276 282
-0.053981625 0.71600002 -0.052726239 1.249001e-38 277 282
-0.052799881 0.71700001 -0.052799881 1.2491089e-38 278 282
-0.051902171 0.722 -0.053168077 1.2491089e-38 279 282
-0.050636265 0.722 -0.053168077 1.2767317e-38 280 282
-0.04937036 0.722 -0.053168077 1.2952067e-38 281 282
-0.046705291 0.70099998 -0.051621638 1.2861313e-38 282 282
-0.045476202 0.70099998 -0.051621638 1.2769118e-38 283 282
-0.044247117 0.70099998 -0.051621638 1.3042115e-38 284 282
-0.042956665 0.69999999 -0.051547997 1.3042115e-38 285 282
-0.041729331 0.69999999 -0.051547997 1.2858812e-38 286 282
-0.040386278 0.69800001 -0.051400717 1.2766617e-38 287 282
-0.039162453 0.69800001 -0.051400717 1.2766263e-38 288 282
-0.037938625 0.69800001 -0.051400717 1.2490035e-38 289 282
-0.0367148 0.69800001 -0.051400717 1.2673343e-38 290 282
-0.035592664 0.69999999 -0.051547997 1.2949211e-38 291 282
-0.032047424 0.70300001 -0.051768921 1.2766249e-38 294 282
-0.030683333 0.69999999 -0.051547997 1.3042478e-38 295 282
-0.029371841 0.69800001 -0.051400717 1.2766249e-38 296 282
-0.028148014 0.69800001 -0.051400717 1.2766249e-38 297 282
-0.026885614 0.69700003 -0.051327083 1.2491104e-38 298 282
-0.025626717 0.69599998 -0.051253434 1.2398909e-38 299 282
-0.0244064 0.69599998 -0.051253434 1.2490754e-38 300 282
-0.023119451 0.69400001 -0.051106159 1.2582951e-38 301 282
-0.021902639 0.69400001 -0.051106159 1.2582954e-38 302 282
-0.020685827 0.69400001 -0.051106159 1.2398203e-38 303 282
-0.019469013 0.69400001 -0.051106159 1.2398556e-38 304 282
-0.0182522 0.69400001 -0.051106159 1.2583307e-38 305 282
-0.017035386 0.69400001 -0.051106159 1.2492181e-38 306 282
-0.015818574 0.69400001 -0.051106159 1.2492181e-38 307 282
-0.014580719 0.69300002 -0.051032521 1.2216313e-38 308 282
-0.01336566 0.69300002 -0.051032521 1.230851e-38 309 282
-0.0097345067 0.69400001 -0.051106159 1.2401414e-38 312 282
-0.0085176928 0.69400001 -0.051106159 1.249361e-38 313 282
-0.0073008798 0.69400001 -0.051106159 1.2676201e-38 314 282
-0.0060840664 0.69400001 -0.051106159 1.2584005e-38 315 282
-0.00486024 0.69300002 -0.051032521 1.28588e-38 316 282
0 0.70599997 -0.051989835 1.2123395e-38 320 282
0.0012378532 0.70599997 -0.051989835 1.221595e-38 321 282
0.0024757064 0.70599997 -0.051989835 1.221595e-38 322 282
0.0037135598 0.70599997 -0.051989835 1.2584373e-38 323 282
0.0061717331 0.704 -0.051842559 1.21252e-38 325 282
0.0074060797 0.704 -0.051842559 1.2308159e-38 326 282
0.0086404262 0.704 -0.051842559 1.2308159e-38 327 282
0.010099201 0.72000003 -0.053020801 1.2400711e-38 328 282
0.011361601 0.72000003 -0.053020801 1.2308515e-38 329 282
0.012624 0.72000003 -0.053020801 1.230851e-38 330 282
0.0138864 0.72000003 -0.053020801 1.2401064e-38 331 282
0.0151488 0.72000003 -0.053020801 1.2126267e-38 332 282
0.0164112 0.72000003 -0.053020801 1.1941874e-38 333 282
0.017673599 0.72000003 -0.053020801 1.1941508e-38 334 282
0.018935999 0.72000003 -0.053020801 1.1941508e-38 335 282
0.020198401 0.72000003 -0.053020801 1.1941152e-38 336 282
0.021460801 0.72000003 -0.053020801 1.1848957e-38 337 282
0.022786319 0.722 -0.053168077 1.1848603e-38 338 282
0.024052227 0.722 -0.053168077 1.1848603e-38 339 282
0.025318133 0.722 -0.053168077 1.1758209e-38 340 282
0.026510401 0.72000003 -0.053020801 1.1573817e-38 341 282
0.027734226 0.71899998 -0.05294716 1.1664215e-38 342 282
0.028994869 0.71899998 -0.05294716 1.1664215e-38 343 282
0.030255521 0.71899998 -0.05294716 1.1297951e-38 344 282
