# .PCD v.7 - Point Cloud Data file format
FIELDS x y z rgb imX imY
SIZE 4 4 4 4 4 4
TYPE F F F F F F
COUNT 1 1 1 1 1 1
WIDTH 834
HEIGHT 1
VIEWPOINT 0 0 0 1 0 0 0
POINTS 834
DATA ascii
-0.063821331 0.72799999 -0.044674929 8.0948346e-39 270 275
-0.062544905 0.72799999 -0.044674929 8.0948346e-39 271 275
-0.061268479 0.72799999 -0.044674929 8.1873988e-39 272 275
-0.059909642 0.727 -0.044613566 8.3721502e-39 273 275
-0.058473669 0.72500002 -0.044490833 8.0948528e-39 274 275
-0.057044696 0.72299999 -0.044368099 8.2792455e-39 275 275
-0.055468451 0.71899998 -0.044122629 7.1815551e-39 276 275
-0.053981625 0.71600002 -0.043938532 8.6566852e-39 277 275
-0.052578956 0.71399999 -0.043815799 9.7731291e-39 278 275
-0.051255193 0.713 -0.043754432 1.2815584e-38 279 275
-0.049864799 0.71100003 -0.043631699 1.4012686e-38 280 275
-0.048549797 0.70999998 -0.043570329 1.3828294e-38 281 275
-0.047171678 0.708 -0.043447599 1.3552777e-38 282 275
-0.045865446 0.70700002 -0.043386232 1.3829363e-38 283 275
-0.044562716 0.70599997 -0.043324865 1.3738247e-38 284 275
-0.043202132 0.704 -0.043202132 1.364605e-38 285 275
-0.041908171 0.70300001 -0.043140765 1.4286745e-38 286 275
-0.040559858 0.70099998 -0.043018032 1.4379299e-38 287 275
-0.039274666 0.69999999 -0.042956665 1.4286382e-38 288 275
-0.037938625 0.69800001 -0.042833932 1.3641013e-38 289 275
-0.0367148 0.69800001 -0.042833932 1.456008e-38 290 275
-0.035440128 0.69700003 -0.042772565 1.5943014e-38 291 275
-0.034218054 0.69700003 -0.042772565 1.6947791e-38 292 275
-0.032948639 0.69599998 -0.042711195 9.6639778e-39 293 275
-0.031728316 0.69599998 -0.042711195 1.5657432e-38 294 275
-0.030507999 0.69599998 -0.042711195 2.2019291e-38 295 275
-0.029287677 0.69599998 -0.042711195 2.3496946e-38 296 275
-0.028067358 0.69599998 -0.042711195 2.0358693e-38 297 275
-0.026847038 0.69599998 -0.042711195 1.8509716e-38 298 275
-0.025626717 0.69599998 -0.042711195 1.8970695e-38 299 275
-0.024441468 0.69700003 -0.042772565 1.905569e-38 300 275
-0.023219392 0.69700003 -0.042772565 1.6935191e-38 301 275
-0.02202888 0.69800001 -0.042833932 1.5095241e-38 302 275
-0.020805053 0.69800001 -0.042833932 1.5279272e-38 303 275
-0.019356798 0.69 -0.042342998 1.5740263e-38 304 275
-0.018068098 0.68699998 -0.042158898 1.6108687e-38 305 275
-0.0169372 0.69 -0.042342998 1.546692e-38 306 275
-0.015818574 0.69400001 -0.042588469 1.7033886e-38 307 275
-0.01460176 0.69400001 -0.042588469 1.7775769e-38 308 275
-0.013384946 0.69400001 -0.042588469 1.6485031e-38 309 275
-0.012168133 0.69400001 -0.042588469 1.5273537e-38 310 275
-0.010935539 0.69300002 -0.042527102 1.4167191e-38 311 275
-0.0097204801 0.69300002 -0.042527102 1.4996223e-38 312 275
-0.0085054198 0.69300002 -0.042527102 1.6194764e-38 313 275
-0.0072903596 0.69300002 -0.042527102 1.4180119e-38 314 275
-0.0060314666 0.68800002 -0.042220265 1.4825488e-38 315 275
-0.0048251734 0.68800002 -0.042220265 1.3636302e-38 316 275
-0.0036188802 0.68800002 -0.042220265 1.3636302e-38 317 275
-0.0024125867 0.68800002 -0.042220265 1.2628261e-38 318 275
-0.0012062934 0.68800002 -0.042220265 1.2167284e-38 319 275
0 0.68800002 -0.042220265 1.2713251e-38 320 275
0.0012115532 0.69099998 -0.042404365 1.1975686e-38 321 275
0.0024231065 0.69099998 -0.042404365 1.2704951e-38 322 275
0.0036346598 0.69099998 -0.042404365 1.2520558e-38 323 275
0.0048462129 0.69099998 -0.042404365 1.2703508e-38 324 275
0.0060577663 0.69099998 -0.042404365 1.3164127e-38 325 275
0.0072693196 0.69099998 -0.042404365 1.2799317e-38 326 275
0.008480873 0.69099998 -0.042404365 1.2707122e-38 327 275
0.0096924258 0.69099998 -0.042404365 1.2617443e-38 328 275
0.01090398 0.69099998 -0.042404365 1.3170616e-38 329 275
0.012115533 0.69099998 -0.042404365 1.2621756e-38 330 275
0.01336566 0.69300002 -0.042527102 1.2621756e-38 331 275
0.014580719 0.69300002 -0.042527102 1.2529566e-38 332 275
0.015795778 0.69300002 -0.042527102 1.2437012e-38 333 275
0.01701084 0.69300002 -0.042527102 1.104689e-38 334 275
0.018225901 0.69300002 -0.042527102 1.0309325e-38 335 275
0.019469013 0.69400001 -0.042588469 9.6650344e-39 336 275
0.020685827 0.69400001 -0.042588469 9.3884475e-39 337 275
0.021902639 0.69400001 -0.042588469 8.8359926e-39 338 275
0.023119451 0.69400001 -0.042588469 8.3750144e-39 339 275
0.024336265 0.69400001 -0.042588469 8.1902728e-39 340 275
0.025626717 0.69599998 -0.042711195 7.9136873e-39 341 275
0.026885614 0.69700003 -0.042772565 7.3655568e-39 342 275
0.028107686 0.69700003 -0.042772565 8.1031219e-39 343 275
0.029371841 0.69800001 -0.042833932 8.1034862e-39 344 275
0.030595668 0.69800001 -0.042833932 8.1034862e-39 345 275
0.031910665 0.69999999 -0.042956665 8.3779137e-39 346 275
0.033137999 0.69999999 -0.042956665 8.1009681e-39 347 275
0.034365334 0.69999999 -0.042956665 8.7466878e-39 348 275
0.035643511 0.70099998 -0.043018032 9.8530354e-39 349 275
0.036977798 0.70300001 -0.043140765 9.4899968e-39 350 275
0.038210396 0.70300001 -0.043140765 9.7665851e-39 351 275
0.039499093 0.704 -0.043202132 9.8573514e-39 352 275
0.040733438 0.704 -0.043202132 9.396732e-39 353 275
0.042087011 0.70599997 -0.043324865 9.2112631e-39 354 275
0.043386232 0.70700002 -0.043386232 9.1190661e-39 355 275
0.044625837 0.70700002 -0.043386232 7.7382812e-39 356 275
0.045930319 0.708 -0.043447599 7.0929118e-39 357 275
0.047171678 0.708 -0.043447599 8.0076766e-39 358 275
0.048549797 0.70999998 -0.043570329 8.0076766e-39 359 275
0.049794663 0.70999998 -0.043570329 7.4552301e-39 360 275
0.051039528 0.70999998 -0.043570329 6.9942506e-39 361 275
0.052284397 0.70999998 -0.043570329 6.9931786e-39 362 275
0.053604662 0.71100003 -0.043631699 6.7162316e-39 363 275
0.054851279 0.71100003 -0.043631699 7.7264276e-39 364 275
0.056097899 0.71100003 -0.043631699 8.371797e-39 365 275
0.057586476 0.71399999 -0.043815799 7.3662729e-39 366 275
0.059003171 0.71600002 -0.043938532 7.3662729e-39 367 275
0.06025856 0.71600002 -0.043938532 7.4563203e-39 368 275
0.061599858 0.71700001 -0.043999899 7.2722892e-39 369 275
0.063295327 0.722 -0.044306733 7.0882609e-39 370 275
0.064561233 0.722 -0.044306733 7.0882609e-39 371 275
0.065827139 0.722 -0.044306733 7.2708515e-39 372 275
0.067185976 0.72299999 -0.044368099 7.2708515e-39 373 275
0.06845364 0.72299999 -0.044368099 7.3619541e-39 374 275
0.069721296 0.72299999 -0.044368099 6.9009773e-39 375 275
0.071185336 0.72500002 -0.044490833 6.7144211e-39 376 275
0.072656378 0.727 -0.044613566 6.0690517e-39 377 275
0.074236132 0.73000002 -0.044797666 5.3329314e-39 378 275
0.075619511 0.73100001 -0.044859033 3.3060779e-39 379 275
0.076901197 0.73100001 -0.044859033 4.1325987e-39 380 275
0.078182884 0.73100001 -0.044859033 1.4642542e-38 381 275
-0.073855661 0.73900002 -0.046645679 9.3812448e-39 263 276
-0.072461754 0.73799998 -0.046582557 8.7380362e-39 264 276
-0.070974931 0.736 -0.046456318 8.6458406e-39 265 276
-0.069495119 0.73400003 -0.046330083 8.5536449e-39 266 276
-0.068208173 0.73400003 -0.046330083 8.5536449e-39 267 276
-0.066830046 0.73299998 -0.046266954 8.5536477e-39 268 276
-0.065544859 0.73299998 -0.046266954 8.4610934e-39 269 276
-0.063821331 0.72799999 -0.045951359 8.2777839e-39 270 276
-0.062544905 0.72799999 -0.045951359 8.3699795e-39 271 276
-0.061184317 0.727 -0.045888241 8.2795818e-39 272 276
-0.059909642 0.727 -0.045888241 8.5558099e-39 273 276
-0.058473669 0.72500002 -0.045761999 8.7394879e-39 274 276
-0.057044696 0.72299999 -0.04563576 8.7394879e-39 275 276
-0.055468451 0.71899998 -0.045383278 7.4534463e-39 276 276
-0.054057021 0.71700001 -0.045257039 7.4534463e-39 277 276
-0.052578956 0.71399999 -0.045067675 7.278801e-39 278 276
-0.051255193 0.713 -0.045004558 1.0413813e-38 279 276
-0.049864799 0.71100003 -0.044878319 1.3459878e-38 280 276
-0.048549797 0.70999998 -0.044815198 1.3920856e-38 281 276
-0.047171678 0.708 -0.044688959 1.355278e-38 282 276
-0.045865446 0.70700002 -0.044625837 1.3829007e-38 283 276
-0.044562716 0.70599997 -0.044562716 1.3646048e-38 284 276
-0.043202132 0.704 -0.044436477 1.3553852e-38 285 276
-0.041908171 0.70300001 -0.04437336 1.4011237e-38 286 276
-0.040559858 0.70099998 -0.044247117 1.4011237e-38 287 276
-0.039274666 0.69999999 -0.044183996 1.4286026e-38 288 276
-0.037938625 0.69800001 -0.04405776 1.4286026e-38 289 276
-0.0367148 0.69800001 -0.04405776 1.4286382e-38 290 276
-0.035440128 0.69700003 -0.043994639 1.4931752e-38 291 276
-0.034168959 0.69599998 -0.043931518 1.9442848e-38 292 276
-0.032948639 0.69599998 -0.043931518 1.8890033e-38 293 276
-0.031637147 0.69400001 -0.043805279 1.1602275e-38 294 276
-0.030420333 0.69400001 -0.043805279 1.5013513e-38 295 276
-0.029203519 0.69400001 -0.043805279 2.3027344e-38 296 276
-0.027986705 0.69400001 -0.043805279 2.1091236e-38 297 276
-0.026769891 0.69400001 -0.043805279 1.8139512e-38 298 276
-0.025553079 0.69400001 -0.043805279 1.9799392e-38 299 276
-0.024231065 0.69099998 -0.043615919 2.1087584e-38 300 276
-0.023019511 0.69099998 -0.043615919 1.6846587e-38 301 276
-0.021776399 0.69 -0.043552797 1.4905435e-38 302 276
-0.020566599 0.69 -0.043552797 1.5089828e-38 303 276
-0.019356798 0.69 -0.043552797 1.5740257e-38 304 276
-0.018068098 0.68699998 -0.043363437 1.6478181e-38 305 276
-0.0169372 0.69 -0.043552797 1.583534e-38 306 276
-0.015727401 0.69 -0.043552797 1.6757656e-38 307 276
-0.014517599 0.69 -0.043552797 1.6850924e-38 308 276
-0.013327086 0.69099998 -0.043615919 1.5283239e-38 309 276
-0.012115533 0.69099998 -0.043615919 1.4722878e-38 310 276
-0.01090398 0.69099998 -0.043615919 1.5276052e-38 311 276
-0.0096783992 0.69 -0.043552797 1.4733318e-38 312 276
-0.0084686 0.69 -0.043552797 1.5193937e-38 313 276
-0.0072377604 0.68800002 -0.043426562 1.3357922e-38 314 276
-0.0060314666 0.68800002 -0.043426562 1.3726346e-38 315 276
-0.0048251734 0.68800002 -0.043426562 1.3635227e-38 316 276
-0.0036188802 0.68800002 -0.043426562 1.3450836e-38 317 276
-0.0024125867 0.68800002 -0.043426562 1.2073292e-38 318 276
-0.0012062934 0.68800002 -0.043426562 1.1151337e-38 319 276
0 0.68800002 -0.043426562 1.0317244e-38 320 276
0.0012062934 0.68800002 -0.043426562 1.0040296e-38 321 276
0.0024125867 0.68800002 -0.043426562 1.1601849e-38 322 276
0.0036346598 0.69099998 -0.043615919 1.1417099e-38 323 276
0.0048462129 0.69099998 -0.043615919 1.233366e-38 324 276
0.0060577663 0.69099998 -0.043615919 1.2610606e-38 325 276
0.0072587994 0.69 -0.043552797 1.2520578e-38 326 276
0.0084686 0.69 -0.043552797 1.288936e-38 327 276
0.0096783992 0.69 -0.043552797 1.2617806e-38 328 276
0.010888199 0.69 -0.043552797 1.2986948e-38 329 276
0.012097999 0.69 -0.043552797 1.2345895e-38 330 276
0.013327086 0.69099998 -0.043615919 1.2253699e-38 331 276
0.014538639 0.69099998 -0.043615919 1.2438812e-38 332 276
0.015750192 0.69099998 -0.043615919 1.2438812e-38 333 276
0.01701084 0.69300002 -0.043742158 1.1048325e-38 334 276
0.018225901 0.69300002 -0.043742158 1.0402955e-38 335 276
0.01944096 0.69300002 -0.043742158 1.0128517e-38 336 276
0.020685827 0.69400001 -0.043805279 1.0035962e-38 337 276
0.021902639 0.69400001 -0.043805279 9.4817151e-39 338 276
0.023119451 0.69400001 -0.043805279 8.6519558e-39 339 276
0.024336265 0.69400001 -0.043805279 8.2821027e-39 340 276
0.025626717 0.69599998 -0.043931518 8.6505265e-39 341 276
0.026885614 0.69700003 -0.043994639 8.5655167e-39 342 276
0.028107686 0.69700003 -0.043994639 9.6722244e-39 343 276
0.029371841 0.69800001 -0.04405776 1.0134272e-38 344 276
0.030595668 0.69800001 -0.04405776 1.0595251e-38 345 276
0.031910665 0.69999999 -0.044183996 1.0962232e-38 346 276
0.033137999 0.69999999 -0.044183996 9.8562429e-39 347 276
0.034365334 0.69999999 -0.044183996 9.3927607e-39 348 276
0.035643511 0.70099998 -0.044247117 9.6697063e-39 349 276
0.036977798 0.70300001 -0.04437336 9.7647858e-39 350 276
0.038210396 0.70300001 -0.04437336 9.7647858e-39 351 276
0.039499093 0.704 -0.044436477 9.3945613e-39 352 276
0.040733438 0.704 -0.044436477 8.5648007e-39 353 276
0.042087011 0.70599997 -0.044562716 7.9154656e-39 354 276
0.043386232 0.70700002 -0.044625837 6.809118e-39 355 276
0.044625837 0.70700002 -0.044625837 6.622203e-39 356 276
0.045930319 0.708 -0.044688959 6.253782e-39 357 276
0.047171678 0.708 -0.044688959 5.8850304e-39 358 276
0.048549797 0.70999998 -0.044815198 6.7151498e-39 359 276
0.049794663 0.70999998 -0.044815198 7.2676327e-39 360 276
0.051039528 0.70999998 -0.044815198 9.1115453e-39 361 276
0.052284397 0.70999998 -0.044815198 1.0039244e-38 362 276
0.053604662 0.71100003 -0.044878319 8.5641126e-39 363 276
0.055005573 0.713 -0.045004558 8.0998751e-39 364 276
0.056255698 0.713 -0.045004558 8.0998751e-39 365 276
0.057828441 0.71700001 -0.045257039 7.6432171e-39 366 276
0.059085581 0.71700001 -0.045257039 7.2740745e-39 367 276
0.060511041 0.71899998 -0.045383278 7.363403e-39 368 276
0.061857603 0.72000003 -0.045446403 7.2712074e-39 369 276
0.063295327 0.722 -0.045572639 7.0875392e-39 370 276
0.064561233 0.722 -0.045572639 7.0875392e-39 371 276
0.065918319 0.72299999 -0.04563576 7.1786544e-39 372 276
0.067185976 0.72299999 -0.04563576 7.2708515e-39 373 276
0.06845364 0.72299999 -0.04563576 7.4541525e-39 374 276
0.069914162 0.72500002 -0.045761999 7.0853714e-39 375 276
0.071185336 0.72500002 -0.045761999 6.716935e-39 376 276
0.072656378 0.727 -0.045888241 5.7953388e-39 377 276
0.074236132 0.73000002 -0.046077598 4.8744714e-39 378 276
0.075826399 0.73299998 -0.046266954 2.3877229e-39 379 276
0.077111594 0.73299998 -0.046266954 5.1463975e-39 380 276
0.07839679 0.73299998 -0.046266954 1.7500612e-38 381 276
-0.070974931 0.736 -0.047746774 8.7391054e-39 265 277
-0.069495119 0.73400003 -0.047617026 8.7383893e-39 266 277
-0.068115242 0.73299998 -0.04755215 8.7383893e-39 267 277
-0.066830046 0.73299998 -0.04755215 8.6461937e-39 268 277
-0.065366022 0.73100001 -0.047422405 8.5539981e-39 269 277
-0.063821331 0.72799999 -0.047227785 8.2788559e-39 270 277
-0.062544905 0.72799999 -0.047227785 8.4632472e-39 271 277
-0.061184317 0.727 -0.047162913 8.4657681e-39 272 277
-0.059744831 0.72500002 -0.047033165 8.5579637e-39 273 277
-0.058312356 0.72299999 -0.046903417 8.6498062e-39 274 277
-0.057044696 0.72299999 -0.046903417 8.5576106e-39 275 277
-0.055468451 0.71899998 -0.046643924 8.0966493e-39 276 277
-0.054057021 0.71700001 -0.046514176 7.7282255e-39 277 277
-0.052726239 0.71600002 -0.046449307 6.5358326e-39 278 277
-0.051255193 0.713 -0.046254687 8.5641365e-39 279 277
-0.049864799 0.71100003 -0.046124939 1.1246466e-38 280 277
-0.048549797 0.70999998 -0.046060063 1.3182215e-38 281 277
-0.047171678 0.708 -0.045930319 1.3645341e-38 282 277
-0.045865446 0.70700002 -0.045865446 1.3645341e-38 283 277
-0.044562716 0.70599997 -0.04580057 1.34613e-38 284 277
-0.043202132 0.704 -0.045670826 1.34613e-38 285 277
-0.041908171 0.70300001 -0.04560595 1.4011237e-38 286 277
-0.040559858 0.70099998 -0.045476202 1.4011237e-38 287 277
-0.039274666 0.69999999 -0.04541133 1.4011237e-38 288 277
-0.037938625 0.69800001 -0.045281585 1.4011237e-38 289 277
-0.036662199 0.69700003 -0.045216713 1.4286748e-38 290 277
-0.035440128 0.69700003 -0.045216713 1.4563336e-38 291 277
-0.034168959 0.69599998 -0.045151837 1.5944825e-38 292 277
-0.032853961 0.69400001 -0.045022093 1.732776e-38 293 277
-0.031637147 0.69400001 -0.045022093 1.7684667e-38 294 277
-0.030420333 0.69400001 -0.045022093 1.6025144e-38 295 277
-0.029203519 0.69400001 -0.045022093 1.7591752e-38 296 277
-0.027946379 0.69300002 -0.044957221 1.8237122e-38 297 277
-0.02673132 0.69300002 -0.044957221 1.9886565e-38 298 277
-0.02551626 0.69300002 -0.044957221 2.0439739e-38 299 277
-0.024195999 0.69 -0.0447626 1.925699e-38 300 277
-0.022919573 0.68800002 -0.044632856 1.6491121e-38 301 277
-0.021713281 0.68800002 -0.044632856 1.6193287e-38 302 277
-0.020506985 0.68800002 -0.044632856 1.4718157e-38 303 277
-0.019300694 0.68800002 -0.044632856 1.518419e-38 304 277
-0.018068098 0.68699998 -0.044567976 1.5921756e-38 305 277
-0.01686356 0.68699998 -0.044567976 1.5465471e-38 306 277
-0.015659019 0.68699998 -0.044567976 1.6663656e-38 307 277
-0.014475521 0.68800002 -0.044632856 1.5745296e-38 308 277
-0.0133078 0.69 -0.0447626 1.5468708e-38 309 277
-0.012097999 0.69 -0.0447626 1.4275933e-38 310 277
-0.010888199 0.69 -0.0447626 1.5474117e-38 311 277
-0.0096783992 0.69 -0.0447626 1.4837032e-38 312 277
-0.0084686 0.69 -0.0447626 1.5205815e-38 313 277
-0.0072377604 0.68800002 -0.044632856 1.50225e-38 314 277
-0.0060314666 0.68800002 -0.044632856 1.4838107e-38 315 277
-0.0048251734 0.68800002 -0.044632856 1.3173172e-38 316 277
-0.0036188802 0.68800002 -0.044632856 1.0407304e-38 317 277
-0.0024125867 0.68800002 -0.044632856 9.0247166e-39 318 277
-0.0012045399 0.68699998 -0.044567976 7.8265322e-39 319 277
0 0.68699998 -0.044567976 6.8220913e-39 320 277
0.0012062934 0.68800002 -0.044632856 8.5734495e-39 321 277
0.0024125867 0.68800002 -0.044632856 1.123632e-38 322 277
0.0036188802 0.68800002 -0.044632856 1.0498754e-38 323 277
0.0048391996 0.69 -0.0447626 1.1872685e-38 324 277
0.0060489997 0.69 -0.0447626 1.1872685e-38 325 277
0.0072587994 0.69 -0.0447626 1.2149282e-38 326 277
0.0084686 0.69 -0.0447626 1.3347823e-38 327 277
0.0096783992 0.69 -0.0447626 1.2341229e-38 328 277
0.010888199 0.69 -0.0447626 1.2341229e-38 329 277
0.012097999 0.69 -0.0447626 1.206679e-38 330 277
0.0133078 0.69 -0.0447626 1.2251181e-38 331 277
0.014517599 0.69 -0.0447626 1.2805077e-38 332 277
0.015750192 0.69099998 -0.044827472 1.2251903e-38 333 277
0.016961746 0.69099998 -0.044827472 1.1139441e-38 334 277
0.018225901 0.69300002 -0.044957221 1.077066e-38 335 277
0.01944096 0.69300002 -0.044957221 1.0496224e-38 336 277
0.020656019 0.69300002 -0.044957221 1.0311473e-38 337 277
0.021871079 0.69300002 -0.044957221 9.5746366e-39 338 277
0.02308614 0.69300002 -0.044957221 8.4679303e-39 339 277
0.024336265 0.69400001 -0.045022093 8.6472923e-39 340 277
0.025553079 0.69400001 -0.045022093 9.7532797e-39 341 277
0.026847038 0.69599998 -0.045151837 9.118322e-39 342 277
0.028067358 0.69599998 -0.045151837 9.855887e-39 343 277
0.02932976 0.69700003 -0.045216713 9.7679948e-39 344 277
0.030595668 0.69800001 -0.045281585 9.9520259e-39 345 277
0.031910665 0.69999999 -0.04541133 1.0226096e-38 346 277
0.033137999 0.69999999 -0.04541133 9.5807266e-39 347 277
0.034365334 0.69999999 -0.04541133 9.2101645e-39 348 277
0.035643511 0.70099998 -0.045476202 9.1179688e-39 349 277
0.036977798 0.70300001 -0.04560595 9.208745e-39 350 277
0.038264744 0.704 -0.045670826 8.3789843e-39 351 277
0.039499093 0.704 -0.045670826 7.550297e-39 352 277
0.040849157 0.70599997 -0.04580057 6.4439481e-39 353 277
0.042146627 0.70700002 -0.045865446 7.3597877e-39 354 277
0.043386232 0.70700002 -0.045865446 6.7144183e-39 355 277
0.044688959 0.708 -0.045930319 6.6215052e-39 356 277
0.045930319 0.708 -0.045930319 6.8058978e-39 357 277
0.047171678 0.708 -0.045930319 6.2545416e-39 358 277
0.048549797 0.70999998 -0.046060063 6.8999096e-39 359 277
0.049794663 0.70999998 -0.046060063 8.1045862e-39 360 277
0.051111419 0.71100003 -0.046124939 9.3027707e-39 361 277
0.052358042 0.71100003 -0.046124939 9.0319347e-39 362 277
0.053755447 0.713 -0.046254687 7.925227e-39 363 277
0.055314157 0.71700001 -0.046514176 7.8279769e-39 364 277
0.056571297 0.71700001 -0.046514176 7.5510313e-39 365 277
0.057989739 0.71899998 -0.046643924 7.7314653e-39 366 277
0.059332799 0.72000003 -0.0467088 7.4548798e-39 367 277
0.060595199 0.72000003 -0.0467088 6.9946261e-39 368 277
0.061857603 0.72000003 -0.0467088 6.9946261e-39 369 277
0.063295327 0.722 -0.046838548 6.9946233e-39 370 277
0.064561233 0.722 -0.046838548 6.9946233e-39 371 277
0.066100664 0.72500002 -0.047033165 7.1786544e-39 372 277
0.067371838 0.72500002 -0.047033165 7.3634058e-39 373 277
0.068643004 0.72500002 -0.047033165 7.3637562e-39 374 277
0.069914162 0.72500002 -0.047033165 7.3637562e-39 375 277
0.071381703 0.727 -0.047162913 6.8138068e-39 376 277
0.072756313 0.72799999 -0.047227785 6.3528286e-39 377 277
0.074236132 0.73000002 -0.047357533 6.1702506e-39 378 277
0.07551606 0.73000002 -0.047357533 4.6032851e-39 379 277
0.077111594 0.73299998 -0.04755215 5.7056992e-39 380 277
0.07839679 0.73299998 -0.04755215 1.7137956e-38 381 277
-0.069495119 0.73400003 -0.048903972 8.9231351e-39 266 278
-0.068115242 0.73299998 -0.048837345 8.9231351e-39 267 278
-0.066647708 0.73100001 -0.048704091 8.7387425e-39 268 278
-0.065366022 0.73100001 -0.048704091 8.8309381e-39 269 278
-0.063821331 0.72799999 -0.048504211 8.648709e-39 270 278
-0.062458992 0.727 -0.048437584 8.833459e-39 271 278
-0.061184317 0.727 -0.048437584 8.8349052e-39 272 278
-0.059744831 0.72500002 -0.048304334 9.0189363e-39 273 278
-0.058312356 0.72299999 -0.048171077 8.8352709e-39 274 278
-0.056965802 0.722 -0.048104454 8.4668471e-39 275 278
-0.055468451 0.71899998 -0.04790457 8.5572603e-39 276 278
-0.054057021 0.71700001 -0.04777132 8.5572603e-39 277 278
-0.052726239 0.71600002 -0.047704693 7.2697879e-39 278 278
-0.05132708 0.71399999 -0.047571439 7.2697879e-39 279 278
-0.049864799 0.71100003 -0.047371563 8.3855115e-39 280 278
-0.048549797 0.70999998 -0.047304932 1.1519804e-38 281 278
-0.047171678 0.708 -0.047171678 1.3182935e-38 282 278
-0.045865446 0.70700002 -0.047105055 1.3920859e-38 283 278
-0.044562716 0.70599997 -0.047038425 1.3828294e-38 284 278
-0.043202132 0.704 -0.046905171 1.3643544e-38 285 278
-0.041908171 0.70300001 -0.046838548 1.3643897e-38 286 278
-0.040559858 0.70099998 -0.046705291 1.3736092e-38 287 278
-0.039162453 0.69800001 -0.046505414 1.4011234e-38 288 278
-0.037938625 0.69800001 -0.046505414 1.4011234e-38 289 278
-0.036662199 0.69700003 -0.046438783 1.4194549e-38 290 278
-0.035440128 0.69700003 -0.046438783 1.4194549e-38 291 278
-0.034168959 0.69599998 -0.046372157 1.4287101e-38 292 278
-0.032853961 0.69400001 -0.046238903 1.474772e-38 293 278
-0.031591557 0.69300002 -0.04617228 1.7504594e-38 294 278
-0.0303765 0.69300002 -0.04617228 1.7412399e-38 295 278
-0.029161438 0.69300002 -0.04617228 1.6030894e-38 296 278
-0.027865725 0.69099998 -0.046039023 1.6860294e-38 297 278
-0.026654173 0.69099998 -0.046039023 1.9618607e-38 298 278
-0.025442619 0.69099998 -0.046039023 2.0356172e-38 299 278
-0.024125867 0.68800002 -0.045839146 1.8983662e-38 300 278
-0.022919573 0.68800002 -0.045839146 1.6586935e-38 301 278
-0.021681719 0.68699998 -0.045772515 1.6753661e-38 302 278
-0.020477179 0.68699998 -0.045772515 1.4264379e-38 303 278
-0.019272638 0.68699998 -0.045772515 1.4536657e-38 304 278
-0.018068098 0.68699998 -0.045772515 1.4444461e-38 305 278
-0.01686356 0.68699998 -0.045772515 1.4454923e-38 306 278
-0.015659019 0.68699998 -0.045772515 1.6207e-38 307 278
-0.014454478 0.68699998 -0.045772515 1.4923817e-38 308 278
-0.013269227 0.68800002 -0.045839146 1.5016013e-38 309 278
-0.012062933 0.68800002 -0.045839146 1.3824322e-38 310 278
-0.010856641 0.68800002 -0.045839146 1.4654442e-38 311 278
-0.0096503468 0.68800002 -0.045839146 1.484244e-38 312 278
-0.0084317802 0.68699998 -0.045772515 1.650232e-38 313 278
-0.0072272392 0.68699998 -0.045772515 1.8522002e-38 314 278
-0.0060226996 0.68699998 -0.045772515 1.6309667e-38 315 278
-0.0048181596 0.68699998 -0.045772515 1.1333598e-38 316 278
-0.0036136196 0.68699998 -0.045772515 5.8940547e-39 317 278
-0.0024090798 0.68699998 -0.045772515 5.8918715e-39 318 278
-0.0012045399 0.68699998 -0.045772515 4.7855253e-39 319 278
0 0.68699998 -0.045772515 5.2573061e-39 320 278
0.0012062934 0.68800002 -0.045839146 7.9309794e-39 321 278
0.0024125867 0.68800002 -0.045839146 1.0044266e-38 322 278
0.0036188802 0.68800002 -0.045839146 9.0301144e-39 323 278
0.0048391996 0.69 -0.045972396 1.1230192e-38 324 278
0.0060489997 0.69 -0.045972396 1.0769214e-38 325 278
0.0072587994 0.69 -0.045972396 1.1871984e-38 326 278
0.0084440531 0.68800002 -0.045839146 1.3254919e-38 327 278
0.0096503468 0.68800002 -0.045839146 1.2615667e-38 328 278
0.010856641 0.68800002 -0.045839146 1.1785907e-38 329 278
0.012062933 0.68800002 -0.045839146 1.1695128e-38 330 278
0.013269227 0.68800002 -0.045839146 1.2156465e-38 331 278
0.014517599 0.69 -0.045972396 1.169873e-38 332 278
0.015750192 0.69099998 -0.046039023 1.1053361e-38 333 278
0.016961746 0.69099998 -0.046039023 1.0499837e-38 334 278
0.018225901 0.69300002 -0.04617228 1.0499837e-38 335 278
0.01944096 0.69300002 -0.04617228 1.0405471e-38 336 278
0.020656019 0.69300002 -0.04617228 1.0221079e-38 337 278
0.021871079 0.69300002 -0.04617228 9.4849591e-39 338 278
0.02308614 0.69300002 -0.04617228 8.1942203e-39 339 278
0.024301201 0.69300002 -0.04617228 7.3619513e-39 340 278
0.025553079 0.69400001 -0.046238903 9.1140284e-39 341 278
0.026769891 0.69400001 -0.046238903 9.3030846e-39 342 278
0.028067358 0.69599998 -0.046372157 1.0132847e-38 343 278
0.02932976 0.69700003 -0.046438783 1.0317241e-38 344 278
0.030595668 0.69800001 -0.046505414 9.9480981e-39 345 278
0.031910665 0.69999999 -0.046638668 9.2112631e-39 346 278
0.033137999 0.69999999 -0.046638668 8.8424792e-39 347 278
0.034414422 0.70099998 -0.046705291 8.9318007e-39 348 278
0.035745207 0.70300001 -0.046838548 8.5633784e-39 349 278
0.037030395 0.704 -0.046905171 8.1931665e-39 350 278
0.038264744 0.704 -0.046905171 7.4556015e-39 351 278
0.039611302 0.70599997 -0.047038425 6.995345e-39 352 278
0.040849157 0.70599997 -0.047038425 6.1652256e-39 353 278
0.042146627 0.70700002 -0.047105055 6.9910234e-39 354 278
0.043386232 0.70700002 -0.047105055 6.622601e-39 355 278
0.044688959 0.708 -0.047171678 6.6225982e-39 356 278
0.045930319 0.708 -0.047171678 6.7147938e-39 357 278
0.047171678 0.708 -0.047171678 6.9935471e-39 358 278
0.048549797 0.70999998 -0.047304932 7.8233078e-39 359 278
0.049864799 0.71100003 -0.047371563 9.767346e-39 360 278
0.051111419 0.71100003 -0.047371563 9.8599003e-39 361 278
0.052578956 0.71399999 -0.047571439 8.5684286e-39 362 278
0.054057021 0.71700001 -0.04777132 8.1996475e-39 363 278
0.055314157 0.71700001 -0.04777132 8.2900341e-39 364 278
0.056729097 0.71899998 -0.04790457 7.4599147e-39 365 278
0.057989739 0.71899998 -0.04790457 7.5477999e-39 366 278
0.059332799 0.72000003 -0.0479712 6.9946261e-39 367 278
0.060763516 0.722 -0.048104454 6.6265639e-39 368 278
0.062029421 0.722 -0.048104454 6.6265639e-39 369 278
0.063382991 0.72299999 -0.048171077 6.8098761e-39 370 278
0.064650662 0.72299999 -0.048171077 6.9024305e-39 371 278
0.066100664 0.72500002 -0.048304334 6.8116782e-39 372 278
0.067371838 0.72500002 -0.048304334 7.087905e-39 373 278
0.068643004 0.72500002 -0.048304334 7.0904119e-39 374 278
0.070203468 0.72799999 -0.048504211 7.3670002e-39 375 278
0.071479887 0.72799999 -0.048504211 7.4613398e-39 376 278
0.072756313 0.72799999 -0.048504211 7.3691442e-39 377 278
0.074236132 0.73000002 -0.048637468 7.2791388e-39 378 278
0.07551606 0.73000002 -0.048637468 7.3713344e-39 379 278
0.076796003 0.73000002 -0.048637468 1.0125714e-38 380 278
-0.066647708 0.73100001 -0.049985781 8.9227876e-39 268 279
-0.065097757 0.72799999 -0.049780637 9.1990143e-39 269 279
-0.06373366 0.727 -0.049712259 8.7427081e-39 270 279
-0.062458992 0.727 -0.049712259 9.0189363e-39 271 279
-0.061016005 0.72500002 -0.0495755 8.8359898e-39 272 279
-0.059580017 0.72299999 -0.049438741 8.9281854e-39 273 279
-0.058312356 0.72299999 -0.049438741 8.8349178e-39 274 279
-0.056965802 0.722 -0.04937036 8.7427221e-39 275 279
-0.055468451 0.71899998 -0.049165215 8.4668611e-39 276 279
-0.054207806 0.71899998 -0.049165215 8.2824685e-39 277 279
-0.052726239 0.71600002 -0.048960082 8.2810433e-39 278 279
-0.05132708 0.71399999 -0.048823316 8.2810433e-39 279 279
-0.050005067 0.713 -0.048754938 6.2610436e-39 280 279
-0.048549797 0.70999998 -0.048549797 8.3815431e-39 281 279
-0.047171678 0.708 -0.048413038 1.0047568e-38 282 279
-0.045865446 0.70700002 -0.048344657 1.2813077e-38 283 279
-0.044562716 0.70599997 -0.048276275 1.3643546e-38 284 279
-0.043202132 0.704 -0.048139516 1.3274765e-38 285 279
-0.041788943 0.70099998 -0.047934376 1.3643534e-38 286 279
-0.040502001 0.69999999 -0.047865998 1.3735729e-38 287 279
-0.039162453 0.69800001 -0.047729239 1.4011953e-38 288 279
-0.037938625 0.69800001 -0.047729239 1.3919758e-38 289 279
-0.036662199 0.69700003 -0.047660861 1.4011237e-38 290 279
-0.035389278 0.69599998 -0.047592476 1.3919042e-38 291 279
-0.034070771 0.69400001 -0.047455717 1.4101632e-38 292 279
-0.03280662 0.69300002 -0.047387339 1.4101632e-38 293 279
-0.031591557 0.69300002 -0.047387339 1.3641376e-38 294 279
-0.0303765 0.69300002 -0.047387339 1.5485288e-38 295 279
-0.029077278 0.69099998 -0.047250576 1.8063532e-38 296 279
-0.027825398 0.69 -0.047182199 1.9169521e-38 297 279
-0.026499879 0.68699998 -0.046977058 1.825331e-38 298 279
-0.025295338 0.68699998 -0.046977058 1.9175264e-38 299 279
-0.024090799 0.68699998 -0.046977058 2.0731069e-38 300 279
-0.022886258 0.68699998 -0.046977058 1.6582265e-38 301 279
-0.021681719 0.68699998 -0.046977058 1.5840715e-38 302 279
-0.020447372 0.68599999 -0.046908677 1.5195346e-38 303 279
-0.019244585 0.68599999 -0.046908677 1.5834598e-38 304 279
-0.018041799 0.68599999 -0.046908677 1.6664359e-38 305 279
-0.01686356 0.68699998 -0.046977058 1.5390909e-38 306 279
-0.015659019 0.68699998 -0.046977058 1.6036279e-38 307 279
-0.014454478 0.68699998 -0.046977058 1.5117216e-38 308 279
-0.013249939 0.68699998 -0.046977058 1.5025019e-38 309 279
-0.012045399 0.68699998 -0.046977058 1.4476894e-38 310 279
-0.010840859 0.68699998 -0.046977058 1.6413003e-38 311 279
-0.0096363192 0.68699998 -0.046977058 1.816508e-38 312 279
-0.0084317802 0.68699998 -0.046977058 2.0377773e-38 313 279
-0.0072272392 0.68699998 -0.046977058 2.100553e-38 314 279
-0.0060226996 0.68699998 -0.046977058 1.298415e-38 315 279
-0.0048181596 0.68699998 -0.046977058 2.9621544e-39 316 279
-0.0036136196 0.68699998 -0.046977058 2.5011762e-39 317 279
-0.0024090798 0.68699998 -0.046977058 7.4617322e-39 318 279
-0.0012045399 0.68699998 -0.046977058 7.1851439e-39 319 279
0 0.68699998 -0.046977058 3.0460529e-39 320 279
0.0012062934 0.68800002 -0.047045439 4.8899641e-39 321 279
0.0024125867 0.68800002 -0.047045439 8.4834203e-39 322 279
0.0036188802 0.68800002 -0.047045439 8.5756159e-39 323 279
0.0048251734 0.68800002 -0.047045439 1.1326354e-38 324 279
0.0060314666 0.68800002 -0.047045439 1.0865375e-38 325 279
0.0072377604 0.68800002 -0.047045439 1.1690445e-38 326 279
0.0084317802 0.68699998 -0.046977058 1.2243618e-38 327 279
0.0096363192 0.68699998 -0.046977058 1.1875562e-38 328 279
0.010840859 0.68699998 -0.046977058 1.1875562e-38 329 279
0.012062933 0.68800002 -0.047045439 1.1969922e-38 330 279
0.013269227 0.68800002 -0.047045439 1.1693694e-38 331 279
0.014475521 0.68800002 -0.047045439 1.0038145e-38 332 279
0.015727401 0.69 -0.047182199 9.1165493e-39 333 279
0.016961746 0.69099998 -0.047250576 9.1230359e-39 334 279
0.0181733 0.69099998 -0.047250576 9.7684054e-39 335 279
0.019384852 0.69099998 -0.047250576 1.0592035e-38 336 279
0.020596405 0.69099998 -0.047250576 1.0868262e-38 337 279
0.021871079 0.69300002 -0.047387339 1.0411251e-38 338 279
0.02308614 0.69300002 -0.047387339 1.0411251e-38 339 279
0.024301201 0.69300002 -0.047387339 9.03012e-39 340 279
0.02551626 0.69300002 -0.047387339 8.7531744e-39 341 279
0.026769891 0.69400001 -0.047455717 9.5793225e-39 342 279
0.027986705 0.69400001 -0.047455717 1.0040299e-38 343 279
0.02932976 0.69700003 -0.047660861 1.0037064e-38 344 279
0.030595668 0.69800001 -0.047729239 9.2069429e-39 345 279
0.031910665 0.69999999 -0.047865998 9.1108068e-39 346 279
0.033137999 0.69999999 -0.047865998 8.6494699e-39 347 279
0.034414422 0.70099998 -0.047934376 7.6399955e-39 348 279
0.035745207 0.70300001 -0.048071139 7.6399955e-39 349 279
0.037030395 0.704 -0.048139516 7.3608975e-39 350 279
0.038264744 0.704 -0.048139516 7.4534533e-39 351 279
0.039611302 0.70599997 -0.048276275 6.719484e-39 352 279
0.040849157 0.70599997 -0.048276275 6.534734e-39 353 279
0.042146627 0.70700002 -0.048344657 6.7147994e-39 354 279
0.043386232 0.70700002 -0.048344657 6.7147994e-39 355 279
0.044688959 0.708 -0.048413038 6.4385727e-39 356 279
0.045930319 0.708 -0.048413038 7.1761377e-39 357 279
0.047171678 0.708 -0.048413038 8.748155e-39 358 279
0.048549797 0.70999998 -0.048549797 1.0131089e-38 359 279
0.049864799 0.71100003 -0.048618179 1.0875138e-38 360 279
0.051255193 0.713 -0.048754938 9.3078112e-39 361 279
0.052726239 0.71600002 -0.048960082 7.7375988e-39 362 279
0.054057021 0.71700001 -0.04902846 8.6595551e-39 363 279
0.055314157 0.71700001 -0.04902846 8.2018041e-39 364 279
0.056729097 0.71899998 -0.049165215 7.1872935e-39 365 279
0.058070403 0.72000003 -0.0492336 7.3634058e-39 366 279
0.059497613 0.722 -0.04937036 7.1786544e-39 367 279
0.060763516 0.722 -0.04937036 6.6269198e-39 368 279
0.062115334 0.72299999 -0.049438741 6.6269198e-39 369 279
0.063558333 0.72500002 -0.0495755 6.6269198e-39 370 279
0.064829499 0.72500002 -0.0495755 6.5343654e-39 371 279
0.066100664 0.72500002 -0.0495755 6.6265639e-39 372 279
0.067557678 0.727 -0.049712259 6.995345e-39 373 279
0.06883236 0.727 -0.049712259 7.4563203e-39 374 279
0.070203468 0.72799999 -0.049780637 8.1938854e-39 375 279
0.071676269 0.73000002 -0.0499174 8.4729932e-39 376 279
0.072956197 0.73000002 -0.0499174 8.5651902e-39 377 279
0.074236132 0.73000002 -0.0499174 7.7422833e-39 378 279
0.07551606 0.73000002 -0.0499174 1.1706695e-38 379 279
-0.066374183 0.72799999 -0.051057063 9.0157021e-39 268 280
-0.065008335 0.727 -0.050986931 9.3841245e-39 269 280
-0.063558333 0.72500002 -0.050846666 8.8352709e-39 270 280
-0.062287167 0.72500002 -0.050846666 8.9274665e-39 271 280
-0.060847677 0.72299999 -0.050706398 9.3855734e-39 272 280
-0.059580017 0.72299999 -0.050706398 9.5703234e-39 273 280
-0.058231708 0.722 -0.050636265 9.1107844e-39 274 280
-0.056808002 0.72000003 -0.050496001 8.8341989e-39 275 280
-0.055468451 0.71899998 -0.050425861 8.650881e-39 276 280
-0.054207806 0.71899998 -0.050425861 8.4664912e-39 277 280
-0.052726239 0.71600002 -0.050215468 8.2824657e-39 278 280
-0.05132708 0.71399999 -0.050075196 8.2824657e-39 279 280
-0.050005067 0.713 -0.050005067 7.2704899e-39 280 280
-0.048618179 0.71100003 -0.049864799 7.1779356e-39 281 280
-0.047171678 0.708 -0.049654398 8.106045e-39 282 280
-0.045865446 0.70700002 -0.049584266 1.1332892e-38 283 280
-0.044562716 0.70599997 -0.04951413 1.2445369e-38 284 280
-0.043202132 0.704 -0.049373865 1.2906707e-38 285 280
-0.041788943 0.70099998 -0.049163464 1.318364e-38 286 280
-0.040502001 0.69999999 -0.049093332 1.3460587e-38 287 280
-0.039162453 0.69800001 -0.048953064 1.4104152e-38 288 280
-0.037938625 0.69800001 -0.048953064 1.4011956e-38 289 280
-0.036662199 0.69700003 -0.048882935 1.4194905e-38 290 280
-0.035389278 0.69599998 -0.048812799 1.4194905e-38 291 280
-0.034070771 0.69400001 -0.048672531 1.4286029e-38 292 280
-0.03280662 0.69300002 -0.048602402 1.4286029e-38 293 280
-0.031500384 0.69099998 -0.04846213 1.3734297e-38 294 280
-0.030288832 0.69099998 -0.04846213 1.4471862e-38 295 280
-0.029035198 0.69 -0.048391998 1.6405815e-38 296 280
-0.027704418 0.68699998 -0.048181597 1.7973501e-38 297 280
-0.026499879 0.68699998 -0.048181597 1.7885972e-38 298 280
-0.025295338 0.68699998 -0.048181597 1.8531341e-38 299 280
-0.024090799 0.68699998 -0.048181597 1.8620646e-38 300 280
-0.022852944 0.68599999 -0.048111461 1.5117213e-38 301 280
-0.02158704 0.68400002 -0.0479712 1.5020335e-38 302 280
-0.020387759 0.68400002 -0.0479712 1.5204366e-38 303 280
-0.019160427 0.68300003 -0.047901068 1.5571706e-38 304 280
-0.017962901 0.68300003 -0.047901068 1.612488e-38 305 280
-0.016765373 0.68300003 -0.047901068 1.6038444e-38 306 280
-0.015659019 0.68699998 -0.048181597 1.5946247e-38 307 280
-0.014454478 0.68699998 -0.048181597 1.5395246e-38 308 280
-0.013249939 0.68699998 -0.048181597 1.6225009e-38 309 280
-0.012045399 0.68699998 -0.048181597 1.7150573e-38 310 280
-0.010840859 0.68699998 -0.048181597 1.9086681e-38 311 280
-0.0096363192 0.68699998 -0.048181597 2.1019547e-38 312 280
-0.0084195063 0.68599999 -0.048111461 2.1019547e-38 313 280
-0.0072167199 0.68599999 -0.048111461 1.7607593e-38 314 280
-0.0060139326 0.68599999 -0.048111461 4.3310632e-39 315 280
-0.0048111463 0.68599999 -0.048111461 2.7912324e-40 316 280
-0.0036136196 0.68699998 -0.048181597 5.0736561e-39 317 280
-0.0024090798 0.68699998 -0.048181597 8.9422502e-39 318 280
-0.0012045399 0.68699998 -0.048181597 8.8500546e-39 319 280
0 0.68699998 -0.048181597 4.8820328e-39 320 280
0.0012062934 0.68800002 -0.048251733 4.144109e-39 321 280
0.0024125867 0.68800002 -0.048251733 9.1262533e-39 322 280
0.0036188802 0.68800002 -0.048251733 9.6794271e-39 323 280
0.0048251734 0.68800002 -0.048251733 1.0504854e-38 324 280
0.0060314666 0.68800002 -0.048251733 1.0228265e-38 325 280
0.0072377604 0.68800002 -0.048251733 1.0960445e-38 326 280
0.0084317802 0.68699998 -0.048181597 1.0130326e-38 327 280
0.0096363192 0.68699998 -0.048181597 1.0952556e-38 328 280
0.010840859 0.68699998 -0.048181597 1.1966348e-38 329 280
0.012045399 0.68699998 -0.048181597 1.1511127e-38 330 280
0.013249939 0.68699998 -0.048181597 1.0312584e-38 331 280
0.014454478 0.68699998 -0.048181597 7.644341e-39 332 280
0.015681813 0.68800002 -0.048251733 6.169571e-39 333 280
0.0169372 0.69 -0.048391998 7.3709995e-39 334 280
0.018146999 0.69 -0.048391998 9.030881e-39 335 280
0.019384852 0.69099998 -0.04846213 1.0502746e-38 336 280
0.020596405 0.69099998 -0.04846213 1.0686777e-38 337 280
0.021807959 0.69099998 -0.04846213 1.0688564e-38 338 280
0.02308614 0.69300002 -0.048602402 1.1149541e-38 339 280
0.024301201 0.69300002 -0.048602402 1.1515093e-38 340 280
0.02551626 0.69300002 -0.048602402 9.9481275e-39 341 280
0.026769891 0.69400001 -0.048672531 8.8432205e-39 342 280
0.027986705 0.69400001 -0.048672531 8.3822437e-39 343 280
0.02932976 0.69700003 -0.048882935 8.745634e-39 344 280
0.030595668 0.69800001 -0.048953064 8.1002646e-39 345 280
0.031910665 0.69999999 -0.049093332 7.8226015e-39 346 280
0.03318534 0.70099998 -0.049163464 7.7304059e-39 347 280
0.034512613 0.70300001 -0.049303733 7.4548952e-39 348 280
0.035796054 0.704 -0.049373865 7.6396452e-39 349 280
0.037030395 0.704 -0.049373865 7.4592112e-39 350 280
0.038373452 0.70599997 -0.04951413 7.5517656e-39 351 280
0.039611302 0.70599997 -0.04951413 8.2824923e-39 352 280
0.040907022 0.70700002 -0.049584266 7.1757846e-39 353 280
0.042146627 0.70700002 -0.049584266 7.4487673e-39 354 280
0.043447599 0.708 -0.049654398 7.2640173e-39 355 280
0.044688959 0.708 -0.049654398 7.4534533e-39 356 280
0.045930319 0.708 -0.049654398 8.743832e-39 357 280
0.047304932 0.70999998 -0.049794663 8.5677294e-39 358 280
0.048549797 0.70999998 -0.049794663 9.5818813e-39 359 280
0.049864799 0.71100003 -0.049864799 1.0784746e-38 360 280
0.051255193 0.713 -0.050005067 9.124866e-39 361 280
0.052799881 0.71700001 -0.0502856 7.9241424e-39 362 280
0.054207806 0.71899998 -0.050425861 8.5695118e-39 363 280
0.055468451 0.71899998 -0.050425861 8.2914732e-39 364 280
0.056808002 0.72000003 -0.050496001 7.09293e-39 365 280
0.058231708 0.722 -0.050636265 7.2719333e-39 366 280
0.059497613 0.722 -0.050636265 6.6265639e-39 367 280
0.060847677 0.72299999 -0.050706398 6.6265639e-39 368 280
0.062115334 0.72299999 -0.050706398 6.5343682e-39 369 280
0.063558333 0.72500002 -0.050846666 6.1670277e-39 370 280
0.064829499 0.72500002 -0.050846666 6.1670277e-39 371 280
0.066100664 0.72500002 -0.050846666 6.4418223e-39 372 280
0.067650609 0.72799999 -0.051057063 6.8102447e-39 373 280
0.068927035 0.72799999 -0.051057063 6.445788e-39 374 280
0.070203468 0.72799999 -0.051057063 7.0911574e-39 375 280
-0.065008335 0.727 -0.052261602 9.3837755e-39 269 281
-0.063558333 0.72500002 -0.052117832 9.1104341e-39 270 281
-0.062115334 0.72299999 -0.051974058 9.2948253e-39 271 281
-0.060847677 0.72299999 -0.051974058 9.1111571e-39 272 281
-0.059497613 0.722 -0.051902171 8.9267659e-39 273 281
-0.058231708 0.722 -0.051902171 8.927119e-39 274 281
-0.056808002 0.72000003 -0.051758397 8.8349234e-39 275 281
-0.055468451 0.71899998 -0.05168651 8.2842649e-39 276 281
-0.054057021 0.71700001 -0.051542737 8.1920693e-39 277 281
-0.052726239 0.71600002 -0.051470853 8.1920721e-39 278 281
-0.05132708 0.71399999 -0.05132708 7.8232896e-39 279 281
-0.050005067 0.713 -0.051255193 8.4643612e-39 280 281
-0.048618179 0.71100003 -0.051111419 9.017535e-39 281 281
-0.047304932 0.70999998 -0.051039528 8.2846755e-39 282 281
-0.045865446 0.70700002 -0.050823875 9.4832173e-39 283 281
-0.044562716 0.70599997 -0.050751984 9.2181561e-39 284 281
-0.043202132 0.704 -0.050608214 1.1707438e-38 285 281
-0.041908171 0.70300001 -0.050536323 1.2815228e-38 286 281
-0.040502001 0.69999999 -0.050320663 1.3368401e-38 287 281
-0.039162453 0.69800001 -0.050176892 1.4011603e-38 288 281
-0.037938625 0.69800001 -0.050176892 1.3919407e-38 289 281
-0.036662199 0.69700003 -0.050105009 1.4011234e-38 290 281
-0.035389278 0.69599998 -0.050033119 1.4011234e-38 291 281
-0.034070771 0.69400001 -0.049889345 1.4287098e-38 292 281
-0.03280662 0.69300002 -0.049817458 1.4287098e-38 293 281
-0.031500384 0.69099998 -0.049673684 1.4194549e-38 294 281
-0.030244999 0.69 -0.049601797 1.3918323e-38 295 281
-0.028908957 0.68699998 -0.049386136 1.3368036e-38 296 281
-0.027704418 0.68699998 -0.049386136 1.3736458e-38 297 281
-0.026461305 0.68599999 -0.049314249 1.4383267e-38 298 281
-0.025184879 0.68400002 -0.049170479 1.5766201e-38 299 281
-0.0239856 0.68400002 -0.049170479 1.7050456e-38 300 281
-0.022753006 0.68300003 -0.049098592 1.6035944e-38 301 281
-0.021523919 0.68199998 -0.049026705 1.5210131e-38 302 281
-0.020328145 0.68199998 -0.049026705 1.5210131e-38 303 281
-0.019132372 0.68199998 -0.049026705 1.493462e-38 304 281
-0.017936599 0.68199998 -0.049026705 1.5210847e-38 305 281
-0.016740825 0.68199998 -0.049026705 1.5394525e-38 306 281
-0.015545053 0.68199998 -0.049026705 1.5762949e-38 307 281
-0.014370319 0.68300003 -0.049098592 1.7238453e-38 308 281
-0.013172794 0.68300003 -0.049098592 2.0004322e-38 309 281
-0.011975267 0.68300003 -0.049098592 2.1301888e-38 310 281
-0.010825079 0.68599999 -0.049314249 2.1117499e-38 311 281
-0.0095942402 0.68400002 -0.049170479 2.1664919e-38 312 281
-0.0083949603 0.68400002 -0.049170479 2.0005039e-38 313 281
-0.0071956799 0.68400002 -0.049170479 1.4481563e-38 314 281
-0.0059964 0.68400002 -0.049170479 6.1292795e-42 315 281
-0.0048111463 0.68599999 -0.049314249 1.4377322e-42 316 281
-0.00360836 0.68599999 -0.049314249 4.5193837e-39 317 281
-0.0024090798 0.68699998 -0.049386136 9.7813716e-39 318 281
-0.0012045399 0.68699998 -0.049386136 1.171748e-38 319 281
0 0.68699998 -0.049386136 1.2440292e-38 320 281
0.0012045399 0.68699998 -0.049386136 1.1518696e-38 321 281
0.0024090798 0.68699998 -0.049386136 1.0781847e-38 322 281
0.0036188802 0.68800002 -0.049458027 1.0413424e-38 323 281
0.0048251734 0.68800002 -0.049458027 1.0321222e-38 324 281
0.0060226996 0.68699998 -0.049386136 1.0136831e-38 325 281
0.0072272392 0.68699998 -0.049386136 1.0590956e-38 326 281
0.0084317802 0.68699998 -0.049386136 9.9455869e-39 327 281
0.0096363192 0.68699998 -0.049386136 9.8476334e-39 328 281
0.010825079 0.68599999 -0.049314249 8.9253183e-39 329 281
0.012027865 0.68599999 -0.049314249 7.6392641e-39 330 281
0.013249939 0.68699998 -0.049386136 5.9801015e-39 331 281
0.014454478 0.68699998 -0.049386136 4.1426769e-39 332 281
0.015681813 0.68800002 -0.049458027 4.5110993e-39 333 281
0.0169372 0.69 -0.049601797 3.8678948e-39 334 281
0.018146999 0.69 -0.049601797 5.8965574e-39 335 281
0.019384852 0.69099998 -0.049673684 8.5651902e-39 336 281
0.020596405 0.69099998 -0.049673684 8.4729932e-39 337 281
0.021807959 0.69099998 -0.049673684 8.9307287e-39 338 281
0.02308614 0.69300002 -0.049817458 9.5760982e-39 339 281
0.024301201 0.69300002 -0.049817458 1.0309347e-38 340 281
0.02551626 0.69300002 -0.049817458 9.4795865e-39 341 281
0.026769891 0.69400001 -0.049889345 8.2846363e-39 342 281
0.028067358 0.69599998 -0.050033119 8.0080508e-39 343 281
0.02932976 0.69700003 -0.050105009 8.6494699e-39 344 281
0.030595668 0.69800001 -0.050176892 8.4654374e-39 345 281
0.031910665 0.69999999 -0.050320663 8.0080662e-39 346 281
0.03318534 0.70099998 -0.050392549 8.56124e-39 347 281
0.034512613 0.70300001 -0.050536323 8.1042303e-39 348 281
0.035796054 0.704 -0.050608214 9.4871648e-39 349 281
0.037030395 0.704 -0.050608214 9.8606318e-39 350 281
0.038373452 0.70599997 -0.050751984 1.013722e-38 351 281
0.039667413 0.70700002 -0.050823875 9.4860731e-39 352 281
0.040907022 0.70700002 -0.050823875 5.6138567e-39 353 281
0.042206239 0.708 -0.050895758 7.2636516e-39 354 281
0.043447599 0.708 -0.050895758 7.7246284e-39 355 281
0.044815198 0.70999998 -0.051039528 9.0222251e-39 356 281
0.046060063 0.70999998 -0.051039528 1.1142364e-38 357 281
0.047304932 0.70999998 -0.051039528 8.3872996e-39 358 281
0.048618179 0.71100003 -0.051111419 7.9263229e-39 359 281
0.050005067 0.713 -0.051255193 9.8649478e-39 360 281
0.051470853 0.71600002 -0.051470853 9.1273828e-39 361 281
0.05294716 0.71899998 -0.05168651 8.3840584e-39 362 281
0.054283202 0.72000003 -0.051758397 8.1996657e-39 363 281
0.055699892 0.722 -0.051902171 7.7372456e-39 364 281
0.056965802 0.722 -0.051902171 6.8152908e-39 365 281
0.058312356 0.72299999 -0.051974058 6.9024403e-39 366 281
0.059580017 0.72299999 -0.051974058 6.6262135e-39 367 281
0.060847677 0.72299999 -0.051974058 6.4421726e-39 368 281
0.062287167 0.72500002 -0.052117832 6.349977e-39 369 281
0.063558333 0.72500002 -0.052117832 6.5332892e-39 370 281
0.065008335 0.727 -0.052261602 6.5332892e-39 371 281
0.06628301 0.727 -0.052261602 6.6247688e-39 372 281
-0.063382991 0.72299999 -0.053241719 9.2969749e-39 270 282
-0.062029421 0.722 -0.053168077 9.2969749e-39 271 282
-0.060763516 0.722 -0.053168077 9.3880972e-39 272 282
-0.059497613 0.722 -0.053168077 9.1115103e-39 273 282
-0.058070403 0.72000003 -0.053020801 8.9271162e-39 274 282
-0.056729097 0.71899998 -0.05294716 8.9271162e-39 275 282
-0.055314157 0.71700001 -0.052799881 8.4690149e-39 276 282
-0.053981625 0.71600002 -0.052726239 8.1920693e-39 277 282
-0.052726239 0.71600002 -0.052726239 8.3739452e-39 278 282
-0.05132708 0.71399999 -0.052578956 8.004804e-39 279 282
-0.050005067 0.713 -0.052505318 8.0033873e-39 280 282
-0.048618179 0.71100003 -0.052358042 8.5562009e-39 281 282
-0.047304932 0.70999998 -0.052284397 8.3754124e-39 282 282
-0.045865446 0.70700002 -0.05206348 8.467608e-39 283 282
-0.044562716 0.70599997 -0.051989835 8.0116843e-39 284 282
-0.043202132 0.704 -0.051842559 9.7634013e-39 285 282
-0.041908171 0.70300001 -0.051768921 1.0511063e-38 286 282
-0.040559858 0.70099998 -0.051621638 1.2631562e-38 287 282
-0.039162453 0.69800001 -0.051400717 1.3735742e-38 288 282
-0.037938625 0.69800001 -0.051400717 1.3827938e-38 289 282
-0.036662199 0.69700003 -0.051327083 1.391976e-38 290 282
-0.035236739 0.69300002 -0.051032521 1.391976e-38 291 282
-0.033923492 0.69099998 -0.050885238 1.4287101e-38 292 282
-0.032711938 0.69099998 -0.050885238 1.4194905e-38 293 282
-0.031454802 0.69 -0.050811596 1.4194905e-38 294 282
-0.030157333 0.68800002 -0.050664321 1.4102351e-38 295 282
-0.028908957 0.68699998 -0.050590675 1.3735729e-38 296 282
-0.027664091 0.68599999 -0.050517038 1.3735729e-38 297 282
-0.02638416 0.68400002 -0.050369758 1.3643899e-38 298 282
-0.025184879 0.68400002 -0.050369758 1.4381464e-38 299 282
-0.023950534 0.68300003 -0.05029612 1.5393095e-38 300 282
-0.022719691 0.68199998 -0.050222475 1.5208706e-38 301 282
-0.021523919 0.68199998 -0.050222475 1.493462e-38 302 282
-0.020328145 0.68199998 -0.050222475 1.493462e-38 303 282
-0.019132372 0.68199998 -0.050222475 1.4843143e-38 304 282
-0.017883999 0.68000001 -0.050075196 1.4843143e-38 305 282
-0.016691733 0.68000001 -0.050075196 1.5025389e-38 306 282
-0.015499466 0.68000001 -0.050075196 1.5486367e-38 307 282
-0.01434928 0.68199998 -0.050222475 1.7239896e-38 308 282
-0.013153506 0.68199998 -0.050222475 1.945295e-38 309 282
-0.011975267 0.68300003 -0.05029612 2.0837324e-38 310 282
-0.01077774 0.68300003 -0.05029612 2.1390495e-38 311 282
-0.0095802136 0.68300003 -0.05029612 2.1757478e-38 312 282
-0.0083826864 0.68300003 -0.05029612 1.9176004e-38 313 282
-0.0071851597 0.68300003 -0.05029612 1.5034374e-38 314 282
-0.0059876335 0.68300003 -0.05029612 5.7222569e-39 315 282
-0.0047971201 0.68400002 -0.050369758 4.8885138e-39 316 282
