# .PCD v.7 - Point Cloud Data file format
FIELDS x y z rgb imX imY
SIZE 4 4 4 4 4 4
TYPE F F F F F F
COUNT 1 1 1 1 1 1
WIDTH 835
HEIGHT 1
VIEWPOINT 0 0 0 1 0 0 0
POINTS 835
DATA ascii
0.028951041 0.68800002 -0.049458027 1.3630558e-38 344 281
0.030157333 0.68800002 -0.049458027 1.2985188e-38 345 281
0.031500384 0.69099998 -0.049673684 1.1228076e-38 346 281
0.03280662 0.69300002 -0.049817458 8.554403e-39 347 281
0.034070771 0.69400001 -0.049889345 4.1376504e-39 348 281
0.035287585 0.69400001 -0.049889345 3.8610635e-39 349 281
0.036504399 0.69400001 -0.049889345 4.3231305e-39 350 281
0.037938625 0.69800001 -0.050176892 4.7844688e-39 351 281
0.039162453 0.69800001 -0.050176892 8.2746016e-39 352 281
0.040733438 0.704 -0.050608214 9.1965565e-39 353 281
0.042146627 0.70700002 -0.050823875 1.0574819e-38 354 281
0.043447599 0.708 -0.050895758 1.0574819e-38 355 281
0.044815198 0.70999998 -0.051039528 1.140062e-38 356 281
0.046060063 0.70999998 -0.051039528 1.1492817e-38 357 281
0.047304932 0.70999998 -0.051039528 1.149174e-38 358 281
0.048754938 0.713 -0.051255193 1.149174e-38 359 281
0.050075196 0.71399999 -0.05132708 1.1217319e-38 360 281
0.05132708 0.71399999 -0.05132708 1.1309514e-38 361 281
0.052799881 0.71700001 -0.051542737 1.0303993e-38 362 281
0.054433983 0.722 -0.051902171 1.1963874e-38 363 281
0.055777039 0.72299999 -0.051974058 1.0044304e-38 364 281
0.057044696 0.72299999 -0.051974058 1.0413087e-38 365 281
-0.081372194 0.71399999 -0.052578956 8.2076013e-39 255 282
-0.080120318 0.71399999 -0.052578956 8.3909107e-39 256 282
-0.078868434 0.71399999 -0.052578956 8.2068782e-39 257 282
-0.07761655 0.71399999 -0.052578956 8.206881e-39 258 282
-0.076364681 0.71399999 -0.052578956 8.206881e-39 259 282
-0.072303966 0.71100003 -0.052358042 1.0501339e-38 262 282
-0.070957392 0.70999998 -0.052284397 1.1515491e-38 263 282
-0.069712527 0.70999998 -0.052284397 1.1790283e-38 264 282
-0.068274796 0.708 -0.052137118 1.142114e-38 265 282
-0.066938758 0.70700002 -0.05206348 1.2061825e-38 266 282
-0.065699153 0.70700002 -0.05206348 1.2338771e-38 267 282
-0.064368367 0.70599997 -0.051989835 1.261715e-38 268 282
-0.062862262 0.70300001 -0.051768921 1.2524954e-38 269 282
-0.06145433 0.70099998 -0.051621638 1.2336614e-38 270 282
-0.060139328 0.69999999 -0.051547997 1.1783799e-38 271 282
-0.058743682 0.69800001 -0.051400717 1.2236868e-38 272 282
-0.05743745 0.69700003 -0.051327083 1.1498943e-38 273 282
-0.056215372 0.69700003 -0.051327083 1.2139643e-38 274 282
-0.054914396 0.69599998 -0.051253434 1.1771221e-38 275 282
-0.053462639 0.69300002 -0.051032521 1.2046379e-38 276 282
-0.052096792 0.69099998 -0.050885238 1.2046379e-38 277 282
-0.050885238 0.69099998 -0.050885238 1.2321892e-38 278 282
-0.049601797 0.69 -0.050811596 1.2321892e-38 279 282
-0.048251733 0.68800002 -0.050664321 1.2321892e-38 280 282
-0.046977058 0.68699998 -0.050590675 1.2414088e-38 281 282
-0.045772515 0.68699998 -0.050590675 1.2136779e-38 282 282
-0.044567976 0.68699998 -0.050590675 1.1952028e-38 283 282
-0.043300316 0.68599999 -0.050517038 1.1771239e-38 284 282
-0.041974798 0.68400002 -0.050369758 1.3891739e-38 285 282
-0.040715907 0.68300003 -0.05029612 1.4093038e-38 286 282
-0.039518382 0.68300003 -0.05029612 1.6490124e-38 287 282
-0.038152531 0.68000001 -0.050075196 1.5854809e-38 288 282
-0.036905911 0.67900002 -0.050001562 1.6500179e-38 289 282
-0.035557602 0.676 -0.049780637 1.6130292e-38 290 282
-0.034372345 0.676 -0.049780637 1.4655162e-38 291 282
-0.033187091 0.676 -0.049780637 1.2539675e-38 292 282
-0.031954501 0.67500001 -0.049706999 1.0788318e-38 293 282
-0.030725412 0.67400002 -0.049633358 8.1160895e-39 294 282
-0.029455997 0.67199999 -0.049486078 7.3785245e-39 295 282
-0.028235679 0.671 -0.049412437 1.0224707e-38 296 282
-0.026938211 0.66799998 -0.04919152 8.5655462e-39 297 282
-0.025766984 0.66799998 -0.04919152 6.5444282e-39 298 282
-0.02459576 0.66799998 -0.04919152 8.572732e-39 299 282
-0.023424532 0.66799998 -0.04919152 7.9306388e-39 300 282
-0.02218668 0.66600001 -0.04904424 8.7607583e-39 301 282
-0.02101896 0.66600001 -0.04904424 1.0878731e-38 302 282
-0.019881045 0.667 -0.049117878 1.1985437e-38 303 282
-0.018711573 0.667 -0.049117878 1.2536791e-38 304 282
-0.018068098 0.68699998 -0.050590675 1.1246052e-38 305 282
-0.01686356 0.68699998 -0.050590675 8.7524289e-39 306 282
-0.015659019 0.68699998 -0.050590675 8.6602333e-39 307 282
-0.014454478 0.68699998 -0.050590675 1.4191978e-38 308 282
-0.0130185 0.67500001 -0.049706999 1.4652596e-38 309 282
-0.011835 0.67500001 -0.049706999 1.2268133e-38 310 282
-0.010604159 0.67199999 -0.049486078 1.401985e-38 311 282
-0.0093978662 0.67000002 -0.049338799 1.7417062e-38 312 282
-0.0082231332 0.67000002 -0.049338799 1.6495105e-38 313 282
-0.0070589199 0.671 -0.049412437 1.4749856e-38 314 282
-0.0058824331 0.671 -0.049412437 1.4565465e-38 315 282
-0.0047059464 0.671 -0.049412437 1.4565112e-38 316 282
-0.00353472 0.67199999 -0.049486078 1.4657307e-38 317 282
-0.0023564799 0.67199999 -0.049486078 1.4474361e-38 318 282
-0.0011782399 0.67199999 -0.049486078 1.4382165e-38 319 282
0 0.67199999 -0.049486078 1.4289253e-38 320 282
0.0011817467 0.67400002 -0.049633358 1.4012306e-38 321 282
0.0023634934 0.67400002 -0.049633358 1.3918673e-38 322 282
0.0035505001 0.67500001 -0.049706999 1.373428e-38 323 282
0.0047339997 0.67500001 -0.049706999 1.3641366e-38 324 282
0.0059174998 0.67500001 -0.049706999 1.3272223e-38 325 282
0.0071115191 0.676 -0.049780637 1.3362621e-38 326 282
0.0082967728 0.676 -0.049780637 1.299384e-38 327 282
0.0095100794 0.67799997 -0.049927916 1.3359381e-38 328 282
0.010698839 0.67799997 -0.049927916 1.2990599e-38 329 282
0.011905133 0.67900002 -0.050001562 1.3264665e-38 330 282
0.013095647 0.67900002 -0.050001562 1.3264665e-38 331 282
0.01434928 0.68199998 -0.050222475 1.3355418e-38 332 282
0.015545053 0.68199998 -0.050222475 1.3171027e-38 333 282
0.016740825 0.68199998 -0.050222475 1.33529e-38 334 282
0.017962901 0.68300003 -0.05029612 1.3260705e-38 335 282
0.019160427 0.68300003 -0.05029612 1.3718806e-38 336 282
0.020357953 0.68300003 -0.05029612 1.362661e-38 337 282
0.02155548 0.68300003 -0.05029612 1.3993229e-38 338 282
0.022852944 0.68599999 -0.050517038 1.3901034e-38 339 282
0.024055731 0.68599999 -0.050517038 1.4544606e-38 340 282
0.025258519 0.68599999 -0.050517038 1.4544606e-38 341 282
0.026499879 0.68699998 -0.050590675 1.4174749e-38 342 282
0.027704418 0.68699998 -0.050590675 1.3252793e-38 343 282
0.028951041 0.68800002 -0.050664321 1.1046562e-38 344 282
0.030157333 0.68800002 -0.050664321 9.1104537e-39 345 282
0.031454802 0.69 -0.050811596 6.4454124e-39 346 282
0.03280662 0.69300002 -0.051032521 4.6014998e-39 347 282
0.034168959 0.69599998 -0.051253434 5.7928557e-39 348 282
0.035440128 0.69700003 -0.051327083 6.2538353e-39 349 282
0.036977798 0.70300001 -0.051768921 8.5508185e-39 350 282
0.038210396 0.70300001 -0.051768921 9.2883836e-39 351 282
0.039499093 0.704 -0.051842559 1.0021998e-38 352 282
0.040733438 0.704 -0.051842559 1.0482976e-38 353 282
0.042146627 0.70700002 -0.05206348 1.0849242e-38 354 282
0.043570329 0.70999998 -0.052284397 1.1125828e-38 355 282
0.044815198 0.70999998 -0.052284397 1.1216951e-38 356 282
0.046124939 0.71100003 -0.052358042 1.1309148e-38 357 282
0.047371563 0.71100003 -0.052358042 1.0942527e-38 358 282
0.048823316 0.71399999 -0.052578956 1.1127277e-38 359 282
0.050215468 0.71600002 -0.052726239 1.030363e-38 360 282
0.051470853 0.71600002 -0.052726239 1.0856445e-38 361 282
0.053020801 0.72000003 -0.053020801 9.4871676e-39 362 282
0.054509375 0.72299999 -0.053241719 1.0132537e-38 363 282
0.055777039 0.72299999 -0.053241719 9.5872721e-39 364 282
-0.069712527 0.70999998 -0.053529263 1.1420424e-38 264 283
-0.068274796 0.708 -0.053378478 1.0959446e-38 265 283
-0.067033432 0.708 -0.053378478 1.1874212e-38 266 283
-0.065699153 0.70700002 -0.053303085 1.2058603e-38 267 283
-0.064368367 0.70599997 -0.053227689 1.2153668e-38 268 283
-0.062951677 0.704 -0.053076904 1.2614646e-38 269 283
-0.061629668 0.70300001 -0.053001512 1.2156892e-38 270 283
-0.060139328 0.69999999 -0.052775331 1.2433838e-38 271 283
-0.058743682 0.69800001 -0.052624546 1.2982337e-38 272 283
-0.05743745 0.69700003 -0.052549154 1.1599402e-38 273 283
-0.056215372 0.69700003 -0.052549154 1.1776612e-38 274 283
-0.054914396 0.69599998 -0.052473757 1.1131242e-38 275 283
-0.053462639 0.69300002 -0.05224758 1.2137846e-38 276 283
-0.052096792 0.69099998 -0.052096792 1.2230041e-38 277 283
-0.050811596 0.69 -0.052021399 1.2230047e-38 278 283
-0.049601797 0.69 -0.052021399 1.2137851e-38 279 283
-0.048251733 0.68800002 -0.051870614 1.2228978e-38 280 283
-0.046977058 0.68699998 -0.051795214 1.2228978e-38 281 283
-0.045772515 0.68699998 -0.051795214 1.2504485e-38 282 283
-0.044503104 0.68599999 -0.051719822 1.2688877e-38 283 283
-0.043174081 0.68400002 -0.051569041 1.2965108e-38 284 283
-0.041913435 0.68300003 -0.051493648 1.2596684e-38 285 283
-0.040656291 0.68199998 -0.051418249 1.1592606e-38 286 283
-0.039460517 0.68199998 -0.051418249 1.3989692e-38 287 283
-0.038152531 0.68000001 -0.051267464 1.3360498e-38 288 283
-0.036851559 0.67799997 -0.051116679 1.5204411e-38 289 283
-0.035557602 0.676 -0.050965894 1.539274e-38 290 283
-0.034372345 0.676 -0.050965894 1.557749e-38 291 283
-0.033137999 0.67500001 -0.050890498 1.5393443e-38 292 283
-0.031954501 0.67500001 -0.050890498 1.5209412e-38 293 283
-0.030725412 0.67400002 -0.050815105 1.4565833e-38 294 283
-0.029455997 0.67199999 -0.050664317 1.401266e-38 295 283
-0.028235679 0.671 -0.050588924 1.3824984e-38 296 283
-0.027018867 0.67000002 -0.050513536 1.0690692e-38 297 283
-0.025766984 0.66799998 -0.050362743 7.9230004e-39 298 283
-0.02459576 0.66799998 -0.050362743 8.015196e-39 299 283
-0.023424532 0.66799998 -0.050362743 5.9080579e-39 300 283
-0.02218668 0.66600001 -0.050211959 9.4118506e-39 301 283
-0.02101896 0.66600001 -0.050211959 1.2445341e-38 302 283
-0.019851239 0.66600001 -0.050211959 1.309071e-38 303 283
-0.018683519 0.66600001 -0.050211959 1.2722274e-38 304 283
-0.017515799 0.66600001 -0.050211959 1.0417385e-38 305 283
-0.01649536 0.67199999 -0.050664317 8.013457e-39 306 283
-0.01531712 0.67199999 -0.050664317 9.4885871e-39 307 283
-0.01413888 0.67199999 -0.050664317 1.4930653e-38 308 283
-0.012960639 0.67199999 -0.050664317 1.5391631e-38 309 283
-0.011782399 0.67199999 -0.050664317 1.263836e-38 310 283
-0.01058838 0.671 -0.050588924 1.540423e-38 311 283
-0.0093978662 0.67000002 -0.050513536 2.0181858e-38 312 283
-0.0081985854 0.66799998 -0.050362743 1.7969163e-38 313 283
-0.0070273597 0.66799998 -0.050362743 1.5027169e-38 314 283
-0.0058824331 0.671 -0.050588924 1.4381799e-38 315 283
-0.0047059464 0.671 -0.050588924 1.4472919e-38 316 283
-0.0035294599 0.671 -0.050588924 1.465731e-38 317 283
-0.0023529732 0.671 -0.050588924 1.4564759e-38 318 283
-0.0011764866 0.671 -0.050588924 1.4472563e-38 319 283
0 0.67199999 -0.050664317 1.4287451e-38 320 283
0.0011782399 0.67199999 -0.050664317 1.3826475e-38 321 283
0.0023564799 0.67199999 -0.050664317 1.3823959e-38 322 283
0.00354524 0.67400002 -0.050815105 1.3547012e-38 323 283
0.0047269869 0.67400002 -0.050815105 1.354557e-38 324 283
0.0059174998 0.67500001 -0.050890498 1.3176788e-38 325 283
0.0071115191 0.676 -0.050965894 1.3542333e-38 326 283
0.0082967728 0.676 -0.050965894 1.3265388e-38 327 283
0.0094820261 0.676 -0.050965894 1.3356867e-38 328 283
0.010698839 0.67799997 -0.051116679 1.326467e-38 329 283
0.011887599 0.67799997 -0.051116679 1.3630573e-38 330 283
0.013076359 0.67799997 -0.051116679 1.3354346e-38 331 283
0.014307199 0.68000001 -0.051267464 1.3720605e-38 332 283
0.015499466 0.68000001 -0.051267464 1.3720605e-38 333 283
0.016691733 0.68000001 -0.051267464 1.408687e-38 334 283
0.017936599 0.68199998 -0.051418249 1.408687e-38 335 283
0.019132372 0.68199998 -0.051418249 1.4086514e-38 336 283
0.020328145 0.68199998 -0.051418249 1.4178709e-38 337 283
0.021523919 0.68199998 -0.051418249 1.4546053e-38 338 283
0.022753006 0.68300003 -0.051493648 1.4822279e-38 339 283
0.0239856 0.68400002 -0.051569041 1.5466214e-38 340 283
0.025184879 0.68400002 -0.051569041 1.5466214e-38 341 283
0.026461305 0.68599999 -0.051719822 1.3711972e-38 342 283
0.027704418 0.68699998 -0.051795214 1.0116344e-38 343 283
0.028951041 0.68800002 -0.051870614 6.8037637e-39 344 283
0.030157333 0.68800002 -0.051870614 5.5130249e-39 345 283
0.031454802 0.69 -0.052021399 3.956506e-39 346 283
0.033137999 0.69999999 -0.052775331 4.7859065e-39 347 283
0.034365334 0.69999999 -0.052775331 8.3675217e-39 348 283
0.035643511 0.70099998 -0.052850723 9.0128911e-39 349 283
0.037030395 0.704 -0.053076904 1.1033276e-38 350 283
0.038264744 0.704 -0.053076904 1.1217669e-38 351 283
0.039499093 0.704 -0.053076904 1.1033276e-38 352 283
0.040849157 0.70599997 -0.053227689 1.1125472e-38 353 283
0.042146627 0.70700002 -0.053303085 1.1124756e-38 354 283
0.043447599 0.708 -0.053378478 1.1216951e-38 355 283
0.044878319 0.71100003 -0.053604662 1.0758494e-38 356 283
0.046254687 0.713 -0.053755447 1.1034722e-38 357 283
0.047504812 0.713 -0.053755447 1.030363e-38 358 283
0.048960082 0.71600002 -0.053981625 1.0856445e-38 359 283
0.0502856 0.71700001 -0.054057021 9.6683288e-39 360 283
0.051542737 0.71700001 -0.054057021 1.0405894e-38 361 283
0.053168077 0.722 -0.054433983 9.0319473e-39 362 283
-0.067033432 0.708 -0.054619838 1.1320683e-38 266 284
-0.065699153 0.70700002 -0.054542694 1.1320683e-38 267 284
-0.064368367 0.70599997 -0.054465543 1.1509023e-38 268 284
-0.062951677 0.704 -0.054311249 1.2246588e-38 269 284
-0.061629668 0.70300001 -0.054234106 1.2156895e-38 270 284
-0.060139328 0.69999999 -0.054002665 1.224909e-38 271 284
-0.058743682 0.69800001 -0.053848371 1.2432405e-38 272 284
-0.05743745 0.69700003 -0.053771228 1.1603005e-38 273 284
-0.056215372 0.69700003 -0.053771228 1.2060753e-38 274 284
-0.054914396 0.69599998 -0.053694077 1.1784165e-38 275 284
-0.053462639 0.69300002 -0.053462639 1.2420181e-38 276 284
-0.052096792 0.69099998 -0.053308345 1.1682614e-38 277 284
-0.050811596 0.69 -0.053231198 1.1956331e-38 278 284
-0.049601797 0.69 -0.053231198 1.1679744e-38 279 284
-0.048251733 0.68800002 -0.053076908 1.1953464e-38 280 284
-0.046977058 0.68699998 -0.052999757 1.1953464e-38 281 284
-0.045772515 0.68699998 -0.052999757 1.2228972e-38 282 284
-0.044503104 0.68599999 -0.05292261 1.2505557e-38 283 284
-0.043174081 0.68400002 -0.05276832 1.268995e-38 284 284
-0.041913435 0.68300003 -0.052691177 1.268995e-38 285 284
-0.040656291 0.68199998 -0.052614026 1.223149e-38 286 284
-0.039344799 0.68000001 -0.052459732 1.2784662e-38 287 284
-0.038040318 0.67799997 -0.052305438 1.2331244e-38 288 284
-0.036851559 0.67799997 -0.052305438 1.3714179e-38 289 284
-0.035557602 0.676 -0.052151144 1.3544161e-38 290 284
-0.034321502 0.67500001 -0.052074 1.4650868e-38 291 284
-0.033137999 0.67500001 -0.052074 1.4472215e-38 292 284
-0.03190716 0.67400002 -0.051996857 1.4656607e-38 293 284
-0.030725412 0.67400002 -0.051996857 1.4381096e-38 294 284
-0.029412165 0.671 -0.051765412 1.4381096e-38 295 284
-0.028235679 0.671 -0.051765412 1.4381067e-38 296 284
-0.027018867 0.67000002 -0.051688269 1.3182883e-38 297 284
-0.025844134 0.67000002 -0.051688269 1.2161504e-38 298 284
-0.02459576 0.66799998 -0.051533967 8.6580683e-39 299 284
-0.023424532 0.66799998 -0.051533967 5.9062586e-39 300 284
-0.02218668 0.66600001 -0.051379681 1.0885183e-38 301 284
-0.02101896 0.66600001 -0.051379681 1.2813769e-38 302 284
-0.019851239 0.66600001 -0.051379681 1.2629019e-38 303 284
-0.018683519 0.66600001 -0.051379681 7.0108335e-39 304 284
-0.017515799 0.66600001 -0.051379681 3.6917909e-39 305 284
-0.016397171 0.66799998 -0.051533967 4.2298629e-39 306 284
-0.015225946 0.66799998 -0.051533967 7.0882861e-39 307 284
-0.01411784 0.671 -0.051765412 1.0792299e-38 308 284
-0.012941353 0.671 -0.051765412 1.3650365e-38 309 284
-0.011764866 0.671 -0.051765412 1.5856948e-38 310 284
-0.0105726 0.67000002 -0.051688269 1.7885252e-38 311 284
-0.0093978662 0.67000002 -0.051688269 1.9817407e-38 312 284
-0.0081985854 0.66799998 -0.051533967 1.8250441e-38 313 284
-0.0070273597 0.66799998 -0.051533967 1.6504832e-38 314 284
-0.0058736666 0.67000002 -0.051688269 1.6412637e-38 315 284
-0.0046989331 0.67000002 -0.051688269 1.7053323e-38 316 284
-0.0035241998 0.67000002 -0.051688269 1.6407954e-38 317 284
-0.0023529732 0.671 -0.051765412 1.4746636e-38 318 284
-0.0011764866 0.671 -0.051765412 1.4009069e-38 319 284
0 0.671 -0.051765412 1.3548812e-38 320 284
0.0011782399 0.67199999 -0.051842555 1.3180028e-38 321 284
0.0023564799 0.67199999 -0.051842555 1.3083876e-38 322 284
0.00354524 0.67400002 -0.051996857 1.2991322e-38 323 284
0.0047269869 0.67400002 -0.051996857 1.354018e-38 324 284
0.0059087332 0.67400002 -0.051996857 1.354018e-38 325 284
0.0071010003 0.67500001 -0.052074 1.3539462e-38 326 284
0.0082967728 0.676 -0.052151144 1.3354712e-38 327 284
0.0094820261 0.676 -0.052151144 1.3630579e-38 328 284
0.01066728 0.676 -0.052151144 1.3538383e-38 329 284
0.011887599 0.67799997 -0.052305438 1.3720974e-38 330 284
0.013076359 0.67799997 -0.052305438 1.3720974e-38 331 284
0.01428616 0.67900002 -0.052382588 1.3903923e-38 332 284
0.015453878 0.67799997 -0.052305438 1.4088314e-38 333 284
0.016642639 0.67799997 -0.052305438 1.4363459e-38 334 284
0.0178314 0.67799997 -0.052305438 1.4363459e-38 335 284
0.019048214 0.67900002 -0.052382588 1.463897e-38 336 284
0.020238725 0.67900002 -0.052382588 1.4823363e-38 337 284
0.021523919 0.68199998 -0.052614026 1.5004878e-38 338 284
0.022719691 0.68199998 -0.052614026 1.4728293e-38 339 284
0.023950534 0.68300003 -0.052691177 1.4725778e-38 340 284
0.025184879 0.68400002 -0.05276832 1.29737e-38 341 284
0.026461305 0.68599999 -0.05292261 1.1126903e-38 342 284
0.027744746 0.68800002 -0.053076908 8.0844454e-39 343 284
0.028951041 0.68800002 -0.053076908 5.2432791e-39 344 284
0.030157333 0.68800002 -0.053076908 6.1648753e-39 345 284
0.031591557 0.69300002 -0.053462639 8.5504626e-39 346 284
0.033137999 0.69999999 -0.054002665 9.4724175e-39 347 284
0.034365334 0.69999999 -0.054002665 1.0574097e-38 348 284
0.035745207 0.70300001 -0.054234106 1.0481902e-38 349 284
0.037030395 0.704 -0.054311249 1.0849964e-38 350 284
0.038373452 0.70599997 -0.054465543 1.0849964e-38 351 284
0.039611302 0.70599997 -0.054465543 1.1215872e-38 352 284
0.040849157 0.70599997 -0.054465543 1.1215872e-38 353 284
0.042146627 0.70700002 -0.054542694 1.0758494e-38 354 284
0.043447599 0.708 -0.054619838 1.0942527e-38 355 284
0.044878319 0.71100003 -0.054851279 1.030363e-38 356 284
0.046319555 0.71399999 -0.05508272 1.0764249e-38 357 284
0.047704693 0.71600002 -0.055237014 9.4853725e-39 358 284
0.04902846 0.71700001 -0.055314157 9.5775681e-39 359 284
0.0502856 0.71700001 -0.055314157 8.8461183e-39 360 284
-0.065699153 0.70700002 -0.055782299 1.0404843e-38 267 285
-0.064368367 0.70599997 -0.055703394 1.0772548e-38 268 285
-0.062951677 0.704 -0.055545598 1.1694863e-38 269 285
-0.061629668 0.70300001 -0.0554667 1.1882125e-38 270 285
-0.060225245 0.70099998 -0.055308893 1.1697734e-38 271 285
-0.058743682 0.69800001 -0.0550722 1.1512973e-38 272 285
-0.057519849 0.69800001 -0.0550722 1.1512973e-38 273 285
-0.056215372 0.69700003 -0.054993302 1.2339136e-38 274 285
-0.054914396 0.69599998 -0.054914396 1.3168899e-38 275 285
-0.053462639 0.69300002 -0.054677699 1.2886919e-38 276 285
-0.052096792 0.69099998 -0.054519895 1.1043007e-38 277 285
-0.050885238 0.69099998 -0.054519895 1.1957406e-38 278 285
-0.049601797 0.69 -0.054440998 1.1772656e-38 279 285
-0.048251733 0.68800002 -0.054283202 1.1953814e-38 280 285
-0.046977058 0.68699998 -0.054204296 1.1953814e-38 281 285
-0.045772515 0.68699998 -0.054204296 1.2320089e-38 282 285
-0.044503104 0.68599999 -0.054125395 1.2597034e-38 283 285
-0.043300316 0.68599999 -0.054125395 1.2507357e-38 284 285
-0.041913435 0.68300003 -0.053888701 1.2691748e-38 285 285
-0.040656291 0.68199998 -0.053809796 1.2509157e-38 286 285
-0.039344799 0.68000001 -0.053652 1.2509157e-38 287 285
-0.038040318 0.67799997 -0.053494196 1.213894e-38 288 285
-0.036742851 0.676 -0.053336397 1.1678322e-38 289 285
-0.035505001 0.67500001 -0.053257499 1.1597632e-38 290 285
-0.034321502 0.67500001 -0.053257499 1.3994359e-38 291 285
-0.033088908 0.67400002 -0.053178601 1.3729275e-38 292 285
-0.03190716 0.67400002 -0.053178601 1.4743786e-38 293 285
-0.030634239 0.67199999 -0.053020798 1.391941e-38 294 285
-0.029412165 0.671 -0.052941896 1.391941e-38 295 285
-0.028235679 0.671 -0.052941896 1.382936e-38 296 285
-0.027018867 0.67000002 -0.052863002 1.4382534e-38 297 285
-0.025844134 0.67000002 -0.052863002 1.5115402e-38 298 285
-0.02459576 0.66799998 -0.052705199 1.1703805e-38 299 285
-0.023424532 0.66799998 -0.052705199 8.7611058e-39 300 285
-0.022219993 0.667 -0.052626297 1.1895757e-38 301 285
-0.02101896 0.66600001 -0.052547399 1.2630471e-38 302 285
-0.019851239 0.66600001 -0.052547399 1.1524123e-38 303 285
-0.018683519 0.66600001 -0.052547399 2.9614383e-39 304 285
-0.017515799 0.66600001 -0.052547399 1.0253301e-39 305 285
-0.016348081 0.66600001 -0.052547399 2.6762068e-39 306 285
-0.015225946 0.66799998 -0.052705199 4.3360883e-39 307 285
-0.014096799 0.67000002 -0.052863002 1.0699385e-38 308 285
-0.012922067 0.67000002 -0.052863002 1.2358546e-38 309 285
-0.011747333 0.67000002 -0.052863002 1.2822065e-38 310 285
-0.0105726 0.67000002 -0.052863002 1.6141107e-38 311 285
-0.0093698129 0.66799998 -0.052705199 2.0737585e-38 312 285
-0.0081985854 0.66799998 -0.052705199 1.9723792e-38 313 285
-0.0070273597 0.66799998 -0.052705199 1.7980691e-38 314 285
-0.0058561331 0.66799998 -0.052705199 1.8441309e-38 315 285
-0.0046778931 0.667 -0.052626297 1.9080195e-38 316 285
-0.0035084197 0.667 -0.052626297 1.7605425e-38 317 285
-0.0023494666 0.67000002 -0.052863002 1.4470048e-38 318 285
-0.0011747333 0.67000002 -0.052863002 1.3179309e-38 319 285
0 0.671 -0.052941896 1.3454819e-38 320 285
0.0011764866 0.671 -0.052941896 1.2901646e-38 321 285
0.0023564799 0.67199999 -0.053020798 1.3079923e-38 322 285
0.00353472 0.67199999 -0.053020798 1.2987727e-38 323 285
0.0047129598 0.67199999 -0.053020798 1.3720976e-38 324 285
0.0058911997 0.67199999 -0.053020798 1.3720976e-38 325 285
0.0070904801 0.67400002 -0.053178601 1.3536945e-38 326 285
0.0082844999 0.67500001 -0.053257499 1.3536945e-38 327 285
0.0094679995 0.67500001 -0.053257499 1.3720255e-38 328 285
0.0106515 0.67500001 -0.053257499 1.381245e-38 329 285
0.011852534 0.676 -0.053336397 1.4178715e-38 330 285
0.013037786 0.676 -0.053336397 1.427091e-38 331 285
0.014265119 0.67799997 -0.053494196 1.4363106e-38 332 285
0.015453878 0.67799997 -0.053494196 1.4639333e-38 333 285
0.016642639 0.67799997 -0.053494196 1.4821929e-38 334 285
0.0178314 0.67799997 -0.053494196 1.4914125e-38 335 285
0.019020159 0.67799997 -0.053494196 1.5188198e-38 336 285
0.020208918 0.67799997 -0.053494196 1.5003806e-38 337 285
0.021429239 0.67900002 -0.053573098 1.509132e-38 338 285
0.022619752 0.67900002 -0.053573098 1.4353755e-38 339 285
0.023810266 0.67900002 -0.053573098 1.4256518e-38 340 285
0.02514806 0.68300003 -0.053888701 1.1582844e-38 341 285
0.026461305 0.68599999 -0.054125395 9.740001e-39 342 285
0.027744746 0.68800002 -0.054283202 9.4634141e-39 343 285
0.028951041 0.68800002 -0.054283202 8.0930774e-39 344 285
0.030244999 0.69 -0.054440998 8.8306424e-39 345 285
0.031637147 0.69400001 -0.054756597 1.0572305e-38 346 285
0.033043321 0.69800001 -0.0550722 1.1125119e-38 347 285
0.034512613 0.70300001 -0.0554667 1.1124753e-38 348 285
0.035745207 0.70300001 -0.0554667 1.1032557e-38 349 285
0.037030395 0.704 -0.055545598 1.1033276e-38 350 285
0.038373452 0.70599997 -0.055703394 1.1033276e-38 351 285
0.039611302 0.70599997 -0.055703394 1.1033279e-38 352 285
0.040849157 0.70599997 -0.055703394 1.1125475e-38 353 285
0.042146627 0.70700002 -0.055782299 1.0393306e-38 354 285
0.043570329 0.70999998 -0.056018997 1.094648e-38 355 285
0.044878319 0.71100003 -0.056097899 9.5757703e-39 356 285
0.046449307 0.71600002 -0.056492399 1.022114e-38 357 285
0.04777132 0.71700001 -0.056571297 9.1223451e-39 358 285
-0.064186029 0.704 -0.056779943 1.0957648e-38 268 286
-0.062951677 0.704 -0.056779943 1.0957648e-38 269 286
-0.061629668 0.70300001 -0.056699295 1.0959446e-38 270 286
-0.060225245 0.70099998 -0.056537982 1.1328229e-38 271 286
-0.058743682 0.69800001 -0.056296028 1.1696282e-38 272 286
-0.057519849 0.69800001 -0.056296028 1.1881032e-38 273 286
-0.056215372 0.69700003 -0.056215372 1.1973229e-38 274 286
-0.054914396 0.69599998 -0.056134716 1.1973229e-38 275 286
-0.053462639 0.69300002 -0.055892758 1.2243704e-38 276 286
-0.05224758 0.69300002 -0.055892758 1.1413584e-38 277 286
-0.050885238 0.69099998 -0.055731449 1.1685855e-38 278 286
-0.049601797 0.69 -0.055650797 1.1133042e-38 279 286
-0.048251733 0.68800002 -0.055489492 1.1864857e-38 280 286
-0.046977058 0.68699998 -0.055408835 1.140388e-38 281 286
-0.045772515 0.68699998 -0.055408835 1.2137851e-38 282 286
-0.044503104 0.68599999 -0.055328183 1.2414438e-38 283 286
-0.043300316 0.68599999 -0.055328183 1.2324395e-38 284 286
-0.041974798 0.68400002 -0.055166878 1.241659e-38 285 286
-0.040656291 0.68199998 -0.055005573 1.250771e-38 286 286
-0.039344799 0.68000001 -0.054844268 1.2599905e-38 287 286
-0.038040318 0.67799997 -0.054682959 1.2509152e-38 288 286
-0.036742851 0.676 -0.054521654 1.2416956e-38 289 286
-0.035505001 0.67500001 -0.054441001 1.1771236e-38 290 286
-0.034321502 0.67500001 -0.054441001 1.2232215e-38 291 286
-0.033088908 0.67400002 -0.054360349 1.1872068e-38 292 286
-0.031812478 0.67199999 -0.054199036 1.4269153e-38 293 286
-0.030588651 0.671 -0.054118387 1.2996026e-38 294 286
-0.029412165 0.671 -0.054118387 1.3365167e-38 295 286
-0.028193599 0.67000002 -0.054037735 1.3460584e-38 296 286
-0.027018867 0.67000002 -0.054037735 1.3921563e-38 297 286
-0.025766984 0.66799998 -0.053876422 1.4289253e-38 298 286
-0.02459576 0.66799998 -0.053876422 1.2906319e-38 299 286
-0.023424532 0.66799998 -0.053876422 1.253646e-38 300 286
-0.022219993 0.667 -0.05379577 1.2720852e-38 301 286
-0.02101896 0.66600001 -0.053715117 1.1985817e-38 302 286
-0.019851239 0.66600001 -0.053715117 1.0418852e-38 303 286
-0.018683519 0.66600001 -0.053715117 1.9472738e-39 304 286
-0.017515799 0.66600001 -0.053715117 1.3944587e-39 305 286
-0.016348081 0.66600001 -0.053715117 7.2056491e-39 306 286
-0.01518036 0.66600001 -0.053715117 9.4187029e-39 307 286
-0.014033679 0.667 -0.05379577 1.281343e-38 308 286
-0.012864206 0.667 -0.05379577 9.5865827e-39 309 286
-0.011694733 0.667 -0.05379577 4.0347587e-41 310 286
-0.01054104 0.66799998 -0.053876422 7.6925863e-39 311 286
-0.0093698129 0.66799998 -0.053876422 2.0825467e-38 312 286
-0.0081863133 0.667 -0.05379577 1.9626924e-38 313 286
-0.0070168395 0.667 -0.05379577 1.5123699e-38 314 286
-0.0058561331 0.66799998 -0.053876422 1.4847112e-38 315 286
-0.0046778931 0.667 -0.05379577 1.6312888e-38 316 286
-0.0035084197 0.667 -0.05379577 1.5298376e-38 317 286
-0.0023494666 0.67000002 -0.054037735 1.253646e-38 318 286
-0.0011747333 0.67000002 -0.054037735 1.2075482e-38 319 286
0 0.67000002 -0.054037735 1.3176791e-38 320 286
0.0011764866 0.671 -0.054118387 1.2899845e-38 321 286
0.0023529732 0.671 -0.054118387 1.3539456e-38 322 286
0.00353472 0.67199999 -0.054199036 1.3355065e-38 323 286
0.0047129598 0.67199999 -0.054199036 1.3720611e-38 324 286
0.0058911997 0.67199999 -0.054199036 1.3628056e-38 325 286
0.0070904801 0.67400002 -0.054360349 1.39954e-38 326 286
0.0082722269 0.67400002 -0.054360349 1.39954e-38 327 286
0.0094679995 0.67500001 -0.054441001 1.4087595e-38 328 286
0.0106515 0.67500001 -0.054441001 1.4271627e-38 329 286
0.011852534 0.676 -0.054521654 1.4548218e-38 330 286
0.013037786 0.676 -0.054521654 1.4363825e-38 331 286
0.014265119 0.67799997 -0.054682959 1.4823012e-38 332 286
0.015453878 0.67799997 -0.054682959 1.4085446e-38 333 286
0.016642639 0.67799997 -0.054682959 1.4721108e-38 334 286
0.0178314 0.67799997 -0.054682959 1.4075739e-38 335 286
0.019020159 0.67799997 -0.054682959 1.4531325e-38 336 286
0.020208918 0.67799997 -0.054682959 1.379376e-38 337 286
0.021429239 0.67900002 -0.054763615 1.4249698e-38 338 286
0.022619752 0.67900002 -0.054763615 1.3789078e-38 339 286
0.023810266 0.67900002 -0.054763615 1.3421366e-38 340 286
0.025111238 0.68199998 -0.055005573 1.26838e-38 341 286
0.026461305 0.68599999 -0.055328183 1.1585716e-38 342 286
0.027825398 0.69 -0.055650797 1.2138888e-38 343 286
0.029035198 0.69 -0.055650797 1.1677914e-38 344 286
0.0303765 0.69300002 -0.055892758 1.1308771e-38 345 286
0.031728316 0.69599998 -0.056134716 1.0667368e-38 346 286
0.033043321 0.69800001 -0.056296028 1.0482976e-38 347 286
0.034512613 0.70300001 -0.056699295 1.1124756e-38 348 286
0.035745207 0.70300001 -0.056699295 1.1124756e-38 349 286
0.037030395 0.704 -0.056779943 1.0941809e-38 350 286
0.038373452 0.70599997 -0.056941248 1.0849614e-38 351 286
0.039611302 0.70599997 -0.056941248 1.0669538e-38 352 286
0.040907022 0.70700002 -0.057021905 1.0946127e-38 353 286
0.042206239 0.708 -0.057102561 9.4850166e-39 354 286
0.043570329 0.70999998 -0.057263866 9.9459947e-39 355 286
0.045004558 0.713 -0.057505824 9.122701e-39 356 286
-0.061717331 0.704 -0.058014292 9.9492569e-39 270 287
-0.06039707 0.70300001 -0.057931885 1.0318398e-38 271 287
-0.058911994 0.69999999 -0.05768466 1.0869415e-38 272 287
-0.05768466 0.69999999 -0.05768466 1.1514785e-38 273 287
-0.056296028 0.69800001 -0.057519849 1.2250906e-38 274 287
-0.054993302 0.69700003 -0.05743745 1.1236756e-38 275 287
-0.053694077 0.69599998 -0.057355035 1.2151503e-38 276 287
-0.05224758 0.69300002 -0.057107817 1.1874916e-38 277 287
-0.050885238 0.69099998 -0.056942999 1.2147534e-38 278 287
-0.049673684 0.69099998 -0.056942999 1.1686915e-38 279 287
-0.048391998 0.69 -0.0568606 1.2325817e-38 280 287
-0.047045439 0.68800002 -0.056695789 1.204923e-38 281 287
-0.045772515 0.68699998 -0.056613375 1.2232195e-38 282 287
-0.044567976 0.68699998 -0.056613375 1.2324392e-38 283 287
-0.043300316 0.68599999 -0.056530971 1.1956698e-38 284 287
-0.041974798 0.68400002 -0.056366164 1.1956698e-38 285 287
-0.040656291 0.68199998 -0.056201346 1.1956701e-38 286 287
-0.039344799 0.68000001 -0.056036532 1.2141092e-38 287 287
-0.038096428 0.67900002 -0.055954125 1.2233641e-38 288 287
-0.036742851 0.676 -0.055706903 1.2602422e-38 289 287
-0.035505001 0.67500001 -0.0556245 1.2417312e-38 290 287
-0.034321502 0.67500001 -0.0556245 1.1403162e-38 291 287
-0.033088908 0.67400002 -0.055542093 1.1310258e-38 292 287
-0.031812478 0.67199999 -0.055377278 1.2416606e-38 293 287
-0.030588651 0.671 -0.055294871 1.2246962e-38 294 287
-0.029412165 0.671 -0.055294871 1.3906482e-38 295 287
-0.028193599 0.67000002 -0.055212468 1.3823622e-38 296 287
-0.026938211 0.66799998 -0.05504765 1.42846e-38 297 287
-0.025766984 0.66799998 -0.05504765 1.3459505e-38 298 287
-0.02459576 0.66799998 -0.05504765 1.2906332e-38 299 287
-0.023424532 0.66799998 -0.05504765 1.2997081e-38 300 287
-0.022219993 0.667 -0.054965243 1.3365865e-38 301 287
-0.02101896 0.66600001 -0.054882839 1.3274741e-38 302 287
-0.019851239 0.66600001 -0.054882839 1.2076198e-38 303 287
-0.018683519 0.66600001 -0.054882839 9.4032522e-39 304 287
-0.017515799 0.66600001 -0.054882839 8.7582415e-39 305 287
-0.016348081 0.66600001 -0.054882839 1.1983652e-38 306 287
-0.01518036 0.66600001 -0.054882839 1.3274391e-38 307 287
-0.014033679 0.667 -0.054965243 1.3086059e-38 308 287
-0.012864206 0.667 -0.054965243 1.0043604e-38 309 287
-0.011694733 0.667 -0.054965243 3.817137e-41 310 287
-0.010525259 0.667 -0.054965243 3.2704204e-39 311 287
-0.0093557863 0.667 -0.054965243 1.5848676e-38 312 287
-0.0081863133 0.667 -0.054965243 1.4373906e-38 313 287
-0.0070168395 0.667 -0.054965243 1.1523718e-38 314 287
-0.0058473665 0.667 -0.054965243 1.2998488e-38 315 287
-0.0046778931 0.667 -0.054965243 1.4743738e-38 316 287
-0.0035084197 0.667 -0.054965243 1.4006173e-38 317 287
-0.0023424532 0.66799998 -0.05504765 1.3176788e-38 318 287
-0.0011712266 0.66799998 -0.05504765 1.2900201e-38 319 287
0 0.67000002 -0.055212468 1.3267188e-38 320 287
0.0011747333 0.67000002 -0.055212468 1.2990243e-38 321 287
0.0023529732 0.671 -0.055294871 1.3722409e-38 322 287
0.0035294599 0.671 -0.055294871 1.3629854e-38 323 287
0.0047059464 0.671 -0.055294871 1.4087593e-38 324 287
0.0058824331 0.671 -0.055294871 1.3995397e-38 325 287
0.0070694401 0.67199999 -0.055377278 1.4270189e-38 326 287
0.00824768 0.67199999 -0.055377278 1.4270189e-38 327 287
0.0094539737 0.67400002 -0.055542093 1.4729012e-38 328 287
0.01063572 0.67400002 -0.055542093 1.4729012e-38 329 287
0.011817466 0.67400002 -0.055542093 1.5553743e-38 330 287
0.012999214 0.67400002 -0.055542093 1.5276796e-38 331 287
0.014223038 0.676 -0.055706903 1.5089888e-38 332 287
0.015408293 0.676 -0.055706903 1.4168291e-38 333 287
0.016593546 0.676 -0.055706903 1.4440199e-38 334 287
0.0178314 0.67799997 -0.055871718 1.3794829e-38 335 287
0.019020159 0.67799997 -0.055871718 1.3882712e-38 336 287
0.020208918 0.67799997 -0.055871718 1.3421735e-38 337 287
0.021429239 0.67900002 -0.055954125 1.3238423e-38 338 287
0.022619752 0.67900002 -0.055954125 1.2961475e-38 339 287
0.023810266 0.67900002 -0.055954125 1.2870709e-38 340 287
0.025111238 0.68199998 -0.056201346 1.3423883e-38 341 287
0.026769891 0.69400001 -0.057190225 1.2234305e-38 342 287
0.027986705 0.69400001 -0.057190225 1.195736e-38 343 287
0.029203519 0.69400001 -0.057190225 1.1679336e-38 344 287
0.030551834 0.69700003 -0.05743745 1.1218358e-38 345 287
0.03177391 0.69700003 -0.05743745 1.1125106e-38 346 287
0.033137999 0.69999999 -0.05768466 1.1125106e-38 347 287
0.034512613 0.70300001 -0.057931885 1.1032923e-38 348 287
0.035796054 0.704 -0.058014292 1.1125119e-38 349 287
0.037030395 0.704 -0.058014292 1.0759933e-38 350 287
0.038373452 0.70599997 -0.058179103 1.1129075e-38 351 287
0.039611302 0.70599997 -0.058179103 9.7576406e-39 352 287
0.040907022 0.70700002 -0.05826151 1.0679238e-38 353 287
0.042206239 0.708 -0.058343921 9.122701e-39 354 287
0.043631699 0.71100003 -0.058591139 9.122701e-39 355 287
-0.06039707 0.70300001 -0.059164476 1.0225471e-38 271 288
-0.058911994 0.69999999 -0.058911994 9.6755413e-39 272 288
-0.05768466 0.69999999 -0.058911994 1.0228715e-38 273 288
-0.056296028 0.69800001 -0.058743682 1.1239996e-38 274 288
-0.054993302 0.69700003 -0.05865952 1.1239996e-38 275 288
-0.053694077 0.69599998 -0.058575355 1.2246585e-38 276 288
-0.05224758 0.69300002 -0.058322877 1.1693411e-38 277 288
-0.050885238 0.69099998 -0.058154557 1.1783443e-38 278 288
-0.049673684 0.69099998 -0.058154557 1.1506855e-38 279 288
-0.048391998 0.69 -0.058070395 1.2237587e-38 280 288
-0.047045439 0.68800002 -0.057902083 1.1776609e-38 281 288
-0.045772515 0.68699998 -0.057817914 1.2142517e-38 282 288
-0.044567976 0.68699998 -0.057817914 1.2050322e-38 283 288
-0.043300316 0.68599999 -0.057733759 1.1958849e-38 284 288
-0.041974798 0.68400002 -0.057565439 1.1866654e-38 285 288
-0.040656291 0.68199998 -0.05739712 1.1864852e-38 286 288
-0.039344799 0.68000001 -0.057228796 1.1957406e-38 287 288
-0.038096428 0.67900002 -0.057144642 1.2325111e-38 288 288
-0.036851559 0.67799997 -0.057060476 1.2509502e-38 289 288
-0.035557602 0.676 -0.056892153 1.2509505e-38 290 288
-0.034321502 0.67500001 -0.056808002 1.2417309e-38 291 288
-0.033088908 0.67400002 -0.056723841 1.2692467e-38 292 288
-0.031812478 0.67199999 -0.056555521 1.1678675e-38 293 288
-0.030634239 0.67199999 -0.056555521 1.1219137e-38 294 288
-0.029412165 0.671 -0.056471359 1.3154887e-38 295 288
-0.028193599 0.67000002 -0.056387197 1.24335e-38 296 288
-0.026938211 0.66799998 -0.056218877 1.3724239e-38 297 288
-0.025766984 0.66799998 -0.056218877 1.2995659e-38 298 288
-0.02459576 0.66799998 -0.056218877 1.3180051e-38 299 288
-0.023424532 0.66799998 -0.056218877 1.3825771e-38 300 288
-0.022219993 0.667 -0.056134716 1.4563336e-38 301 288
-0.02101896 0.66600001 -0.056050558 1.4840272e-38 302 288
-0.019851239 0.66600001 -0.056050558 1.4840272e-38 303 288
-0.018683519 0.66600001 -0.056050558 1.5026818e-38 304 288
-0.017515799 0.66600001 -0.056050558 1.5395241e-38 305 288
-0.016348081 0.66600001 -0.056050558 1.530088e-38 306 288
-0.01518036 0.66600001 -0.056050558 1.428673e-38 307 288
-0.014012639 0.66600001 -0.056050558 1.4558631e-38 308 288
-0.01284492 0.66600001 -0.056050558 1.1884957e-38 309 288
-0.011694733 0.667 -0.056134716 3.0690805e-39 310 288
-0.010525259 0.667 -0.056134716 5.0051887e-39 311 288
-0.0093557863 0.667 -0.056134716 1.2620744e-38 312 288
-0.0081740404 0.66600001 -0.056050558 1.1698786e-38 313 288
-0.0070063197 0.66600001 -0.056050558 1.2437059e-38 314 288
-0.0058385995 0.66600001 -0.056050558 1.3543047e-38 315 288
-0.0046708798 0.66600001 -0.056050558 1.3728164e-38 316 288
-0.0035031599 0.66600001 -0.056050558 1.3820359e-38 317 288
-0.0023389466 0.667 -0.056134716 1.3728164e-38 318 288
-0.0011694733 0.667 -0.056134716 1.3359381e-38 319 288
0 0.66799998 -0.056218877 1.3450498e-38 320 288
0.0011712266 0.66799998 -0.056218877 1.3082075e-38 321 288
0.0023424532 0.66799998 -0.056218877 1.390644e-38 322 288
0.0035241998 0.67000002 -0.056387197 1.3722409e-38 323 288
0.0046989331 0.67000002 -0.056387197 1.4546418e-38 324 288
0.0058824331 0.671 -0.056471359 1.4546418e-38 325 288
0.0070589199 0.671 -0.056471359 1.4728296e-38 326 288
0.00824768 0.67199999 -0.056555521 1.4359153e-38 327 288
0.0094539737 0.67400002 -0.056723841 1.4904777e-38 328 288
0.010604159 0.67199999 -0.056555521 1.4351603e-38 329 288
0.011782399 0.67199999 -0.056555521 1.4622795e-38 330 288
0.012999214 0.67400002 -0.056723841 1.3977425e-38 331 288
0.014223038 0.676 -0.056892153 1.4247896e-38 332 288
0.015408293 0.676 -0.056892153 1.3971669e-38 333 288
0.016593546 0.676 -0.056892153 1.3697245e-38 334 288
0.017778801 0.676 -0.056892153 1.3421019e-38 335 288
0.019020159 0.67799997 -0.057060476 1.3144074e-38 336 288
0.020238725 0.67900002 -0.057144642 1.3051879e-38 337 288
0.021429239 0.67900002 -0.057144642 1.2960762e-38 338 288
0.022619752 0.67900002 -0.057144642 1.2960762e-38 339 288
0.023810266 0.67900002 -0.057144642 1.2508043e-38 340 288
0.02514806 0.68300003 -0.057481278 1.2876467e-38 341 288
0.02673132 0.69300002 -0.058322877 1.1778382e-38 342 288
0.027986705 0.69400001 -0.058407038 1.1225208e-38 343 288
0.02932976 0.69700003 -0.05865952 1.1680079e-38 344 288
0.030551834 0.69700003 -0.05865952 1.103471e-38 345 288
0.031819493 0.69800001 -0.058743682 1.1033279e-38 346 288
0.033137999 0.69999999 -0.058911994 1.1033279e-38 347 288
0.034512613 0.70300001 -0.059164476 1.0851413e-38 348 288
0.035796054 0.704 -0.059248637 1.1219835e-38 349 288
0.037135597 0.70599997 -0.059416957 1.0123552e-38 350 288
0.038427804 0.70700002 -0.059501119 1.0953313e-38 351 288
0.039667413 0.70700002 -0.059501119 9.3974873e-39 352 288
0.040964879 0.708 -0.059585281 9.3974873e-39 353 288
-0.058911994 0.69999999 -0.060139328 9.1238123e-39 272 289
-0.05768466 0.69999999 -0.060139328 9.4925948e-39 273 289
-0.056296028 0.69800001 -0.059967503 9.9528541e-39 274 289
-0.054993302 0.69700003 -0.05988159 1.0598223e-38 275 289
-0.053694077 0.69599998 -0.059795678 1.1973592e-38 276 289
-0.05224758 0.69300002 -0.05953794 1.1420777e-38 277 289
-0.051032521 0.69300002 -0.05953794 1.1971062e-38 278 289
-0.049673684 0.69099998 -0.059366114 1.1509723e-38 279 289
-0.04846213 0.69099998 -0.059366114 1.2330496e-38 280 289
-0.047182199 0.69 -0.059280202 1.1869877e-38 281 289
-0.045839146 0.68800002 -0.059108373 1.2145386e-38 282 289
-0.044567976 0.68699998 -0.059022456 1.2330136e-38 283 289
-0.043363437 0.68699998 -0.059022456 1.1413216e-38 284 289
-0.042097531 0.68599999 -0.058936544 1.1228825e-38 285 289
-0.040656291 0.68199998 -0.058592889 1.1684776e-38 286 289
-0.039344799 0.68000001 -0.058421064 1.140855e-38 287 289
-0.038152531 0.68000001 -0.058421064 1.2049966e-38 288 289
-0.036851559 0.67799997 -0.058249239 1.214252e-38 289 289
-0.035557602 0.676 -0.058077414 1.2326912e-38 290 289
-0.034321502 0.67500001 -0.057991501 1.2326912e-38 291 289
-0.033088908 0.67400002 -0.057905588 1.2600624e-38 292 289
-0.031812478 0.67199999 -0.057733759 1.2047451e-38 293 289
-0.030588651 0.671 -0.057647847 1.1954183e-38 294 289
-0.029412165 0.671 -0.057647847 1.2046379e-38 295 289
-0.028193599 0.67000002 -0.057561934 1.232836e-38 296 289
-0.027018867 0.67000002 -0.057561934 1.3526904e-38 297 289
-0.025766984 0.66799998 -0.057390101 1.2896276e-38 298 289
-0.02459576 0.66799998 -0.057390101 1.4555799e-38 299 289
-0.023424532 0.66799998 -0.057390101 1.5201871e-38 300 289
-0.022219993 0.667 -0.057304189 1.4925283e-38 301 289
-0.021050518 0.667 -0.057304189 1.3916521e-38 302 289
-0.019851239 0.66600001 -0.057218276 1.4008716e-38 303 289
-0.018683519 0.66600001 -0.057218276 1.4288903e-38 304 289
-0.017515799 0.66600001 -0.057218276 1.5394891e-38 305 289
-0.016348081 0.66600001 -0.057218276 1.6313604e-38 306 289
-0.01518036 0.66600001 -0.057218276 1.6037377e-38 307 289
-0.013970559 0.66399997 -0.057046451 1.6589803e-38 308 289
-0.012806346 0.66399997 -0.057046451 1.5760041e-38 309 289
-0.011642133 0.66399997 -0.057046451 1.3458389e-38 310 289
-0.01050948 0.66600001 -0.057218276 1.3643139e-38 311 289
-0.0093417596 0.66600001 -0.057218276 1.4926337e-38 312 289
-0.0081740404 0.66600001 -0.057218276 1.3819991e-38 313 289
-0.0070063197 0.66600001 -0.057218276 1.3727798e-38 314 289
-0.0058385995 0.66600001 -0.057218276 1.4188416e-38 315 289
-0.0046708798 0.66600001 -0.057218276 1.3912202e-38 316 289
-0.0035031599 0.66600001 -0.057218276 1.3635615e-38 317 289
-0.0023354399 0.66600001 -0.057218276 1.3634176e-38 318 289
-0.0011694733 0.667 -0.057304189 1.3449785e-38 319 289
0 0.667 -0.057304189 1.3814969e-38 320 289
0.0011694733 0.667 -0.057304189 1.3722772e-38 321 289
0.0023389466 0.667 -0.057304189 1.4363825e-38 322 289
0.0035084197 0.667 -0.057304189 1.4363825e-38 323 289
0.0046989331 0.67000002 -0.057561934 1.4820857e-38 324 289
0.0058736666 0.67000002 -0.057561934 1.4175488e-38 325 289
0.0070589199 0.671 -0.057647847 1.4721474e-38 326 289
0.00824768 0.67199999 -0.057733759 1.3430735e-38 327 289
0.0094539737 0.67400002 -0.057905588 1.4254382e-38 328 289
0.010604159 0.67199999 -0.057733759 1.3885958e-38 329 289
0.011782399 0.67199999 -0.057733759 1.3883792e-38 330 289
0.012999214 0.67400002 -0.057905588 1.3606845e-38 331 289
0.014223038 0.676 -0.058077414 1.3421013e-38 332 289
0.015408293 0.676 -0.058077414 1.3421013e-38 333 289
0.016593546 0.676 -0.058077414 1.3236986e-38 334 289
0.017778801 0.676 -0.058077414 1.3236986e-38 335 289
0.019020159 0.67799997 -0.058249239 1.286893e-38 336 289
0.020238725 0.67900002 -0.058335152 1.2776734e-38 337 289
0.021429239 0.67900002 -0.058335152 1.2503018e-38 338 289
0.022653066 0.68000001 -0.058421064 1.268777e-38 339 289
0.023950534 0.68300003 -0.05867881 1.1960612e-38 340 289
0.02551626 0.69300002 -0.05953794 1.2698177e-38 341 289
0.02673132 0.69300002 -0.05953794 1.2055323e-38 342 289
0.027986705 0.69400001 -0.059623852 1.1225561e-38 343 289
0.02932976 0.69700003 -0.05988159 1.1587163e-38 344 289
0.030595668 0.69800001 -0.059967503 1.1125825e-38 345 289
0.031819493 0.69800001 -0.059967503 1.0758491e-38 346 289
0.033137999 0.69999999 -0.060139328 1.1311665e-38 347 289
0.034512613 0.70300001 -0.06039707 1.0306861e-38 348 289
0.035796054 0.704 -0.060482983 1.0952231e-38 349 289
0.037135597 0.70599997 -0.060654808 9.4878878e-39 350 289
0.038427804 0.70700002 -0.060740728 9.6722791e-39 351 289
-0.057519849 0.69800001 -0.061191335 9.1238095e-39 273 290
-0.056296028 0.69800001 -0.061191335 9.3085566e-39 274 290
-0.054993302 0.69700003 -0.061103668 9.5851435e-39 275 290
-0.053694077 0.69599998 -0.061015997 1.0869766e-38 276 290
-0.05224758 0.69300002 -0.060752999 1.0869766e-38 277 290
-0.051032521 0.69300002 -0.060752999 1.1512617e-38 278 290
-0.049817458 0.69300002 -0.060752999 1.0959443e-38 279 290
-0.04846213 0.69099998 -0.060577665 1.1873121e-38 280 290
-0.047250576 0.69099998 -0.060577665 1.1688729e-38 281 290
-0.045972396 0.69 -0.060489997 1.1874191e-38 282 290
-0.044632856 0.68800002 -0.060314666 1.2427364e-38 283 290
-0.043363437 0.68699998 -0.060226995 1.1235292e-38 284 290
-0.042097531 0.68599999 -0.060139328 1.0866509e-38 285 290
-0.040775519 0.68400002 -0.059964001 1.1503619e-38 286 290
-0.039460517 0.68199998 -0.059788663 1.1134477e-38 287 290
-0.038264744 0.68199998 -0.059788663 1.1867372e-38 288 290
-0.036905911 0.67900002 -0.059525665 1.1959568e-38 289 290
-0.035557602 0.676 -0.059262663 1.2510221e-38 290 290
-0.034321502 0.67500001 -0.059175 1.2602775e-38 291 290
-0.033088908 0.67400002 -0.059087332 1.2601701e-38 292 290
-0.031812478 0.67199999 -0.058911994 1.2509505e-38 293 290
-0.030588651 0.671 -0.058824331 1.27843e-38 294 290
-0.029412165 0.671 -0.058824331 1.259955e-38 295 290
-0.028193599 0.67000002 -0.058736663 1.2504839e-38 296 290
-0.027018867 0.67000002 -0.058736663 1.2504839e-38 297 290
-0.025766984 0.66799998 -0.058561329 1.2053934e-38 298 290
-0.02459576 0.66799998 -0.058561329 1.4635412e-38 299 290
-0.023424532 0.66799998 -0.058561329 1.5009937e-38 300 290
-0.022253305 0.66799998 -0.058561329 1.4272372e-38 301 290
-0.021050518 0.667 -0.058473662 1.3171049e-38 302 290
-0.019851239 0.66600001 -0.058385998 1.3447278e-38 303 290
-0.018683519 0.66600001 -0.058385998 1.3178971e-38 304 290
-0.017515799 0.66600001 -0.058385998 1.4746657e-38 305 290
-0.016348081 0.66600001 -0.058385998 1.5759717e-38 306 290
-0.01518036 0.66600001 -0.058385998 1.5667163e-38 307 290
-0.013949519 0.66299999 -0.058122993 1.5574953e-38 308 290
-0.012787059 0.66299999 -0.058122993 1.5390562e-38 309 290
-0.0116246 0.66299999 -0.058122993 1.6216357e-38 310 290
-0.01046214 0.66299999 -0.058122993 1.6124161e-38 311 290
-0.0092996797 0.66299999 -0.058122993 1.556882e-38 312 290
-0.0081372196 0.66299999 -0.058122993 1.4739059e-38 313 290
-0.0069642398 0.662 -0.058035329 1.4738706e-38 314 290
-0.0058035329 0.662 -0.058035329 1.4738706e-38 315 290
-0.0046568532 0.66399997 -0.05821066 1.3909684e-38 316 290
-0.0034926396 0.66399997 -0.05821066 1.3633097e-38 317 290
-0.0023354399 0.66600001 -0.058385998 1.3905733e-38 318 290
-0.00116772 0.66600001 -0.058385998 1.3721702e-38 319 290
0 0.66600001 -0.058385998 1.4086892e-38 320 290
0.00116772 0.66600001 -0.058385998 1.4086892e-38 321 290
0.0023354399 0.66600001 -0.058385998 1.4544996e-38 322 290
0.0035084197 0.667 -0.058473662 1.4544996e-38 323 290
0.0046778931 0.667 -0.058473662 1.5000938e-38 324 290
0.0058736666 0.67000002 -0.058736663 1.3525449e-38 325 290
0.0070483997 0.67000002 -0.058736663 1.3792338e-38 326 290
0.0082354061 0.671 -0.058824331 1.2870381e-38 327 290
0.0094539737 0.67400002 -0.059087332 1.3513598e-38 328 290
0.01063572 0.67400002 -0.059087332 1.3421044e-38 329 290
0.011817466 0.67400002 -0.059087332 1.3145523e-38 330 290
0.0130185 0.67500001 -0.059175 1.3052968e-38 331 290
0.014223038 0.676 -0.059262663 1.2961125e-38 332 290
0.015408293 0.676 -0.059262663 1.286893e-38 333 290
0.016593546 0.676 -0.059262663 1.2776734e-38 334 290
0.017778801 0.676 -0.059262663 1.2776734e-38 335 290
0.019020159 0.67799997 -0.059437994 1.2410104e-38 336 290
0.020238725 0.67900002 -0.059525665 1.2410104e-38 337 290
0.0214608 0.68000001 -0.059613332 1.1953435e-38 338 290
0.022653066 0.68000001 -0.059613332 1.2322577e-38 339 290
0.024301201 0.69300002 -0.060752999 1.1595067e-38 340 290
0.02551626 0.69300002 -0.060752999 1.2332632e-38 341 290
0.026769891 0.69400001 -0.060840666 1.1505025e-38 342 290
0.028107686 0.69700003 -0.061103668 1.0674905e-38 343 290
0.029371841 0.69800001 -0.061191335 1.0944312e-38 344 290
0.030595668 0.69800001 -0.061191335 1.0575169e-38 345 290
0.031819493 0.69800001 -0.061191335 1.0211785e-38 346 290
0.033137999 0.69999999 -0.061366666 1.1133742e-38 347 290
0.034512613 0.70300001 -0.061629668 1.0130736e-38 348 290
0.035796054 0.704 -0.061717331 1.068391e-38 349 290
-0.056457333 0.69999999 -0.062593997 8.8479316e-39 274 291
-0.054993302 0.69700003 -0.062325738 8.9401273e-39 275 291
-0.053694077 0.69599998 -0.062236317 1.0224752e-38 276 291
-0.05224758 0.69300002 -0.061968062 1.0224752e-38 277 291
