# .PCD v.7 - Point Cloud Data file format
FIELDS x y z rgb imX imY
SIZE 4 4 4 4 4 4
TYPE F F F F F F
COUNT 1 1 1 1 1 1
WIDTH 828
HEIGHT 1
VIEWPOINT 0 0 0 1 0 0 0
POINTS 828
DATA ascii
-0.087154694 0.73100001 -0.02307036 2.5793224e-39 252 258
-0.085873008 0.73100001 -0.02307036 2.6718782e-39 253 258
-0.084475599 0.73000002 -0.023038799 2.7637179e-39 254 258
-0.082967728 0.72799999 -0.022975679 2.7637179e-39 255 258
-0.081691302 0.72799999 -0.022975679 2.7637179e-39 256 258
-0.080414876 0.72799999 -0.022975679 2.7637179e-39 257 258
-0.079355866 0.73000002 -0.023038799 2.579328e-39 258 258
-0.077862024 0.72799999 -0.022975679 2.3949382e-39 259 258
-0.076585598 0.72799999 -0.022975679 2.2105497e-39 260 258
-0.075309172 0.72799999 -0.022975679 2.0257997e-39 261 258
-0.073931053 0.727 -0.022944121 1.4729847e-39 262 258
-0.072656378 0.727 -0.022944121 9.1981091e-40 263 258
-0.071479887 0.72799999 -0.022975679 1.8440808e-40 264 258
-0.089718066 0.73100001 -0.024352046 2.1183541e-39 250 259
-0.088436373 0.73100001 -0.024352046 2.2105497e-39 251 259
-0.087154694 0.73100001 -0.024352046 2.2112686e-39 252 259
-0.085755527 0.73000002 -0.024318734 2.2112686e-39 253 259
-0.084244154 0.72799999 -0.024252106 2.119073e-39 254 259
-0.082967728 0.72799999 -0.024252106 2.119073e-39 255 259
-0.081691302 0.72799999 -0.024252106 1.9346887e-39 256 259
-0.080414876 0.72799999 -0.024252106 1.7499387e-39 257 259
-0.07913845 0.72799999 -0.024252106 1.6570228e-39 258 259
-0.077862024 0.72799999 -0.024252106 1.6570228e-39 259 259
-0.076585598 0.72799999 -0.024252106 1.5648244e-39 260 259
-0.075309172 0.72799999 -0.024252106 1.6573788e-39 261 259
-0.073931053 0.727 -0.024218792 1.7484898e-39 262 259
-0.072656378 0.727 -0.024218792 1.472263e-39 263 259
-0.071479887 0.72799999 -0.024252106 1.6559312e-39 264 259
-0.087952457 0.727 -0.025493465 2.3012978e-39 251 260
-0.086677782 0.727 -0.025493465 2.3938494e-39 252 260
-0.085403107 0.727 -0.025493465 2.209098e-39 253 260
-0.084128432 0.727 -0.025493465 2.1165492e-39 254 260
-0.082853764 0.727 -0.025493465 1.8403225e-39 255 260
-0.081579089 0.727 -0.025493465 2.0225627e-39 256 260
-0.080304414 0.727 -0.025493465 1.8381715e-39 257 260
-0.079029746 0.727 -0.025493465 1.3804303e-39 258 260
-0.077862024 0.72799999 -0.025528532 1.3804303e-39 259 260
-0.076585598 0.72799999 -0.025528532 1.5673285e-39 260 260
-0.075309172 0.72799999 -0.025528532 1.8435567e-39 261 260
-0.088613465 0.722 -0.026584039 1.5673313e-39 250 261
-0.08734756 0.722 -0.026584039 1.4751357e-39 251 261
-0.086081654 0.722 -0.026584039 1.5655334e-39 252 261
-0.084815748 0.722 -0.026584039 1.4729791e-39 253 261
-0.083549835 0.722 -0.026584039 1.1049224e-39 254 261
-0.082397893 0.72299999 -0.026620859 1.1049224e-39 255 261
-0.081130236 0.72299999 -0.026620859 1.3804303e-39 256 261
-0.07986258 0.72299999 -0.026620859 1.4729847e-39 257 261
-0.078594916 0.72299999 -0.026620859 1.2907388e-39 258 261
-0.077862024 0.72799999 -0.026804959 1.751717e-39 259 261
-0.076585598 0.72799999 -0.026804959 1.7531491e-39 260 261
-0.075309172 0.72799999 -0.026804959 2.1215715e-39 261 261
-0.088613465 0.722 -0.027849946 1.5655306e-39 250 262
-0.087105595 0.72000003 -0.027772799 1.3811394e-39 251 262
-0.085843205 0.72000003 -0.027772799 1.5633768e-39 252 262
-0.084580801 0.72000003 -0.027772799 1.4711798e-39 253 262
-0.083318397 0.72000003 -0.027772799 1.1963908e-39 254 262
-0.082056001 0.72000003 -0.027772799 1.3807835e-39 255 262
-0.080793604 0.72000003 -0.027772799 1.5655278e-39 256 262
-0.0795312 0.72000003 -0.027772799 1.7502778e-39 257 262
-0.078268804 0.72000003 -0.027772799 1.385084e-39 258 262
-0.0770064 0.72000003 -0.027772799 1.8460608e-39 259 262
-0.075743996 0.72000003 -0.027772799 2.2130482e-39 260 262
-0.07303334 0.70599997 -0.027232772 2.3970808e-39 261 262
-0.095337495 0.72500002 -0.029236834 1.473698e-39 245 263
-0.093677096 0.722 -0.029115854 1.3825813e-39 246 263
-0.092411183 0.722 -0.029115854 1.2903857e-39 247 263
-0.091145277 0.722 -0.029115854 1.2896668e-39 248 263
-0.089879371 0.722 -0.029115854 1.1974712e-39 249 263
-0.088367999 0.72000003 -0.029035201 1.2885906e-39 250 263
-0.086984619 0.71899998 -0.028994869 1.1963936e-39 251 263
-0.085723966 0.71899998 -0.028994869 1.0127226e-39 252 263
-0.084463328 0.71899998 -0.028994869 1.1049196e-39 253 263
-0.083202675 0.71899998 -0.028994869 1.2896668e-39 254 263
-0.081942029 0.71899998 -0.028994869 1.5662523e-39 255 263
-0.080793604 0.72000003 -0.029035201 1.6587983e-39 256 263
-0.0795312 0.72000003 -0.029035201 1.8431909e-39 257 263
-0.078268804 0.72000003 -0.029035201 2.1197736e-39 258 263
-0.0770064 0.72000003 -0.029035201 2.3041649e-39 259 263
-0.074271195 0.70599997 -0.028470624 2.3963661e-39 260 263
-0.07303334 0.70599997 -0.028470624 2.4885631e-39 261 263
-0.071795486 0.70599997 -0.028470624 2.5804084e-39 262 263
-0.070557632 0.70599997 -0.028470624 2.8566352e-39 263 263
-0.096342154 0.72299999 -0.030423839 1.2896668e-39 244 264
-0.095074497 0.72299999 -0.030423839 1.5662523e-39 245 264
-0.093677096 0.722 -0.030381758 1.3833002e-39 246 264
-0.092411183 0.722 -0.030381758 1.1070734e-39 247 264
-0.091145277 0.722 -0.030381758 1.3807863e-39 248 264
-0.089505911 0.71899998 -0.030255521 1.1963936e-39 249 264
-0.088245258 0.71899998 -0.030255521 1.0127226e-39 250 264
-0.086742654 0.71700001 -0.030171359 1.1049196e-39 251 264
-0.085366286 0.71600002 -0.03012928 1.1052756e-39 252 264
-0.083875954 0.71399999 -0.030045118 1.2896668e-39 253 264
-0.082508355 0.713 -0.030003037 1.2903857e-39 254 264
-0.08091633 0.70999998 -0.029876797 1.3825813e-39 255 264
-0.079671465 0.70999998 -0.029876797 1.6584451e-39 256 264
-0.0784266 0.70999998 -0.029876797 1.8428378e-39 257 264
-0.076855607 0.70700002 -0.029750559 1.9353894e-39 258 264
-0.075509049 0.70599997 -0.029708479 2.2116161e-39 259 264
-0.074271195 0.70599997 -0.029708479 2.3038145e-39 260 264
-0.07303334 0.70599997 -0.029708479 2.3038145e-39 261 264
-0.071592107 0.704 -0.029624319 2.3956571e-39 262 264
-0.070357755 0.704 -0.029624319 2.5804084e-39 263 264
-0.06912341 0.704 -0.029624319 2.3052663e-39 264 264
-0.067889065 0.704 -0.029624319 2.3974619e-39 265 264
-0.097474813 0.722 -0.031647664 2.2054868e-39 243 265
-0.096208908 0.722 -0.031647664 1.2903857e-39 244 265
-0.094943002 0.722 -0.031647664 1.5673313e-39 245 265
-0.0934176 0.72000003 -0.03156 1.2010627e-39 246 265
-0.092155196 0.72000003 -0.03156 9.2447723e-40 247 265
-0.090766557 0.71899998 -0.031516165 1.1963908e-39 248 265
-0.089256942 0.71700001 -0.031428497 1.1963908e-39 249 265
-0.087877065 0.71600002 -0.031384666 6.4681555e-40 250 265
-0.086621679 0.71600002 -0.031384666 7.3901118e-40 251 265
-0.085127831 0.71399999 -0.031296998 1.014875e-39 252 265
-0.083523542 0.71100003 -0.031165501 1.014875e-39 253 265
-0.082161188 0.70999998 -0.031121666 1.4740539e-39 254 265
-0.08091633 0.70999998 -0.031121666 1.5662495e-39 255 265
-0.079447038 0.708 -0.031034 1.6577263e-39 256 265
-0.07809522 0.70700002 -0.030990168 1.933953e-39 257 265
-0.076855607 0.70700002 -0.030990168 1.8431937e-39 258 265
-0.075509049 0.70599997 -0.030946331 1.9353894e-39 259 265
-0.07406079 0.704 -0.030858666 2.1194205e-39 260 265
-0.072826453 0.704 -0.030858666 2.1194205e-39 261 265
-0.071592107 0.704 -0.030858666 2.2116189e-39 262 265
-0.070257813 0.70300001 -0.030814834 2.3038145e-39 263 265
-0.069025226 0.70300001 -0.030814834 2.0279507e-39 264 265
-0.067792632 0.70300001 -0.030814834 1.8435595e-39 265 265
-0.097474813 0.722 -0.032913569 2.3877229e-39 243 266
-0.0959424 0.72000003 -0.0328224 1.1056217e-39 244 266
-0.094680004 0.72000003 -0.0328224 1.7509911e-39 245 266
-0.0934176 0.72000003 -0.0328224 1.751717e-39 246 266
-0.092027202 0.71899998 -0.032776814 1.1985432e-39 247 266
-0.090514079 0.71700001 -0.032685637 1.3811394e-39 248 266
-0.089132458 0.71600002 -0.032640055 1.2885836e-39 249 266
-0.087508865 0.713 -0.032503292 1.1059916e-39 250 266
-0.086258732 0.713 -0.032503292 1.1059916e-39 251 266
-0.084770165 0.71100003 -0.032412119 1.1974712e-39 252 266
-0.083406061 0.70999998 -0.032366529 1.2896668e-39 253 266
-0.082161188 0.70999998 -0.032366529 1.473698e-39 254 266
-0.080688395 0.708 -0.03227536 1.473698e-39 255 266
-0.079447038 0.708 -0.03227536 1.4737008e-39 256 266
-0.07809522 0.70700002 -0.032229774 1.658092e-39 257 266
-0.076855607 0.70700002 -0.032229774 1.7506436e-39 258 266
-0.075509049 0.70599997 -0.032184184 1.8428406e-39 259 266
-0.07406079 0.704 -0.032093015 1.8428406e-39 260 266
-0.072826453 0.704 -0.032093015 1.8428406e-39 261 266
-0.071592107 0.704 -0.032093015 1.7502918e-39 262 266
-0.070257813 0.70300001 -0.032047424 1.6580948e-39 263 266
-0.069025226 0.70300001 -0.032047424 1.3818779e-39 264 266
-0.067792632 0.70300001 -0.032047424 1.1974866e-39 265 266
-0.09805692 0.71700001 -0.033942781 7.5470488e-39 242 267
-0.096799776 0.71700001 -0.033942781 4.2280201e-39 243 267
-0.095542639 0.71700001 -0.033942781 6.4392467e-40 244 267
-0.094285503 0.71700001 -0.033942781 1.9346467e-39 245 267
-0.093028352 0.71700001 -0.033942781 1.6602444e-39 246 267
-0.091771215 0.71700001 -0.033942781 1.2914605e-39 247 267
-0.090135351 0.71399999 -0.033800758 1.3804191e-39 248 267
-0.08875899 0.713 -0.033753417 1.4726161e-39 249 267
-0.087140657 0.70999998 -0.033611398 1.1063476e-39 250 267
-0.085895792 0.70999998 -0.033611398 1.1985432e-39 251 267
-0.084412478 0.708 -0.033516716 1.29002e-39 252 267
-0.083053641 0.70700002 -0.033469379 1.29002e-39 253 267
-0.081814043 0.70700002 -0.033469379 1.3811394e-39 254 267
-0.080460466 0.70599997 -0.033422034 1.473335e-39 255 267
-0.079222605 0.70599997 -0.033422034 1.5655306e-39 256 267
-0.077763841 0.704 -0.03332736 1.5655306e-39 257 267
-0.076529488 0.704 -0.03332736 1.6580822e-39 258 267
-0.075295143 0.704 -0.03332736 1.934309e-39 259 267
-0.073955595 0.70300001 -0.033280019 1.7502778e-39 260 267
-0.072723009 0.70300001 -0.033280019 1.5655278e-39 261 267
-0.071490414 0.70300001 -0.033280019 1.6559312e-39 262 267
-0.069957994 0.69999999 -0.033137999 1.5633768e-39 263 267
-0.068730667 0.69999999 -0.033137999 1.378987e-39 264 267
-0.067503333 0.69999999 -0.033137999 1.378987e-39 265 267
-0.09805692 0.71700001 -0.035199918 1.0315073e-38 242 268
-0.096799776 0.71700001 -0.035199918 7.6413996e-39 243 268
-0.095409386 0.71600002 -0.035150826 3.8639068e-39 244 268
-0.094154 0.71600002 -0.035150826 3.5873241e-39 245 268
-0.092898615 0.71600002 -0.035150826 2.6679111e-39 246 268
-0.091387235 0.71399999 -0.035052639 2.29913e-39 247 268
-0.089756638 0.71100003 -0.034905359 1.1059944e-39 248 268
-0.08838553 0.70999998 -0.034856264 1.1059944e-39 249 268
-0.087140657 0.70999998 -0.034856264 1.1985432e-39 250 268
-0.085653841 0.708 -0.034758076 1.1985432e-39 251 268
-0.084412478 0.708 -0.034758076 1.1978243e-39 252 268
-0.083053641 0.70700002 -0.034708988 1.1978243e-39 253 268
-0.081698313 0.70599997 -0.034659892 1.1974684e-39 254 268
-0.080460466 0.70599997 -0.034659892 1.2900228e-39 255 268
-0.078998186 0.704 -0.034561705 1.5655278e-39 256 268
-0.077763841 0.704 -0.034561705 1.6580822e-39 257 268
-0.076420791 0.70300001 -0.034512613 1.5655278e-39 258 268
-0.07518819 0.70300001 -0.034512613 1.4733322e-39 259 268
-0.073745191 0.70099998 -0.034414422 1.2896696e-39 260 268
-0.072516106 0.70099998 -0.034414422 1.1049196e-39 261 268
-0.071287021 0.70099998 -0.034414422 1.2875144e-39 262 268
-0.069957994 0.69999999 -0.034365334 1.1953188e-39 263 268
-0.068730667 0.69999999 -0.034365334 1.0130785e-39 264 268
-0.067503333 0.69999999 -0.034365334 1.1052756e-39 265 268
-0.066275999 0.69999999 -0.034365334 1.4740511e-39 266 268
-0.065048665 0.69999999 -0.034365334 1.7509967e-39 267 268
-0.09805692 0.71700001 -0.036457058 1.1608345e-38 242 269
-0.096664771 0.71600002 -0.036406212 1.0225411e-38 243 269
-0.095409386 0.71600002 -0.036406212 8.1023722e-39 244 269
-0.094154 0.71600002 -0.036406212 5.2443091e-39 245 269
-0.092639111 0.71399999 -0.036304519 1.1981662e-39 246 269
-0.091387235 0.71399999 -0.036304519 1.2903605e-39 247 269
-0.089756638 0.71100003 -0.036151983 9.208801e-40 248 269
-0.08838553 0.70999998 -0.036101133 1.0130757e-39 249 269
-0.086895198 0.708 -0.03599944 1.1974684e-39 250 269
-0.085532859 0.70700002 -0.035948593 1.1974684e-39 251 269
-0.084293254 0.70700002 -0.035948593 1.29002e-39 252 269
-0.082936168 0.70599997 -0.035897743 1.1978243e-39 253 269
-0.081466876 0.704 -0.035796054 1.29002e-39 254 269
-0.080232531 0.704 -0.035796054 1.29002e-39 255 269
-0.078998186 0.704 -0.035796054 1.474407e-39 256 269
-0.077653378 0.70300001 -0.035745207 1.2900171e-39 257 269
-0.076203369 0.70099998 -0.035643511 1.3811366e-39 258 269
-0.074974284 0.70099998 -0.035643511 1.2889396e-39 259 269
-0.073745191 0.70099998 -0.035643511 1.0130785e-39 260 269
-0.072516106 0.70099998 -0.035643511 9.208829e-40 261 269
-0.07098195 0.69800001 -0.035490975 9.208801e-40 262 269
-0.069758117 0.69800001 -0.035490975 1.1052714e-39 263 269
-0.068534292 0.69800001 -0.035490975 1.1063448e-39 264 269
-0.06731046 0.69800001 -0.035490975 1.3832904e-39 265 269
-0.066275999 0.69999999 -0.035592664 1.7517142e-39 266 269
-0.065048665 0.69999999 -0.035592664 2.5814748e-39 267 269
-0.097920164 0.71600002 -0.037661601 1.022866e-38 242 270
-0.096664771 0.71600002 -0.037661601 1.068928e-38 243 270
-0.095409386 0.71600002 -0.037661601 1.0868244e-38 244 270
-0.094154 0.71600002 -0.037661601 8.2867662e-39 245 270
-0.092639111 0.71399999 -0.037556399 4.5092692e-39 246 270
-0.091259241 0.713 -0.037503798 1.8367099e-39 247 270
-0.089756638 0.71100003 -0.037398599 5.5137171e-40 248 270
-0.088136561 0.708 -0.0372408 1.1967383e-39 249 270
-0.086772464 0.70700002 -0.037188202 1.1052756e-39 250 270
-0.085532859 0.70700002 -0.037188202 1.1052756e-39 251 270
-0.084174022 0.70599997 -0.037135597 1.3811366e-39 252 270
-0.082936168 0.70599997 -0.037135597 1.5655278e-39 253 270
-0.081466876 0.704 -0.037030395 1.3832876e-39 254 270
-0.080232531 0.704 -0.037030395 1.3832876e-39 255 270
-0.078885972 0.70300001 -0.036977798 1.2900171e-39 256 270
-0.077653378 0.70300001 -0.036977798 1.1056245e-39 257 270
-0.076203369 0.70099998 -0.036872596 1.0130785e-39 258 270
-0.07486733 0.69999999 -0.036819998 9.208829e-40 259 270
-0.073639996 0.69999999 -0.036819998 7.3828671e-40 260 270
-0.072412662 0.69999999 -0.036819998 8.3048234e-40 261 270
-0.07098195 0.69800001 -0.0367148 8.3047953e-40 262 270
-0.069658175 0.69700003 -0.036662199 1.0152309e-39 263 270
-0.068436109 0.69700003 -0.036662199 1.290736e-39 264 270
-0.067214034 0.69700003 -0.036662199 1.475486e-39 265 270
-0.06599196 0.69700003 -0.036662199 2.1190576e-39 266 270
-0.064769886 0.69700003 -0.036662199 2.9488182e-39 267 270
-0.097920164 0.71600002 -0.038916986 8.7553436e-39 242 271
-0.096664771 0.71600002 -0.038916986 9.6773013e-39 243 271
-0.095142879 0.71399999 -0.038808275 1.1332481e-38 244 271
-0.093759492 0.713 -0.038753927 1.0134297e-38 245 271
-0.092509374 0.713 -0.038753927 8.3778829e-39 246 271
-0.090875261 0.70999998 -0.038590867 4.4134848e-39 247 271
-0.089630395 0.70999998 -0.038590867 1.4693679e-39 248 271
-0.088136561 0.708 -0.038482159 2.2983985e-39 249 271
-0.086772464 0.70700002 -0.038427804 1.2889396e-39 250 271
-0.085411869 0.70599997 -0.038373452 1.3811366e-39 251 271
-0.084174022 0.70599997 -0.038373452 1.29002e-39 252 271
-0.082701221 0.704 -0.038264744 1.5662467e-39 253 271
-0.081466876 0.704 -0.038264744 1.4762049e-39 254 271
-0.080232531 0.704 -0.038264744 1.2914549e-39 255 271
-0.078885972 0.70300001 -0.038210396 1.1978215e-39 256 271
-0.077653378 0.70300001 -0.038210396 1.0134289e-39 257 271
-0.076203369 0.70099998 -0.038101684 9.208773e-40 258 271
-0.074653424 0.69800001 -0.037938625 1.0134317e-39 259 271
-0.073429599 0.69800001 -0.037938625 8.3083546e-40 260 271
-0.072412662 0.69999999 -0.038047329 9.230325e-40 261 271
-0.070778556 0.69599998 -0.037829921 1.1063476e-39 262 271
-0.069558233 0.69599998 -0.037829921 1.1985432e-39 263 271
-0.067552425 0.68800002 -0.037395094 1.2907416e-39 264 271
-0.066346131 0.68800002 -0.037395094 1.3829373e-39 265 271
-0.06599196 0.69700003 -0.037884273 2.0261529e-39 266 271
-0.064769886 0.69700003 -0.037884273 2.6715223e-39 267 271
-0.097920164 0.71600002 -0.040172372 8.7531898e-39 242 272
-0.096664771 0.71600002 -0.040172372 9.1223325e-39 243 272
-0.095142879 0.71399999 -0.040060159 9.6765727e-39 244 272
-0.093759492 0.713 -0.040004052 1.0598888e-38 245 272
-0.092249878 0.71100003 -0.039891839 1.1145559e-38 246 272
-0.090875261 0.70999998 -0.039835732 8.2871348e-39 247 272
-0.089377917 0.708 -0.039723519 4.9680921e-39 248 272
-0.088136561 0.708 -0.039723519 2.2040519e-39 249 272
-0.086772464 0.70700002 -0.039667413 4.6132988e-40 250 272
-0.085411869 0.70599997 -0.039611302 1.1988935e-39 251 272
-0.083935574 0.704 -0.039499093 1.1981873e-39 252 272
-0.082701221 0.704 -0.039499093 1.4751329e-39 253 272
-0.081466876 0.704 -0.039499093 1.4758517e-39 254 272
-0.080118567 0.70300001 -0.039442986 1.1070706e-39 255 272
-0.078661539 0.70099998 -0.039330769 1.1052714e-39 256 272
-0.077432454 0.70099998 -0.039330769 9.208801e-40 257 272
-0.076203369 0.70099998 -0.039330769 8.2976067e-40 258 272
-0.074653424 0.69800001 -0.039162453 9.219563e-40 259 272
-0.073429599 0.69800001 -0.039162453 1.1063448e-39 260 272
-0.072516106 0.70099998 -0.039330769 1.1985404e-39 261 272
-0.06996502 0.68800002 -0.038601387 1.1985432e-39 262 272
-0.068758719 0.68800002 -0.038601387 1.1985432e-39 263 272
-0.06735605 0.68599999 -0.03848917 1.2907416e-39 264 272
-0.066153266 0.68599999 -0.03848917 1.3829373e-39 265 272
-0.065045156 0.68699998 -0.038545277 1.933237e-39 266 272
-0.06384062 0.68699998 -0.038545277 2.1176296e-39 267 272
-0.062544905 0.68599999 -0.03848917 2.0258025e-39 268 272
-0.061342116 0.68599999 -0.03848917 2.0258025e-39 269 272
-0.059964001 0.68400002 -0.038376961 2.2116217e-39 270 272
-0.05867881 0.68300003 -0.038320854 1.8428406e-39 271 272
-0.057481278 0.68300003 -0.038320854 2.3016481e-39 272 272
-0.056283753 0.68300003 -0.038320854 2.2094511e-39 273 272
-0.094743125 0.71100003 -0.041138459 8.2043349e-39 244 273
-0.093496501 0.71100003 -0.041138459 9.1266513e-39 245 273
-0.092249878 0.71100003 -0.041138459 1.1425046e-38 246 273
-0.090875261 0.70999998 -0.041080594 1.0134307e-38 247 273
-0.089377917 0.708 -0.040964879 8.8381408e-39 248 273
-0.088136561 0.708 -0.040964879 4.9659327e-39 249 273
-0.086772464 0.70700002 -0.040907022 2.2969636e-39 250 273
-0.085411869 0.70599997 -0.040849157 2.3891578e-39 251 273
-0.083935574 0.704 -0.040733438 1.5665998e-39 252 273
-0.082701221 0.704 -0.040733438 1.7509911e-39 253 273
-0.081466876 0.704 -0.040733438 1.3847337e-39 254 273
-0.080118567 0.70300001 -0.040675577 1.0159498e-39 255 273
-0.078661539 0.70099998 -0.040559858 1.1056245e-39 256 273
-0.077432454 0.70099998 -0.040559858 1.1056245e-39 257 273
-0.076203369 0.70099998 -0.040559858 1.1056245e-39 258 273
-0.074974284 0.70099998 -0.040559858 1.1978215e-39 259 273
-0.07227239 0.68699998 -0.039749816 1.29002e-39 260 273
-0.071067855 0.68699998 -0.039749816 1.1978243e-39 261 273
-0.069863312 0.68699998 -0.039749816 1.4740511e-39 262 273
-0.068658777 0.68699998 -0.039749816 1.29002e-39 263 273
-0.06735605 0.68599999 -0.039691959 1.1981873e-39 264 273
-0.066153266 0.68599999 -0.039691959 1.2907416e-39 265 273
-0.064761117 0.68400002 -0.03957624 1.6573759e-39 266 273
-0.063561834 0.68400002 -0.03957624 1.6573759e-39 267 273
-0.062362559 0.68400002 -0.03957624 1.7495716e-39 268 273
-0.061163284 0.68400002 -0.03957624 1.7495716e-39 269 273
-0.059964001 0.68400002 -0.03957624 1.750289e-39 270 273
-0.05867881 0.68300003 -0.039518382 1.5658964e-39 271 273
-0.057481278 0.68300003 -0.039518382 1.0152463e-39 272 273
-0.056283753 0.68300003 -0.039518382 7.3866085e-40 273 273
-0.055086225 0.68300003 -0.039518382 9.2161298e-40 274 273
-0.053888701 0.68300003 -0.039518382 8.2905722e-40 275 273
-0.093364999 0.70999998 -0.042325463 8.5705936e-39 245 274
-0.092120126 0.70999998 -0.042325463 9.3989124e-39 246 274
-0.090875261 0.70999998 -0.042325463 1.0874042e-38 247 274
-0.089630395 0.70999998 -0.042325463 1.1513634e-38 248 274
-0.08838553 0.70999998 -0.042325463 9.4849717e-39 249 274
-0.087140657 0.70999998 -0.042325463 5.7038593e-39 250 274
-0.085411869 0.70599997 -0.042087011 2.6632294e-39 251 274
-0.083935574 0.704 -0.041967787 1.3843596e-39 252 274
-0.082701221 0.704 -0.041967787 1.5687522e-39 253 274
-0.075775556 0.68599999 -0.040894743 1.1974684e-39 257 274
-0.074681476 0.68699998 -0.040954359 1.1978243e-39 258 274
-0.073476933 0.68699998 -0.040954359 1.29002e-39 259 274
-0.07227239 0.68699998 -0.040954359 1.29002e-39 260 274
-0.070964411 0.68599999 -0.040894743 1.1978243e-39 261 274
-0.069761619 0.68599999 -0.040894743 1.2900228e-39 262 274
-0.068558842 0.68599999 -0.040894743 1.2900228e-39 263 274
-0.067159683 0.68400002 -0.040775519 1.1974684e-39 264 274
-0.065863967 0.68300003 -0.040715907 1.4740539e-39 265 274
-0.064666435 0.68300003 -0.040715907 1.7488429e-39 266 274
-0.063468911 0.68300003 -0.040715907 1.7488429e-39 267 274
-0.06227139 0.68300003 -0.040715907 1.5655306e-39 268 274
-0.061073858 0.68300003 -0.040715907 1.473335e-39 269 274
-0.059876334 0.68300003 -0.040715907 1.1974712e-39 270 274
-0.05867881 0.68300003 -0.040715907 1.0130785e-39 271 274
-0.057481278 0.68300003 -0.040715907 7.3721471e-40 272 274
-0.056283753 0.68300003 -0.040715907 7.3721471e-40 273 274
-0.055086225 0.68300003 -0.040715907 9.2052697e-40 274 274
-0.053888701 0.68300003 -0.040715907 1.0127226e-39 275 274
-0.092120126 0.70999998 -0.043570329 8.3869283e-39 246 275
-0.090875261 0.70999998 -0.043570329 9.4932758e-39 247 275
-0.089630395 0.70999998 -0.043570329 1.0688561e-38 248 275
-0.074572764 0.68599999 -0.042097531 1.1059916e-39 258 275
-0.073369987 0.68599999 -0.042097531 1.1059916e-39 259 275
-0.072167195 0.68599999 -0.042097531 1.2900228e-39 260 275
-0.070964411 0.68599999 -0.042097531 1.2900228e-39 261 275
-0.069761619 0.68599999 -0.042097531 1.3811394e-39 262 275
-0.068358958 0.68400002 -0.041974798 1.473335e-39 263 275
-0.067061491 0.68300003 -0.041913435 1.1974684e-39 264 275
-0.065863967 0.68300003 -0.041913435 1.1974684e-39 265 275
-0.064666435 0.68300003 -0.041913435 1.4729791e-39 266 275
-0.063468911 0.68300003 -0.041913435 1.2885878e-39 267 275
-0.06227139 0.68300003 -0.041913435 1.2885878e-39 268 275
-0.061073858 0.68300003 -0.041913435 1.1963908e-39 269 275
-0.059876334 0.68300003 -0.041913435 7.3721471e-40 270 275
-0.058592889 0.68199998 -0.041852064 6.4501908e-40 271 275
-0.05739712 0.68199998 -0.041852064 4.6242289e-40 272 275
-0.056201346 0.68199998 -0.041852064 4.6242289e-40 273 275
-0.055005573 0.68199998 -0.041852064 8.2976627e-40 274 275
-0.053809796 0.68199998 -0.041852064 1.1059944e-39 275 275
-0.090875261 0.70999998 -0.044815198 8.3876471e-39 247 276
-0.089630395 0.70999998 -0.044815198 9.2159631e-39 248 276
-0.075775556 0.68599999 -0.043300316 1.2885836e-39 257 276
-0.074572764 0.68599999 -0.043300316 9.219591e-40 258 276
-0.073369987 0.68599999 -0.043300316 9.219591e-40 259 276
-0.072167195 0.68599999 -0.043300316 1.1985432e-39 260 276
-0.070757523 0.68400002 -0.043174081 1.1985432e-39 261 276
-0.06955824 0.68400002 -0.043174081 1.29002e-39 262 276
-0.068259016 0.68300003 -0.043110959 1.29002e-39 263 276
-0.067061491 0.68300003 -0.043110959 1.29002e-39 264 276
-0.065863967 0.68300003 -0.043110959 1.1056273e-39 265 276
-0.064666435 0.68300003 -0.043110959 1.1056273e-39 266 276
-0.063375987 0.68199998 -0.043047838 1.0134317e-39 267 276
-0.062180214 0.68199998 -0.043047838 9.2015843e-40 268 276
-0.060984433 0.68199998 -0.043047838 9.2015843e-40 269 276
-0.059788663 0.68199998 -0.043047838 8.2868447e-40 270 276
-0.058592889 0.68199998 -0.043047838 9.208801e-40 271 276
-0.057228796 0.68000001 -0.042921599 7.3828671e-40 272 276
-0.056036532 0.68000001 -0.042921599 8.3048234e-40 273 276
-0.054844268 0.68000001 -0.042921599 1.1063476e-39 274 276
-0.053652 0.68000001 -0.042921599 1.2907388e-39 275 276
-0.075775556 0.68599999 -0.044503104 1.0134289e-39 257 277
-0.074572764 0.68599999 -0.044503104 8.2976347e-40 258 277
-0.073156074 0.68400002 -0.04437336 9.219591e-40 259 277
-0.071956798 0.68400002 -0.04437336 9.219591e-40 260 277
-0.070757523 0.68400002 -0.04437336 9.219591e-40 261 277
-0.06955824 0.68400002 -0.04437336 1.2900228e-39 262 277
-0.068259016 0.68300003 -0.044308487 1.1974684e-39 263 277
-0.067061491 0.68300003 -0.044308487 1.1052714e-39 264 277
-0.065767527 0.68199998 -0.044243611 1.0130757e-39 265 277
-0.064571753 0.68199998 -0.044243611 1.1034735e-39 266 277
-0.063375987 0.68199998 -0.044243611 1.1034735e-39 267 277
-0.062180214 0.68199998 -0.044243611 8.2796561e-40 268 277
-0.0608056 0.68000001 -0.044113863 8.2796561e-40 269 277
-0.059613332 0.68000001 -0.044113863 8.2868447e-40 270 277
-0.058421064 0.68000001 -0.044113863 1.0130757e-39 271 277
-0.057144642 0.67900002 -0.044048995 1.1978243e-39 272 277
-0.055954125 0.67900002 -0.044048995 1.1978243e-39 273 277
-0.054844268 0.68000001 -0.044113863 1.29002e-39 274 277
-0.053652 0.68000001 -0.044113863 1.4740511e-39 275 277
-0.075775556 0.68599999 -0.045705888 1.6544739e-39 257 278
-0.074355356 0.68400002 -0.045572639 1.5630097e-39 258 278
-0.073049128 0.68300003 -0.045506012 1.5630097e-39 259 278
-0.071851604 0.68300003 -0.045506012 7.3828671e-40 260 278
-0.070654072 0.68300003 -0.045506012 1.014875e-39 261 278
-0.069354847 0.68199998 -0.045439381 1.2907388e-39 262 278
-0.068159081 0.68199998 -0.045439381 1.1985432e-39 263 278
-0.0669633 0.68199998 -0.045439381 1.1967439e-39 264 278
-0.065767527 0.68199998 -0.045439381 9.2015843e-40 265 278
-0.064382397 0.68000001 -0.045306131 7.3576998e-40 266 278
-0.063190132 0.68000001 -0.045306131 7.3576998e-40 267 278
-0.061997864 0.68000001 -0.045306131 8.279628e-40 268 278
-0.0608056 0.68000001 -0.045306131 9.2015843e-40 269 278
-0.059525665 0.67900002 -0.045239504 9.208773e-40 270 278
-0.057991501 0.67500001 -0.044972997 1.0134317e-39 271 278
-0.056808002 0.67500001 -0.044972997 1.2885836e-39 272 278
-0.055377278 0.67199999 -0.044773117 1.473335e-39 273 278
-0.054199036 0.67199999 -0.044773117 1.473335e-39 274 278
-0.053020798 0.67199999 -0.044773117 1.5655306e-39 275 278
-0.075775556 0.68599999 -0.046908677 2.2958874e-39 257 279
-0.074246652 0.68300003 -0.04670354 1.3789688e-39 258 279
-0.072942168 0.68199998 -0.046635158 1.56336e-39 259 279
-0.071746394 0.68199998 -0.046635158 1.1059916e-39 260 279
-0.070550621 0.68199998 -0.046635158 1.3829373e-39 261 279
-0.069151461 0.68000001 -0.046498399 1.2010627e-39 262 279
-0.067959204 0.68000001 -0.046498399 7.4008597e-40 263 279
-0.066766933 0.68000001 -0.046498399 1.0123597e-39 264 279
-0.065574668 0.68000001 -0.046498399 8.2760968e-40 265 279
-0.064287722 0.67900002 -0.046430022 5.5210179e-40 266 279
-0.063097201 0.67900002 -0.046430022 8.2832854e-40 267 279
-0.061815511 0.67799997 -0.046361636 9.208801e-40 268 279
-0.06044792 0.676 -0.046224877 9.208801e-40 269 279
-0.058911994 0.67199999 -0.045951359 1.1967439e-39 270 279
-0.057733759 0.67199999 -0.045951359 1.1967439e-39 271 279
-0.056471359 0.671 -0.045882981 1.1978243e-39 272 279
-0.055212468 0.67000002 -0.0458146 1.1978243e-39 273 279
-0.054037735 0.67000002 -0.0458146 1.4733322e-39 274 279
-0.052863002 0.67000002 -0.0458146 1.4733322e-39 275 279
-0.051379681 0.66600001 -0.045541082 1.5655306e-39 276 279
-0.05006117 0.66399997 -0.045404319 1.6577263e-39 277 279
-0.048823316 0.66299999 -0.045335937 1.7488457e-39 278 279
-0.047660857 0.66299999 -0.045335937 1.933237e-39 279 279
-0.046498399 0.66299999 -0.045335937 1.93396e-39 280 279
-0.045335937 0.66299999 -0.045335937 1.7499275e-39 281 279
-0.044240102 0.66399997 -0.045404319 2.1176296e-39 282 279
-0.043205637 0.66600001 -0.045541082 2.0254326e-39 283 279
-0.042037919 0.66600001 -0.045541082 1.8410413e-39 284 279
-0.075444184 0.68300003 -0.047901068 4.6882738e-39 257 280
-0.074137948 0.68199998 -0.047830928 1.6544739e-39 258 280
-0.072942168 0.68199998 -0.047830928 1.7470268e-39 259 280
-0.071535997 0.68000001 -0.047690667 1.5655278e-39 260 280
-0.070343733 0.68000001 -0.047690667 2.026506e-39 261 280
-0.069151461 0.68000001 -0.047690667 1.5676816e-39 262 280
-0.067959204 0.68000001 -0.047690667 1.1985404e-39 263 280
-0.066668749 0.67900002 -0.047620531 1.1967411e-39 264 280
-0.065478235 0.67900002 -0.047620531 9.2051436e-40 265 280
-0.064287722 0.67900002 -0.047620531 8.2868167e-40 266 280
-0.06235379 0.671 -0.047059465 9.208773e-40 267 280
-0.061177302 0.671 -0.047059465 1.0127128e-39 268 280
-0.060000818 0.671 -0.047059465 1.0127128e-39 269 280
-0.058736663 0.67000002 -0.046989333 1.1967439e-39 270 280
-0.057561934 0.67000002 -0.046989333 1.2889396e-39 271 280
-0.056387197 0.67000002 -0.046989333 9.219563e-40 272 280
-0.055212468 0.67000002 -0.046989333 1.1063476e-39 273 280
-0.053876422 0.66799998 -0.046849065 1.1063476e-39 274 280
-0.052705199 0.66799998 -0.046849065 1.2907388e-39 275 280
-0.051225383 0.66399997 -0.046568532 1.2900228e-39 276 280
-0.05006117 0.66399997 -0.046568532 1.4740539e-39 277 280
-0.048823316 0.66299999 -0.046498399 1.2903857e-39 278 280
-0.047660857 0.66299999 -0.046498399 1.2903857e-39 279 280
-0.046498399 0.66299999 -0.046498399 1.2903885e-39 280 280
-0.045335937 0.66299999 -0.046498399 1.1981929e-39 281 280
-0.044240102 0.66399997 -0.046568532 1.1971209e-39 282 280
-0.043205637 0.66600001 -0.046708796 1.1049252e-39 283 280
-0.042037919 0.66600001 -0.046708796 1.0127282e-39 284 280
-0.040870197 0.66600001 -0.046708796 9.2017385e-40 285 280
-0.075333714 0.68199998 -0.049026705 7.7317946e-39 257 281
-0.074137948 0.68199998 -0.049026705 3.2199821e-39 258 281
-0.072728261 0.68000001 -0.048882935 1.3775324e-39 259 281
-0.071535997 0.68000001 -0.048882935 1.1967313e-39 260 281
-0.070343733 0.68000001 -0.048882935 2.1186862e-39 261 281
-0.069049768 0.67900002 -0.048811045 1.3847337e-39 262 281
-0.067859262 0.67900002 -0.048811045 9.2339543e-40 263 281
-0.066374183 0.676 -0.048595384 1.196388e-39 264 281
-0.064803198 0.67199999 -0.04830784 1.196388e-39 265 281
-0.063530281 0.671 -0.048235953 7.3828671e-40 266 281
-0.062075011 0.66799998 -0.048020288 7.3828671e-40 267 281
-0.060903784 0.66799998 -0.048020288 1.0130757e-39 268 281
-0.0599114 0.67000002 -0.048164066 1.0130757e-39 269 281
-0.058736663 0.67000002 -0.048164066 1.1052714e-39 270 281
-0.057561934 0.67000002 -0.048164066 1.1052714e-39 271 281
-0.056218877 0.66799998 -0.048020288 1.014875e-39 272 281
-0.05504765 0.66799998 -0.048020288 9.2267937e-40 273 281
-0.05379577 0.667 -0.047948405 1.1985432e-39 274 281
-0.052547399 0.66600001 -0.047876518 1.2907388e-39 275 281
-0.051225383 0.66399997 -0.047732744 1.2907416e-39 276 281
-0.05006117 0.66399997 -0.047732744 1.1981873e-39 277 281
-0.048823316 0.66299999 -0.047660857 1.2900228e-39 278 281
-0.047660857 0.66299999 -0.047660857 1.1974684e-39 279 281
-0.046428263 0.662 -0.047588971 1.1963908e-39 280 281
-0.04526756 0.662 -0.047588971 9.2016404e-40 281 281
-0.044173479 0.66299999 -0.047660857 1.1031204e-39 282 281
-0.043075889 0.66399997 -0.047732744 1.0109247e-39 283 281
-0.041911677 0.66399997 -0.047732744 9.2016404e-40 284 281
-0.040747464 0.66399997 -0.047732744 9.2016404e-40 285 281
-0.075333714 0.68199998 -0.050222475 1.0225408e-38 257 282
-0.074137948 0.68199998 -0.050222475 8.099854e-39 258 282
-0.072728261 0.68000001 -0.050075196 4.965574e-39 259 282
-0.071535997 0.68000001 -0.050075196 7.371951e-40 260 282
-0.070343733 0.68000001 -0.050075196 2.3044998e-39 261 282
-0.068948075 0.67799997 -0.049927916 1.9343062e-39 262 282
-0.067459501 0.67500001 -0.049706999 1.4736881e-39 263 282
-0.06598144 0.67199999 -0.049486078 9.219563e-40 264 282
-0.064706765 0.671 -0.049412437 8.2976067e-40 265 282
-0.063435599 0.67000002 -0.049338799 9.219563e-40 266 282
-0.062075011 0.66799998 -0.04919152 1.1063476e-39 267 282
-0.060903784 0.66799998 -0.04919152 1.1063476e-39 268 282
-0.05973256 0.66799998 -0.04919152 1.1063476e-39 269 282
-0.058561329 0.66799998 -0.04919152 1.1981873e-39 270 282
-0.057390101 0.66799998 -0.04919152 1.1981873e-39 271 282
-0.056134716 0.667 -0.049117878 1.0155967e-39 272 282
-0.054965243 0.667 -0.049117878 1.0155967e-39 273 282
-0.053715117 0.66600001 -0.04904424 1.1070734e-39 274 282
-0.052547399 0.66600001 -0.04904424 1.2911046e-39 275 282
-0.051225383 0.66399997 -0.048896957 1.3825813e-39 276 282
-0.05006117 0.66399997 -0.048896957 1.2903857e-39 277 282
-0.048823316 0.66299999 -0.048823316 1.1059944e-39 278 282
-0.047588971 0.662 -0.048749682 7.3721191e-40 279 282
-0.046428263 0.662 -0.048749682 6.4430022e-40 280 282
-0.04526756 0.662 -0.048749682 5.5210459e-40 281 282
-0.044173479 0.66299999 -0.048823316 7.3541685e-40 282 282
-0.043075889 0.66399997 -0.048896957 9.1980811e-40 283 282
-0.041911677 0.66399997 -0.048896957 8.2976067e-40 284 282
-0.040747464 0.66399997 -0.048896957 9.219563e-40 285 282
-0.073920533 0.68000001 -0.051267464 1.1145557e-38 258 283
-0.072728261 0.68000001 -0.051267464 7.7343169e-39 259 283
-0.071430802 0.67900002 -0.051192071 3.4987172e-39 260 283
-0.070136838 0.67799997 -0.051116679 3.3143287e-39 261 283
-0.068643004 0.67500001 -0.050890498 1.9339376e-39 262 283
-0.067159683 0.67199999 -0.050664317 1.6573507e-39 263 283
-0.06598144 0.67199999 -0.050664317 1.2885836e-39 264 283
-0.064706765 0.671 -0.050588924 1.196388e-39 265 283
-0.063435599 0.67000002 -0.050513536 1.1052756e-39 266 283
-0.062075011 0.66799998 -0.050362743 1.2896668e-39 267 283
-0.060903784 0.66799998 -0.050362743 1.2907416e-39 268 283
-0.05973256 0.66799998 -0.050362743 1.3829373e-39 269 283
-0.058561329 0.66799998 -0.050362743 1.3836561e-39 270 283
-0.057304189 0.667 -0.050287351 1.3836561e-39 271 283
-0.056134716 0.667 -0.050287351 1.1999879e-39 272 283
-0.054882839 0.66600001 -0.050211959 1.1077923e-39 273 283
-0.053715117 0.66600001 -0.050211959 1.3825841e-39 274 283
-0.052389596 0.66399997 -0.05006117 1.3825841e-39 275 283
-0.051225383 0.66399997 -0.05006117 1.383303e-39 276 283
-0.05006117 0.66399997 -0.05006117 1.1070762e-39 277 283
-0.048823316 0.66299999 -0.049985778 1.1049196e-39 278 283
-0.047588971 0.662 -0.049910385 8.2833134e-40 279 283
-0.046428263 0.662 -0.049910385 6.4321842e-40 280 283
-0.04526756 0.662 -0.049910385 7.3541405e-40 281 283
-0.044106852 0.662 -0.049910385 6.4536941e-40 282 283
-0.043011017 0.66299999 -0.049985778 9.219563e-40 283 283
-0.041848559 0.66299999 -0.049985778 1.1988963e-39 284 283
-0.040747464 0.66399997 -0.05006117 1.2910919e-39 285 283
-0.073920533 0.68000001 -0.052459732 1.0597433e-38 258 284
-0.072621316 0.67900002 -0.052382588 1.0044619e-38 259 284
-0.0713256 0.67799997 -0.052305438 8.6537495e-39 260 284
-0.069929942 0.676 -0.052151144 5.6112951e-39 261 284
-0.068643004 0.67500001 -0.052074 1.840656e-39 262 284
-0.067159683 0.67199999 -0.051842555 1.1956551e-39 263 284
-0.065883249 0.671 -0.051765412 1.0123569e-39 264 284
-0.064610332 0.67000002 -0.051688269 1.196388e-39 265 284
-0.063435599 0.67000002 -0.051688269 9.2160738e-40 266 284
-0.062075011 0.66799998 -0.051533967 1.1981929e-39 267 284
-0.060903784 0.66799998 -0.051533967 1.2911046e-39 268 284
-0.05973256 0.66799998 -0.051533967 1.3833002e-39 269 284
-0.058473662 0.667 -0.051456824 1.1999879e-39 270 284
-0.057304189 0.667 -0.051456824 1.1999879e-39 271 284
-0.056050558 0.66600001 -0.051379681 1.2007068e-39 272 284
-0.054882839 0.66600001 -0.051379681 1.1085112e-39 273 284
-0.053553808 0.66399997 -0.051225383 1.1999907e-39 274 284
-0.052389596 0.66399997 -0.051225383 1.1999907e-39 275 284
-0.051225383 0.66399997 -0.051225383 1.1996348e-39 276 284
-0.049985778 0.66299999 -0.051148236 1.0152435e-39 277 284
-0.048749682 0.662 -0.051071092 9.2160738e-40 278 284
-0.047588971 0.662 -0.051071092 4.6026909e-40 279 284
-0.046358135 0.66100001 -0.050993945 4.5990616e-40 280 284
-0.045199182 0.66100001 -0.050993945 6.4429742e-40 281 284
-0.044040225 0.66100001 -0.050993945 8.2976067e-40 282 284
-0.042881273 0.66100001 -0.050993945 1.1985432e-39 283 284
-0.04172232 0.66100001 -0.050993945 1.2918108e-39 284 284
-0.040686097 0.66299999 -0.051148236 1.2918108e-39 285 284
-0.0023108933 0.65899998 -0.050839648 1.1967649e-39 318 284
-0.0011554466 0.65899998 -0.050839648 1.2893193e-39 319 284
0 0.65899998 -0.050839648 1.2893165e-39 320 284
0.0011554466 0.65899998 -0.050839648 1.1049252e-39 321 284
-0.073920533 0.68000001 -0.053652 1.0136112e-38 258 285
-0.072621316 0.67900002 -0.053573098 1.0965872e-38 259 285
-0.071115203 0.676 -0.053336397 1.1146273e-38 260 285
-0.069516152 0.67199999 -0.053020798 7.5510019e-39 261 285
-0.068337917 0.67199999 -0.053020798 4.7833379e-39 262 285
-0.06705974 0.671 -0.052941896 2.4795584e-39 263 285
-0.065883249 0.671 -0.052941896 1.2856969e-39 264 285
-0.064610332 0.67000002 -0.052863002 1.8385078e-39 265 285
-0.063435599 0.67000002 -0.052863002 1.2896668e-39 266 285
-0.062075011 0.66799998 -0.052705199 1.5662523e-39 267 285
-0.060903784 0.66799998 -0.052705199 1.5673313e-39 268 285
-0.059643134 0.667 -0.052626297 1.4751357e-39 269 285
-0.058473662 0.667 -0.052626297 1.5680516e-39 270 285
-0.057218276 0.66600001 -0.052547399 1.5680516e-39 271 285
-0.056050558 0.66600001 -0.052547399 1.3843806e-39 272 285
-0.054882839 0.66600001 -0.052547399 1.2921836e-39 273 285
-0.053553808 0.66399997 -0.052389596 1.2929038e-39 274 285
-0.052389596 0.66399997 -0.052389596 1.2007068e-39 275 285
-0.051148236 0.66299999 -0.052310698 1.1999879e-39 276 285
-0.049985778 0.66299999 -0.052310698 1.1077923e-39 277 285
-0.048749682 0.662 -0.0522318 1.0134317e-39 278 285
-0.047588971 0.662 -0.0522318 8.2868167e-40 279 285
-0.046358135 0.66100001 -0.052152898 2.7659109e-40 280 285
-0.045199182 0.66100001 -0.052152898 6.4537221e-40 281 285
-0.044040225 0.66100001 -0.052152898 7.3828671e-40 282 285
-0.042751525 0.65899998 -0.051995095 1.014875e-39 283 285
-0.041596077 0.65899998 -0.051995095 1.2907388e-39 284 285
-0.040133797 0.65399998 -0.051600594 1.2907388e-39 285 285
-0.038987119 0.65399998 -0.051600594 1.4751301e-39 286 285
-0.0034663398 0.65899998 -0.051995095 8.2761528e-40 317 285
-0.0023108933 0.65899998 -0.051995095 9.2161298e-40 318 285
-0.0011554466 0.65899998 -0.051995095 1.1056441e-39 319 285
0 0.65899998 -0.051995095 1.1974712e-39 320 285
0.0011554466 0.65899998 -0.051995095 1.1052756e-39 321 285
0.0023108933 0.65899998 -0.051995095 9.208801e-40 322 285
0.0034663398 0.65899998 -0.051995095 9.208801e-40 323 285
0.0046358132 0.66100001 -0.052152898 7.3721191e-40 324 285
-0.072300449 0.676 -0.054521654 9.6751363e-39 259 286
-0.071115203 0.676 -0.054521654 1.114809e-38 260 286
-0.069412716 0.671 -0.054118387 1.0779666e-38 261 286
-0.068236224 0.671 -0.054118387 9.9419702e-39 262 286
-0.066959806 0.67000002 -0.054037735 6.6229275e-39 263 286
-0.065785065 0.67000002 -0.054037735 2.1125751e-39 264 286
-0.064417459 0.66799998 -0.053876422 6.4284847e-40 265 286
-0.063246235 0.66799998 -0.053876422 2.8754644e-42 266 286
-0.06198208 0.667 -0.05379577 4.3174006e-42 267 286
-0.060812607 0.667 -0.05379577 5.5462132e-40 268 286
-0.059553716 0.66600001 -0.053715117 6.4681835e-40 269 286
-0.058385998 0.66600001 -0.053715117 1.1070734e-39 270 286
-0.057218276 0.66600001 -0.053715117 1.2911046e-39 271 286
-0.056050558 0.66600001 -0.053715117 1.4754958e-39 272 286
-0.054882839 0.66600001 -0.053715117 1.4754958e-39 273 286
-0.053553808 0.66399997 -0.053553808 1.2929066e-39 274 286
-0.052310698 0.66299999 -0.053473156 1.2929066e-39 275 286
-0.051148236 0.66299999 -0.053473156 1.2932598e-39 276 286
-0.049985778 0.66299999 -0.053473156 9.2447723e-40 277 286
-0.048749682 0.662 -0.053392503 7.3936711e-40 278 286
-0.047517084 0.66100001 -0.053311851 2.7802883e-40 279 286
-0.046358135 0.66100001 -0.053311851 2.7659109e-40 280 286
-0.045062415 0.65899998 -0.053150542 4.6062222e-40 281 286
-0.043840345 0.65799999 -0.05306989 9.208801e-40 282 286
-0.042492028 0.65499997 -0.052827932 1.1052714e-39 283 286
-0.041154239 0.65200001 -0.052585974 1.3811366e-39 284 286
-0.040011063 0.65200001 -0.052585974 1.4733322e-39 285 286
-0.038987119 0.65399998 -0.052747279 1.2907388e-39 286 286
-0.008039033 0.65499997 -0.052827932 1.4719099e-39 313 286
-0.0068905996 0.65499997 -0.052827932 1.0120065e-39 314 286
-0.0057596997 0.65700001 -0.052989237 7.3506092e-40 315 286
-0.0046077599 0.65700001 -0.052989237 5.5102279e-40 316 286
-0.0034558198 0.65700001 -0.052989237 8.2689361e-40 317 286
-0.0023073866 0.65799999 -0.05306989 9.2052697e-40 318 286
-0.0011554466 0.65899998 -0.053150542 1.197474e-39 319 286
0 0.65899998 -0.053150542 1.1052714e-39 320 286
0.0011554466 0.65899998 -0.053150542 9.208801e-40 321 286
0.0023108933 0.65899998 -0.053150542 7.3756504e-40 322 286
0.0034663398 0.65899998 -0.053150542 7.3756504e-40 323 286
0.0046217865 0.65899998 -0.053150542 8.2868447e-40 324 286
0.0057947668 0.66100001 -0.053311851 8.2868447e-40 325 286
-0.071765684 0.671 -0.055294871 8.2965347e-39 259 287
-0.0705892 0.671 -0.055294871 9.9510001e-39 260 287
-0.069412716 0.671 -0.055294871 1.0872598e-38 261 287
-0.068236224 0.671 -0.055294871 1.123992e-38 262 287
-0.066959806 0.67000002 -0.055212468 9.3038119e-39 263 287
-0.065785065 0.67000002 -0.055212468 6.8166766e-39 264 287
-0.064417459 0.66799998 -0.05504765 3.8664179e-39 265 287
-0.063151561 0.667 -0.054965243 3.4965774e-39 266 287
-0.06198208 0.667 -0.054965243 2.9434036e-39 267 287
-0.060812607 0.667 -0.054965243 2.4817262e-39 268 287
-0.059553716 0.66600001 -0.054882839 2.5739218e-39 269 287
-0.058385998 0.66600001 -0.054882839 2.3009279e-39 270 287
-0.057218276 0.66600001 -0.054882839 2.2087322e-39 271 287
-0.056050558 0.66600001 -0.054882839 2.2069372e-39 272 287
-0.054718021 0.66399997 -0.054718021 2.4835241e-39 273 287
-0.053553808 0.66399997 -0.054718021 2.0257885e-39 274 287
-0.052310698 0.66299999 -0.054635618 2.0257885e-39 275 287
-0.051148236 0.66299999 -0.054635618 1.8439098e-39 276 287
-0.049985778 0.66299999 -0.054635618 1.475486e-39 277 287
-0.048749682 0.662 -0.054553211 9.2230943e-40 278 287
-0.047517084 0.66100001 -0.054470807 7.3791817e-40 279 287
-0.046217863 0.65899998 -0.054305989 2.7730716e-40 280 287
-0.044994038 0.65799999 -0.054223582 3.6986152e-40 281 287
-0.043640465 0.65499997 -0.053976361 3.6915246e-40 282 287
-0.042362284 0.653 -0.05381155 6.4573795e-40 283 287
-0.041154239 0.65200001 -0.053729147 7.3793358e-40 284 287
-0.040011063 0.65200001 -0.053729147 9.2232624e-40 285 287
-0.038748663 0.64999998 -0.053564329 1.1981901e-39 286 287
-0.037551139 0.64899999 -0.053481925 1.2903857e-39 287 287
-0.036413226 0.64899999 -0.053481925 1.2903857e-39 288 287
-0.035003547 0.64399999 -0.05306989 1.3825813e-39 289 287
-0.0338744 0.64399999 -0.05306989 1.4754958e-39 290 287
-0.027057439 0.64300001 -0.052987486 2.1208498e-39 296 287
-0.025930047 0.64300001 -0.052987486 2.0286542e-39 297 287
-0.024841227 0.64399999 -0.05306989 2.026136e-39 298 287
-0.023785722 0.64600003 -0.053234708 1.4729637e-39 299 287
-0.022653066 0.64600003 -0.053234708 1.1956747e-39 300 287
-0.021553727 0.64700001 -0.053317111 8.2689361e-40 301 287
-0.02041932 0.64700001 -0.053317111 4.6172224e-40 302 287
-0.019284913 0.64700001 -0.053317111 7.3831053e-40 303 287
-0.018150507 0.64700001 -0.053317111 1.1060169e-39 304 287
-0.016004426 0.65200001 -0.053729147 1.4719253e-39 306 287
-0.014861252 0.65200001 -0.053729147 1.4719253e-39 307 287
-0.012613479 0.65399998 -0.053893957 1.1042218e-39 309 287
-0.011466799 0.65399998 -0.053893957 9.2090392e-40 310 287
-0.01032012 0.65399998 -0.053893957 8.2870689e-40 311 287
-0.0091594132 0.653 -0.05381155 9.2161018e-40 312 287
-0.0080144862 0.653 -0.05381155 8.2941315e-40 313 287
-0.0068905996 0.65499997 -0.053976361 8.2868447e-40 314 287
-0.0057596997 0.65700001 -0.054141179 5.5209898e-40 315 287
-0.0046077599 0.65700001 -0.054141179 4.5990896e-40 316 287
-0.0034558198 0.65700001 -0.054141179 6.4430022e-40 317 287
-0.0023073866 0.65799999 -0.054223582 7.3793638e-40 318 287
-0.0011536933 0.65799999 -0.054223582 7.3793638e-40 319 287
0 0.65799999 -0.054223582 8.2976627e-40 320 287
0.0011536933 0.65799999 -0.054223582 7.3721191e-40 321 287
0.0023073866 0.65799999 -0.054223582 6.4536941e-40 322 287
0.0034610799 0.65799999 -0.054223582 6.4536941e-40 323 287
0.0046147732 0.65799999 -0.054223582 6.4537221e-40 324 287
0.0057947668 0.66100001 -0.054470807 5.5281785e-40 325 287
-0.070483997 0.67000002 -0.056387197 9.030483e-39 260 288
-0.069309272 0.67000002 -0.056387197 9.5836568e-39 261 288
-0.068134531 0.67000002 -0.056387197 1.0506324e-38 262 288
-0.066959806 0.67000002 -0.056387197 1.1520115e-38 263 288
-0.065588683 0.66799998 -0.056218877 1.1246049e-38 264 288
-0.064417459 0.66799998 -0.056218877 1.0969462e-38 265 288
-0.063151561 0.667 -0.056134716 1.0780029e-38 266 288
-0.06198208 0.667 -0.056134716 9.5814876e-39 267 288
-0.060721438 0.66600001 -0.056050558 9.1194332e-39 268 288
-0.059553716 0.66600001 -0.056050558 8.5662594e-39 269 288
-0.058385998 0.66600001 -0.056050558 7.6471828e-39 270 288
-0.057046451 0.66399997 -0.055882234 7.0018134e-39 271 288
-0.055882234 0.66399997 -0.055882234 6.2606484e-39 272 288
-0.054718021 0.66399997 -0.055882234 4.3245402e-39 273 288
-0.053473156 0.66299999 -0.055798076 2.4831485e-39 274 288
-0.052310698 0.66299999 -0.055798076 2.1143688e-39 275 288
-0.051071092 0.662 -0.055713918 1.4754832e-39 276 288
-0.049910385 0.662 -0.055713918 1.5676788e-39 277 288
-0.04867604 0.66100001 -0.05562976 1.0152309e-39 278 288
-0.04737331 0.65899998 -0.055461437 7.3828391e-40 279 288
-0.04614773 0.65799999 -0.055377278 3.7057758e-40 280 288
-0.04492566 0.65700001 -0.055293117 2.7838195e-40 281 288
-0.043440588 0.65200001 -0.054872319 4.6205715e-40 282 288
-0.042167664 0.64999998 -0.054703996 6.4608828e-40 283 288
-0.041027997 0.64999998 -0.054703996 9.208829e-40 284 288
-0.039888334 0.64999998 -0.054703996 9.208829e-40 285 288
-0.038748663 0.64999998 -0.054703996 1.1052756e-39 286 288
-0.037493281 0.648 -0.05453568 1.1974712e-39 287 288
-0.03635712 0.648 -0.05453568 1.4740539e-39 288 288
-0.035003547 0.64399999 -0.054199036 1.5662495e-39 289 288
-0.0338744 0.64399999 -0.054199036 1.4758517e-39 290 288
-0.029312227 0.64300001 -0.054114878 2.1190576e-39 294 288
-0.028184833 0.64300001 -0.054114878 2.1190576e-39 295 288
-0.027057439 0.64300001 -0.054114878 1.9353866e-39 296 288
-0.025930047 0.64300001 -0.054114878 1.8431909e-39 297 288
-0.024841227 0.64399999 -0.054199036 1.4740539e-39 298 288
-0.02371208 0.64399999 -0.054199036 1.0130757e-39 299 288
-0.022653066 0.64600003 -0.05436736 8.2760968e-40 300 288
-0.021520413 0.64600003 -0.05436736 6.4321842e-40 301 288
-0.02041932 0.64700001 -0.054451518 5.5282065e-40 302 288
-0.019255107 0.64600003 -0.05436736 8.2976627e-40 303 288
-0.018122453 0.64600003 -0.05436736 1.3807835e-39 304 288
-0.016989801 0.64600003 -0.05436736 1.3807835e-39 305 288
-0.015955333 0.64999998 -0.054703996 1.472263e-39 306 288
-0.014815666 0.64999998 -0.054703996 1.2878704e-39 307 288
-0.013675999 0.64999998 -0.054703996 1.1963936e-39 308 288
-0.012574906 0.65200001 -0.054872319 1.0120037e-39 309 288
-0.011431733 0.65200001 -0.054872319 9.208829e-40 310 288
-0.010304339 0.653 -0.054956477 1.0130785e-39 311 288
-0.0091594132 0.653 -0.054956477 7.3793078e-40 312 288
-0.0080144862 0.653 -0.054956477 6.4573515e-40 313 288
-0.0068800794 0.65399998 -0.055040635 6.4501628e-40 314 288
-0.0057596997 0.65700001 -0.055293117 4.6062502e-40 315 288
-0.0046077599 0.65700001 -0.055293117 6.4321842e-40 316 288
-0.0034558198 0.65700001 -0.055293117 8.2760968e-40 317 288
-0.0023073866 0.65799999 -0.055377278 9.208829e-40 318 288
-0.0011536933 0.65799999 -0.055377278 1.1052756e-39 319 288
0 0.65799999 -0.055377278 1.0130757e-39 320 288
0.0011536933 0.65799999 -0.055377278 8.2868447e-40 321 288
0.0023073866 0.65799999 -0.055377278 6.4536941e-40 322 288
0.0034558198 0.65700001 -0.055293117 5.5317378e-40 323 288
0.0046077599 0.65700001 -0.055293117 5.5281785e-40 324 288
-0.070483997 0.67000002 -0.057561934 7.8348265e-39 260 289
-0.069309272 0.67000002 -0.057561934 8.4801959e-39 261 289
-0.068134531 0.67000002 -0.057561934 9.6762083e-39 262 289
