# .PCD v.7 - Point Cloud Data file format
FIELDS x y z rgb imX imY
SIZE 4 4 4 4 4 4
TYPE F F F F F F
COUNT 1 1 1 1 1 1
WIDTH 835
HEIGHT 1
VIEWPOINT 0 0 0 1 0 0 0
POINTS 835
DATA ascii
-0.019582979 0.65700001 -0.048381478 1.7233418e-38 303 282
-0.018374931 0.65499997 -0.048234195 1.7048668e-38 304 282
-0.017147599 0.65200001 -0.048013281 1.7048668e-38 305 282
-0.015955333 0.64999998 -0.047865998 1.6682409e-38 306 282
-0.014815666 0.64999998 -0.047865998 1.6682409e-38 307 282
-0.01363392 0.648 -0.047718719 1.6406914e-38 308 282
-0.01249776 0.648 -0.047718719 1.6776057e-38 309 282
-0.0113616 0.648 -0.047718719 1.6043173e-38 310 282
-0.01020966 0.64700001 -0.047645077 1.5121216e-38 311 282
-0.0090752533 0.64700001 -0.047645077 1.5302719e-38 312 282
-0.0079531204 0.648 -0.047718719 1.4841739e-38 313 282
-0.0068169599 0.648 -0.047718719 1.4565505e-38 314 282
-0.0056807999 0.648 -0.047718719 1.4196364e-38 315 282
-0.0045516533 0.64899999 -0.047792356 1.3918341e-38 316 282
-0.0034189997 0.64999998 -0.047865998 1.3733591e-38 317 282
-0.0022793331 0.64999998 -0.047865998 1.4746304e-38 318 282
-0.0011431733 0.65200001 -0.048013281 1.4746304e-38 319 282
0 0.65200001 -0.048013281 1.4836699e-38 320 282
0.0011449266 0.653 -0.048086919 1.4744502e-38 321 282
0.00229336 0.65399998 -0.048160557 1.4744502e-38 322 282
0.0034400397 0.65399998 -0.048160557 1.4836699e-38 323 282
0.0045937328 0.65499997 -0.048234195 1.4560839e-38 324 282
0.0057596997 0.65700001 -0.048381478 1.4560839e-38 325 282
0.0069221598 0.65799999 -0.048455119 1.4377891e-38 326 282
0.0080881258 0.65899998 -0.048528757 1.4746672e-38 327 282
0.0092435731 0.65899998 -0.048528757 1.4473327e-38 328 282
0.01043058 0.66100001 -0.04867604 1.4749913e-38 329 282
0.011589534 0.66100001 -0.04867604 1.4291812e-38 330 282
0.012767773 0.662 -0.048749682 1.4291812e-38 331 282
0.01392848 0.662 -0.048749682 1.4475122e-38 332 282
0.015134773 0.66399997 -0.048896957 1.429073e-38 333 282
0.016348081 0.66600001 -0.04904424 1.4197815e-38 334 282
0.0175421 0.667 -0.049117878 1.3829033e-38 335 282
0.018711573 0.667 -0.049117878 1.4100584e-38 336 282
0.019970467 0.67000002 -0.049338799 1.419278e-38 337 282
0.021176759 0.671 -0.049412437 1.4376442e-38 338 282
0.022353247 0.671 -0.049412437 1.4376442e-38 339 282
0.023564799 0.67199999 -0.049486078 1.4376795e-38 340 282
0.024743039 0.67199999 -0.049486078 1.4376795e-38 341 282
0.025998428 0.67400002 -0.049633358 1.4010887e-38 342 282
0.027220501 0.67500001 -0.049706999 1.4287114e-38 343 282
0.028446076 0.676 -0.049780637 1.4378946e-38 344 282
0.029718997 0.67799997 -0.049927916 1.4102001e-38 345 282
0.030953348 0.67900002 -0.050001562 1.3914007e-38 346 282
0.032191198 0.68000001 -0.050075196 1.3360833e-38 347 282
0.03348165 0.68199998 -0.050222475 1.3726739e-38 348 282
0.034677424 0.68199998 -0.050222475 1.4372108e-38 349 282
0.035978399 0.68400002 -0.050369758 1.4099839e-38 350 282
0.037177678 0.68400002 -0.050369758 1.4284231e-38 351 282
0.038376961 0.68400002 -0.050369758 1.4285676e-38 352 282
0.039691959 0.68599999 -0.050517038 1.4469707e-38 353 282
0.040894743 0.68599999 -0.050517038 1.4103083e-38 354 282
0.042158898 0.68699998 -0.050590675 1.4103083e-38 355 282
0.043363437 0.68699998 -0.050590675 1.4377146e-38 356 282
0.044632856 0.68800002 -0.050664321 1.4100919e-38 357 282
0.045972396 0.69 -0.050811596 1.4284597e-38 358 282
0.047250576 0.69099998 -0.050885238 1.4376793e-38 359 282
0.048602402 0.69300002 -0.051032521 1.4193849e-38 360 282
0.050033119 0.69599998 -0.051253434 1.4193849e-38 361 282
0.051327083 0.69700003 -0.051327083 1.4195295e-38 362 282
0.052624546 0.69800001 -0.051400717 1.4656272e-38 363 282
0.054002665 0.69999999 -0.051547997 1.3924106e-38 364 282
0.055229999 0.69999999 -0.051547997 1.3924106e-38 365 282
0.056537982 0.70099998 -0.051621638 1.4107415e-38 366 282
0.057931885 0.70300001 -0.051768921 1.401522e-38 367 282
0.059248637 0.704 -0.051842559 1.4288565e-38 368 282
0.060654808 0.70599997 -0.051989835 1.3919784e-38 369 282
0.061892662 0.70599997 -0.051989835 1.4286047e-38 370 282
0.063309364 0.708 -0.052137118 1.4286047e-38 371 282
0.06455072 0.708 -0.052137118 1.446971e-38 372 282
0.065977924 0.70999998 -0.052284397 1.446971e-38 373 282
0.067317478 0.71100003 -0.052358042 1.4562256e-38 374 282
0.068756968 0.713 -0.052505318 1.4839203e-38 375 282
0.070105277 0.71399999 -0.052578956 1.4839922e-38 376 282
0.071357153 0.71399999 -0.052578956 1.4747726e-38 377 282
0.072812423 0.71600002 -0.052726239 1.437859e-38 378 282
0.074067809 0.71600002 -0.052726239 1.6406896e-38 379 282
0.075323202 0.71600002 -0.052726239 1.9083795e-38 380 282
0.076578587 0.71600002 -0.052726239 2.3048197e-38 381 282
-0.06312 0.72000003 -0.054283202 1.759644e-38 270 283
-0.061599858 0.71700001 -0.054057021 1.907157e-38 271 283
-0.06025856 0.71600002 -0.053981625 1.8708911e-38 272 283
-0.058838356 0.71399999 -0.053830836 1.7695119e-38 273 283
-0.057505824 0.713 -0.053755447 1.7876985e-38 274 283
-0.056097899 0.71100003 -0.053604662 1.7692954e-38 275 283
-0.054619838 0.708 -0.053378478 1.7876982e-38 276 283
-0.053227689 0.70599997 -0.053227689 1.8061734e-38 277 283
-0.051842559 0.704 -0.053076904 1.7878785e-38 278 283
-0.050392549 0.70099998 -0.052850723 1.7786589e-38 279 283
-0.049093332 0.69999999 -0.052775331 1.80621e-38 280 283
-0.047660861 0.69700003 -0.052549154 1.80621e-38 281 283
-0.046438783 0.69700003 -0.052549154 1.7695841e-38 282 283
-0.044957221 0.69300002 -0.05224758 1.7880232e-38 283 283
-0.043742158 0.69300002 -0.05224758 1.7419974e-38 284 283
-0.042404365 0.69099998 -0.052096792 1.7143386e-38 285 283
-0.041013971 0.68800002 -0.051870614 1.7601119e-38 286 283
-0.039749816 0.68699998 -0.051795214 1.7508923e-38 287 283
-0.038320854 0.68300003 -0.051493648 1.7599677e-38 288 283
-0.036960267 0.68000001 -0.051267464 1.7599677e-38 289 283
-0.035715401 0.67900002 -0.051192071 1.7508207e-38 290 283
-0.034474038 0.67799997 -0.051116679 1.7600403e-38 291 283
-0.033187091 0.676 -0.050965894 1.7325979e-38 292 283
-0.031954501 0.67500001 -0.050890498 1.7879153e-38 293 283
-0.030588651 0.671 -0.050588924 1.7606889e-38 294 283
-0.029368332 0.67000002 -0.050513536 1.7514694e-38 295 283
-0.028109439 0.66799998 -0.050362743 1.7332097e-38 296 283
-0.026857559 0.66600001 -0.050211959 1.7239902e-38 297 283
-0.02568984 0.66600001 -0.050211959 1.7238102e-38 298 283
-0.024411658 0.66299999 -0.049985778 1.6316148e-38 299 283
-0.0232492 0.66299999 -0.049985778 1.7325263e-38 300 283
-0.022053426 0.662 -0.049910385 1.7232709e-38 301 283
-0.020798039 0.65899998 -0.049684204 1.704975e-38 302 283
-0.019612785 0.65799999 -0.049608808 1.6957554e-38 303 283
-0.018374931 0.65499997 -0.049382631 1.7049024e-38 304 283
-0.017200198 0.65399998 -0.049307238 1.714122e-38 305 283
-0.016004426 0.65200001 -0.049156453 1.6682406e-38 306 283
-0.014815666 0.64999998 -0.049005665 1.6682406e-38 307 283
-0.013654959 0.64899999 -0.048930272 1.640727e-38 308 283
-0.012517046 0.64899999 -0.048930272 1.6683857e-38 309 283
-0.0113616 0.648 -0.04885488 1.5859861e-38 310 283
-0.010225439 0.648 -0.04885488 1.4937545e-38 311 283
-0.0090892799 0.648 -0.04885488 1.521017e-38 312 283
-0.0079531204 0.648 -0.04885488 1.4564801e-38 313 283
-0.0068274797 0.64899999 -0.048930272 1.4748099e-38 314 283
-0.0056895665 0.64899999 -0.048930272 1.4379316e-38 315 283
-0.0045586661 0.64999998 -0.049005665 1.410165e-38 316 283
-0.0034189997 0.64999998 -0.049005665 1.3917619e-38 317 283
-0.0022863466 0.65200001 -0.049156453 1.4838497e-38 318 283
-0.0011449266 0.653 -0.049231846 1.4838497e-38 319 283
0 0.653 -0.049231846 1.4837053e-38 320 283
0.00114668 0.65399998 -0.049307238 1.4652303e-38 321 283
0.00229336 0.65399998 -0.049307238 1.4652306e-38 322 283
0.0034452998 0.65499997 -0.049382631 1.4836699e-38 323 283
0.0046077599 0.65700001 -0.049533416 1.4560483e-38 324 283
0.0057596997 0.65700001 -0.049533416 1.4560483e-38 325 283
0.0069221598 0.65799999 -0.049608808 1.4653399e-38 326 283
0.0080881258 0.65899998 -0.049684204 1.4838149e-38 327 283
0.0092716264 0.66100001 -0.049834993 1.4382207e-38 328 283
0.01043058 0.66100001 -0.049834993 1.4658793e-38 329 283
0.011607066 0.662 -0.049910385 1.4291456e-38 330 283
0.012767773 0.662 -0.049910385 1.4291456e-38 331 283
0.013949519 0.66299999 -0.049985778 1.4475122e-38 332 283
0.015134773 0.66399997 -0.05006117 1.429073e-38 333 283
0.016348081 0.66600001 -0.050211959 1.4290012e-38 334 283
0.0175421 0.667 -0.050287351 1.3736838e-38 335 283
0.018711573 0.667 -0.050287351 1.4283893e-38 336 283
0.019970467 0.67000002 -0.050513536 1.4468285e-38 337 283
0.021176759 0.671 -0.050588924 1.4285326e-38 338 283
0.022386558 0.67199999 -0.050664317 1.419313e-38 339 283
0.023564799 0.67199999 -0.050664317 1.4376076e-38 340 283
0.024816679 0.67400002 -0.050815105 1.4376076e-38 341 283
0.026037 0.67500001 -0.050890498 1.4194202e-38 342 283
0.027260827 0.676 -0.050965894 1.4378593e-38 343 283
0.028530238 0.67799997 -0.051116679 1.4103085e-38 344 283
0.029718997 0.67799997 -0.051116679 1.4010531e-38 345 283
0.030953348 0.67900002 -0.051192071 1.4283878e-38 346 283
0.032191198 0.68000001 -0.051267464 1.4099485e-38 347 283
0.033530746 0.68300003 -0.051493648 1.4284244e-38 348 283
0.034728274 0.68300003 -0.051493648 1.4929613e-38 349 283
0.035978399 0.68400002 -0.051569041 1.456371e-38 350 283
0.037286382 0.68599999 -0.051719822 1.4102732e-38 351 283
0.03848917 0.68599999 -0.051719822 1.4193846e-38 352 283
0.039691959 0.68599999 -0.051719822 1.4193846e-38 353 283
0.040954359 0.68699998 -0.051795214 1.4011606e-38 354 283
0.042158898 0.68699998 -0.051795214 1.4011606e-38 355 283
0.043426562 0.68800002 -0.051870614 1.428495e-38 356 283
0.044632856 0.68800002 -0.051870614 1.4100919e-38 357 283
0.046039023 0.69099998 -0.052096792 1.4284597e-38 358 283
0.047250576 0.69099998 -0.052096792 1.4376793e-38 359 283
0.048672531 0.69400001 -0.052322973 1.419313e-38 360 283
0.050105009 0.69700003 -0.052549154 1.4285326e-38 361 283
0.051400717 0.69800001 -0.052624546 1.4195295e-38 362 283
0.052624546 0.69800001 -0.052624546 1.4564076e-38 363 283
0.054002665 0.69999999 -0.052775331 1.383191e-38 364 283
0.055308893 0.70099998 -0.052850723 1.3924106e-38 365 283
0.056537982 0.70099998 -0.052850723 1.401522e-38 366 283
0.057931885 0.70300001 -0.053001512 1.4107415e-38 367 283
0.059248637 0.704 -0.053076904 1.4288209e-38 368 283
0.060654808 0.70599997 -0.053227689 1.3919787e-38 369 283
0.061892662 0.70599997 -0.053227689 1.4286047e-38 370 283
0.063309364 0.708 -0.053378478 1.4286047e-38 371 283
0.064733058 0.70999998 -0.053529263 1.446971e-38 372 283
0.066070862 0.71100003 -0.053604662 1.4285679e-38 373 283
0.067506835 0.713 -0.053755447 1.4654456e-38 374 283
0.068756968 0.713 -0.053755447 1.4838847e-38 375 283
0.070105277 0.71399999 -0.053830836 1.4839569e-38 376 283
0.071557038 0.71600002 -0.053981625 1.4931764e-38 377 283
0.072812423 0.71600002 -0.053981625 1.4472954e-38 378 283
0.074067809 0.71600002 -0.053981625 1.6501616e-38 379 283
0.075428396 0.71700001 -0.054057021 1.9359305e-38 380 283
0.076685533 0.71700001 -0.054057021 2.3231509e-38 381 283
-0.061599858 0.71700001 -0.055314157 1.8143846e-38 271 284
-0.06025856 0.71600002 -0.055237014 1.7783352e-38 272 284
-0.058838356 0.71399999 -0.05508272 1.8704948e-38 273 284
-0.057586476 0.71399999 -0.05508272 1.7878066e-38 274 284
-0.056255698 0.713 -0.055005573 1.7601119e-38 275 284
-0.054774132 0.70999998 -0.054774132 1.7876982e-38 276 284
-0.053303085 0.70700002 -0.054542694 1.8061734e-38 277 284
-0.051842559 0.704 -0.054311249 1.7878066e-38 278 284
-0.050536323 0.70300001 -0.054234106 1.7878066e-38 279 284
-0.049093332 0.69999999 -0.054002665 1.7786589e-38 280 284
-0.047729239 0.69800001 -0.053848371 1.7786589e-38 281 284
-0.046438783 0.69700003 -0.053771228 1.7328495e-38 282 284
-0.044957221 0.69300002 -0.053462639 1.760544e-38 283 284
-0.043615919 0.69099998 -0.053308345 1.7604719e-38 284 284
-0.042342998 0.69 -0.053231198 1.6959349e-38 285 284
-0.041133199 0.69 -0.053231198 1.7601472e-38 286 284
-0.039807681 0.68800002 -0.053076908 1.7509276e-38 287 284
-0.038376961 0.68400002 -0.05276832 1.7599674e-38 288 284
-0.037068974 0.68199998 -0.052614026 1.7415643e-38 289 284
-0.035715401 0.67900002 -0.052382588 1.7416011e-38 290 284
-0.034474038 0.67799997 -0.052305438 1.7508207e-38 291 284
-0.033187091 0.676 -0.052151144 1.7509655e-38 292 284
-0.031954501 0.67500001 -0.052074 1.7970633e-38 293 284
-0.030634239 0.67199999 -0.051842555 1.78824e-38 294 284
-0.029412165 0.671 -0.051765412 1.769765e-38 295 284
-0.028193599 0.67000002 -0.051688269 1.7423217e-38 296 284
-0.026897885 0.667 -0.051456824 1.7515412e-38 297 284
-0.02568984 0.66600001 -0.051379681 1.7329579e-38 298 284
-0.024411658 0.66299999 -0.051148236 1.649946e-38 299 284
-0.0232492 0.66299999 -0.051148236 1.7325263e-38 300 284
-0.022053426 0.662 -0.051071092 1.7325263e-38 301 284
-0.02086116 0.66100001 -0.050993945 1.704975e-38 302 284
-0.019612785 0.65799999 -0.050762504 1.6957554e-38 303 284
-0.01843104 0.65700001 -0.050685361 1.7140864e-38 304 284
-0.017200198 0.65399998 -0.050453916 1.7233418e-38 305 284
-0.016004426 0.65200001 -0.050299626 1.6682406e-38 306 284
-0.014861252 0.65200001 -0.050299626 1.6774961e-38 307 284
-0.013675999 0.64999998 -0.050145328 1.6407267e-38 308 284
-0.012517046 0.64899999 -0.050068185 1.6591658e-38 309 284
-0.011379133 0.64899999 -0.050068185 1.5950978e-38 310 284
-0.01024122 0.64899999 -0.050068185 1.5305608e-38 311 284
-0.0091033066 0.64899999 -0.050068185 1.5210892e-38 312 284
-0.0079653924 0.64899999 -0.050068185 1.4473327e-38 313 284
-0.0068274797 0.64899999 -0.050068185 1.4655906e-38 314 284
-0.005698333 0.64999998 -0.050145328 1.437896e-38 315 284
-0.0045726933 0.65200001 -0.050299626 1.4193127e-38 316 284
-0.0034295199 0.65200001 -0.050299626 1.4193127e-38 317 284
-0.0022863466 0.65200001 -0.050299626 1.4839215e-38 318 284
-0.00114668 0.65399998 -0.050453916 1.4839215e-38 319 284
0 0.65399998 -0.050453916 1.4652303e-38 320 284
0.00114668 0.65399998 -0.050453916 1.4468272e-38 321 284
0.0022968664 0.65499997 -0.050531063 1.4561189e-38 322 284
0.0034558198 0.65700001 -0.050685361 1.4653386e-38 323 284
0.0046077599 0.65700001 -0.050685361 1.4560839e-38 324 284
0.0057684663 0.65799999 -0.050762504 1.4560839e-38 325 284
0.0069326796 0.65899998 -0.050839648 1.4653755e-38 326 284
0.0080881258 0.65899998 -0.050839648 1.4930342e-38 327 284
0.0092716264 0.66100001 -0.050993945 1.4382207e-38 328 284
0.01043058 0.66100001 -0.050993945 1.4474403e-38 329 284
0.011607066 0.662 -0.051071092 1.4475127e-38 330 284
0.012787059 0.66299999 -0.051148236 1.4475127e-38 331 284
0.013970559 0.66399997 -0.051225383 1.4475478e-38 332 284
0.01518036 0.66600001 -0.051379681 1.4290728e-38 333 284
0.016372627 0.667 -0.051456824 1.4290009e-38 334 284
0.0175421 0.667 -0.051456824 1.3644639e-38 335 284
0.018795732 0.67000002 -0.051688269 1.3917269e-38 336 284
0.020000271 0.671 -0.051765412 1.4285691e-38 337 284
0.021176759 0.671 -0.051765412 1.4193849e-38 338 284
0.022386558 0.67199999 -0.051842555 1.4101653e-38 339 284
0.023634933 0.67400002 -0.051996857 1.4376076e-38 340 284
0.024816679 0.67400002 -0.051996857 1.4376076e-38 341 284
0.026075572 0.676 -0.052151144 1.4010887e-38 342 284
0.027260827 0.676 -0.052151144 1.4287114e-38 343 284
0.028572321 0.67900002 -0.052382588 1.4287116e-38 344 284
0.029762832 0.67900002 -0.052382588 1.4103085e-38 345 284
0.030998932 0.68000001 -0.052459732 1.4285679e-38 346 284
0.032285877 0.68199998 -0.052614026 1.4193483e-38 347 284
0.033530746 0.68300003 -0.052691177 1.410345e-38 348 284
0.034728274 0.68300003 -0.052691177 1.4380395e-38 349 284
0.035978399 0.68400002 -0.05276832 1.4380758e-38 350 284
0.037286382 0.68599999 -0.05292261 1.3827584e-38 351 284
0.03848917 0.68599999 -0.05292261 1.4193849e-38 352 284
0.039749816 0.68699998 -0.052999757 1.4193849e-38 353 284
0.040954359 0.68699998 -0.052999757 1.4011606e-38 354 284
0.042158898 0.68699998 -0.052999757 1.4011606e-38 355 284
0.043426562 0.68800002 -0.053076908 1.4284594e-38 356 284
0.0447626 0.69 -0.053231198 1.4100563e-38 357 284
0.046039023 0.69099998 -0.053308345 1.4376074e-38 358 284
0.047387339 0.69300002 -0.053462639 1.4468269e-38 359 284
0.048672531 0.69400001 -0.053539783 1.419313e-38 360 284
0.050105009 0.69700003 -0.053771228 1.4285326e-38 361 284
0.051400717 0.69800001 -0.053848371 1.4378607e-38 362 284
0.052775331 0.69999999 -0.054002665 1.4747748e-38 363 284
0.054002665 0.69999999 -0.054002665 1.4107418e-38 364 284
0.055308893 0.70099998 -0.054079808 1.4107418e-38 365 284
0.056537982 0.70099998 -0.054079808 1.401522e-38 366 284
0.057931885 0.70300001 -0.054234106 1.401522e-38 367 284
0.059248637 0.704 -0.054311249 1.4380045e-38 368 284
0.060654808 0.70599997 -0.054465543 1.4195295e-38 369 284
0.061980337 0.70700002 -0.054542694 1.4286768e-38 370 284
0.063309364 0.708 -0.054619838 1.4286768e-38 371 284
0.064733058 0.70999998 -0.054774132 1.4285679e-38 372 284
0.066070862 0.71100003 -0.054851279 1.4561905e-38 373 284
0.067506835 0.713 -0.055005573 1.4656254e-38 374 284
0.068853401 0.71399999 -0.05508272 1.4932839e-38 375 284
0.070301652 0.71600002 -0.055237014 1.4932483e-38 376 284
0.071557038 0.71600002 -0.055237014 1.4748452e-38 377 284
0.072812423 0.71600002 -0.055237014 1.4379313e-38 378 284
0.07417126 0.71700001 -0.055314157 1.6315422e-38 379 284
0.075428396 0.71700001 -0.055314157 1.9358584e-38 380 284
-0.060342718 0.71700001 -0.056571297 1.6946033e-38 272 285
-0.059003171 0.71600002 -0.056492399 1.8789944e-38 273 285
-0.057586476 0.71399999 -0.0563346 1.8520561e-38 274 285
-0.056255698 0.713 -0.056255698 1.8243974e-38 275 285
-0.054774132 0.70999998 -0.056018997 1.7876985e-38 276 285
-0.053378478 0.708 -0.055861197 1.7969182e-38 277 285
-0.051989835 0.70599997 -0.055703394 1.778587e-38 278 285
-0.050536323 0.70300001 -0.0554667 1.778587e-38 279 285
-0.049163464 0.70099998 -0.055308893 1.7694037e-38 280 285
-0.047729239 0.69800001 -0.0550722 1.7510005e-38 281 285
-0.046438783 0.69700003 -0.054993302 1.732706e-38 282 285
-0.045151837 0.69599998 -0.054914396 1.7972429e-38 283 285
-0.043615919 0.69099998 -0.054519895 1.7697634e-38 284 285
-0.042342998 0.69 -0.054440998 1.6867872e-38 285 285
-0.041013971 0.68800002 -0.054283202 1.7510711e-38 286 285
-0.039807681 0.68800002 -0.054283202 1.7510711e-38 287 285
-0.038545277 0.68699998 -0.054204296 1.7599674e-38 288 285
-0.037123326 0.68300003 -0.053888701 1.7323446e-38 289 285
-0.035767999 0.68000001 -0.053652 1.7415655e-38 290 285
-0.034474038 0.67799997 -0.053494196 1.750821e-38 291 285
-0.033187091 0.676 -0.053336397 1.7417103e-38 292 285
-0.031954501 0.67500001 -0.053257499 1.8062472e-38 293 285
-0.030725412 0.67400002 -0.053178601 1.7973161e-38 294 285
-0.029412165 0.671 -0.052941896 1.7696934e-38 295 285
-0.028193599 0.67000002 -0.052863002 1.7239549e-38 296 285
-0.026897885 0.667 -0.052626297 1.7331744e-38 297 285
-0.02568984 0.66600001 -0.052547399 1.7238102e-38 298 285
-0.024411658 0.66299999 -0.052310698 1.6223952e-38 299 285
-0.0232492 0.66299999 -0.052310698 1.732526e-38 300 285
-0.022053426 0.662 -0.0522318 1.732526e-38 301 285
-0.02086116 0.66100001 -0.052152898 1.7233418e-38 302 285
-0.019642593 0.65899998 -0.051995095 1.7140864e-38 303 285
-0.018459093 0.65799999 -0.051916201 1.7048668e-38 304 285
-0.017226499 0.65499997 -0.051679496 1.7140864e-38 305 285
-0.01605352 0.65399998 -0.051600594 1.6867156e-38 306 285
-0.014861252 0.65200001 -0.051442798 1.6774961e-38 307 285
-0.013675999 0.64999998 -0.051284995 1.6774608e-38 308 285
-0.012536332 0.64999998 -0.051284995 1.6958999e-38 309 285
-0.011379133 0.64899999 -0.051206097 1.5858775e-38 310 285
-0.01024122 0.64899999 -0.051206097 1.5213764e-38 311 285
-0.0091033066 0.64899999 -0.051206097 1.5028298e-38 312 285
-0.0079776663 0.64999998 -0.051284995 1.4290733e-38 313 285
-0.0068379994 0.64999998 -0.051284995 1.5023614e-38 314 285
-0.005698333 0.64999998 -0.051284995 1.4286047e-38 315 285
-0.0045726933 0.65200001 -0.051442798 1.3733947e-38 316 285
-0.0034295199 0.65200001 -0.051442798 1.3918338e-38 317 285
-0.0022898533 0.653 -0.0515217 1.4931411e-38 318 285
-0.00114668 0.65399998 -0.051600594 1.4839215e-38 319 285
0 0.65399998 -0.051600594 1.4559389e-38 320 285
0.0011484332 0.65499997 -0.051679496 1.4651584e-38 321 285
0.0022968664 0.65499997 -0.051679496 1.4744502e-38 322 285
0.0034558198 0.65700001 -0.051837299 1.4836699e-38 323 285
0.0046077599 0.65700001 -0.051837299 1.4561203e-38 324 285
0.0057684663 0.65799999 -0.051916201 1.4561203e-38 325 285
0.0069326796 0.65899998 -0.051995095 1.447009e-38 326 285
0.0080881258 0.65899998 -0.051995095 1.4838512e-38 327 285
0.0092716264 0.66100001 -0.052152898 1.4382207e-38 328 285
0.01043058 0.66100001 -0.052152898 1.4474403e-38 329 285
0.011607066 0.662 -0.0522318 1.4382929e-38 330 285
0.012787059 0.66299999 -0.052310698 1.4382929e-38 331 285
0.013970559 0.66399997 -0.052389596 1.4382926e-38 332 285
0.01518036 0.66600001 -0.052547399 1.429073e-38 333 285
0.016372627 0.667 -0.052626297 1.4472957e-38 334 285
0.017568398 0.66799998 -0.052705199 1.401198e-38 335 285
0.018795732 0.67000002 -0.052863002 1.4468641e-38 336 285
0.020000271 0.671 -0.052941896 1.4468641e-38 337 285
0.021176759 0.671 -0.052941896 1.4285323e-38 338 285
0.022386558 0.67199999 -0.053020798 1.4100932e-38 339 285
0.023634933 0.67400002 -0.053178601 1.4376795e-38 340 285
0.0248535 0.67500001 -0.053257499 1.4376795e-38 341 285
0.026075572 0.676 -0.053336397 1.4194202e-38 342 285
0.027341479 0.67799997 -0.053494196 1.4286398e-38 343 285
0.028572321 0.67900002 -0.053573098 1.4287116e-38 344 285
0.029806666 0.68000001 -0.053652 1.4103085e-38 345 285
0.031090107 0.68199998 -0.053809796 1.4103083e-38 346 285
0.032333218 0.68300003 -0.053888701 1.4287114e-38 347 285
0.033530746 0.68300003 -0.053888701 1.3921209e-38 348 285
0.03477912 0.68400002 -0.053967599 1.4013405e-38 349 285
0.036083598 0.68599999 -0.054125395 1.4105969e-38 350 285
0.037340738 0.68699998 -0.054204296 1.3552795e-38 351 285
0.038545277 0.68699998 -0.054204296 1.3825789e-38 352 285
0.039749816 0.68699998 -0.054204296 1.3917985e-38 353 285
0.040954359 0.68699998 -0.054204296 1.3918335e-38 354 285
0.042220265 0.68800002 -0.054283202 1.4010531e-38 355 285
0.043426562 0.68800002 -0.054283202 1.4284594e-38 356 285
0.0447626 0.69 -0.054440998 1.4100563e-38 357 285
0.046039023 0.69099998 -0.054519895 1.42846e-38 358 285
0.047387339 0.69300002 -0.054677699 1.42846e-38 359 285
0.048672531 0.69400001 -0.054756597 1.4101653e-38 360 285
0.050176892 0.69800001 -0.0550722 1.4286044e-38 361 285
0.051400717 0.69800001 -0.0550722 1.4195651e-38 362 285
0.052775331 0.69999999 -0.055229999 1.4564073e-38 363 285
0.054079808 0.70099998 -0.055308893 1.3831907e-38 364 285
0.055308893 0.70099998 -0.055308893 1.3924103e-38 365 285
0.056699295 0.70300001 -0.0554667 1.3831907e-38 366 285
0.058014292 0.704 -0.055545598 1.373971e-38 367 285
0.059416957 0.70599997 -0.055703394 1.419637e-38 368 285
0.060654808 0.70599997 -0.055703394 1.3919784e-38 369 285
0.062068 0.708 -0.055861197 1.4195648e-38 370 285
0.063488193 0.70999998 -0.056018997 1.4103452e-38 371 285
0.064824238 0.71100003 -0.056097899 1.4378593e-38 372 285
0.066070862 0.71100003 -0.056097899 1.4747017e-38 373 285
0.067601517 0.71399999 -0.0563346 1.5392023e-38 374 285
0.068853401 0.71399999 -0.0563346 1.5576415e-38 375 285
0.070301652 0.71600002 -0.056492399 1.5391658e-38 376 285
0.071557038 0.71600002 -0.056492399 1.4561537e-38 377 285
0.072914116 0.71700001 -0.056571297 1.4280982e-38 378 285
0.07417126 0.71700001 -0.056571297 1.6770624e-38 379 285
-0.0563346 0.71399999 -0.057586476 1.824001e-38 275 286
-0.054851279 0.71100003 -0.057344519 1.8060659e-38 276 286
-0.053378478 0.708 -0.057102561 1.8521636e-38 277 286
-0.05206348 0.70700002 -0.057021905 1.7878066e-38 278 286
-0.050608214 0.704 -0.056779943 1.7693673e-38 279 286
-0.049303733 0.70300001 -0.056699295 1.7876985e-38 280 286
-0.047865998 0.69999999 -0.056457333 1.7692954e-38 281 286
-0.046505414 0.69800001 -0.056296028 1.7602924e-38 282 286
-0.045216713 0.69700003 -0.056215372 1.8248293e-38 283 286
-0.043742158 0.69300002 -0.055892758 1.7698353e-38 284 286
-0.042404365 0.69099998 -0.055731449 1.6500169e-38 285 286
-0.041013971 0.68800002 -0.055489492 1.7600756e-38 286 286
-0.039749816 0.68699998 -0.055408835 1.7600756e-38 287 286
-0.03848917 0.68599999 -0.055328183 1.7324166e-38 288 286
-0.037123326 0.68300003 -0.055086225 1.7047579e-38 289 286
-0.035873197 0.68199998 -0.055005573 1.741529e-38 290 286
-0.034524884 0.67900002 -0.054763615 1.7599321e-38 291 286
-0.033285279 0.67799997 -0.054682959 1.7417456e-38 292 286
-0.031954501 0.67500001 -0.054441001 1.7878434e-38 293 286
-0.030725412 0.67400002 -0.054360349 1.7882397e-38 294 286
-0.029412165 0.671 -0.054118387 1.7698006e-38 295 286
-0.028193599 0.67000002 -0.054037735 1.7239546e-38 296 286
-0.026897885 0.667 -0.05379577 1.7239546e-38 297 286
-0.02568984 0.66600001 -0.053715117 1.7054434e-38 298 286
-0.024448479 0.66399997 -0.053553808 1.6224674e-38 299 286
-0.0232492 0.66299999 -0.053473156 1.7508576e-38 300 286
-0.022053426 0.662 -0.053392503 1.7508576e-38 301 286
-0.02086116 0.66100001 -0.053311851 1.7233781e-38 302 286
-0.019702207 0.66100001 -0.053311851 1.704975e-38 303 286
-0.018487146 0.65899998 -0.053150542 1.6957551e-38 304 286
-0.0172791 0.65700001 -0.052989237 1.6957551e-38 305 286
-0.016078066 0.65499997 -0.052827932 1.704975e-38 306 286
-0.014861252 0.65200001 -0.052585974 1.7233781e-38 307 286
-0.013675999 0.64999998 -0.052424666 1.6498741e-38 308 286
-0.012536332 0.64999998 -0.052424666 1.6775326e-38 309 286
-0.011396666 0.64999998 -0.052424666 1.5950255e-38 310 286
-0.010256999 0.64999998 -0.052424666 1.5304885e-38 311 286
-0.0091173323 0.64999998 -0.052424666 1.4569122e-38 312 286
-0.0079776663 0.64999998 -0.052424666 1.3831557e-38 313 286
-0.0068379994 0.64999998 -0.052424666 1.4380764e-38 314 286
-0.0057158666 0.65200001 -0.052585974 1.364284e-38 315 286
-0.0045726933 0.65200001 -0.052585974 1.3274771e-38 316 286
-0.0034347798 0.653 -0.052666627 1.3735389e-38 317 286
-0.0022898533 0.653 -0.052666627 1.5023965e-38 318 286
-0.00114668 0.65399998 -0.052747279 1.4931411e-38 319 286
0 0.65499997 -0.052827932 1.4558673e-38 320 286
0.0011484332 0.65499997 -0.052827932 1.4834899e-38 321 286
0.0023038799 0.65700001 -0.052989237 1.4744502e-38 322 286
0.0034558198 0.65700001 -0.052989237 1.4928894e-38 323 286
0.0046147732 0.65799999 -0.05306989 1.4561559e-38 324 286
0.0057684663 0.65799999 -0.05306989 1.4561559e-38 325 286
0.0069326796 0.65899998 -0.053150542 1.4470806e-38 326 286
0.0081126727 0.66100001 -0.053311851 1.4747751e-38 327 286
0.0092716264 0.66100001 -0.053311851 1.4383282e-38 328 286
0.01044636 0.662 -0.053392503 1.4383282e-38 329 286
0.0116246 0.66299999 -0.053473156 1.4291812e-38 330 286
0.012806346 0.66399997 -0.053553808 1.4291812e-38 331 286
0.014012639 0.66600001 -0.053715117 1.4199617e-38 332 286
0.01518036 0.66600001 -0.053715117 1.4107062e-38 333 286
0.016372627 0.667 -0.05379577 1.4197093e-38 334 286
0.017568398 0.66799998 -0.053876422 1.3920506e-38 335 286
0.018823786 0.671 -0.054118387 1.4469004e-38 336 286
0.020000271 0.671 -0.054118387 1.4469004e-38 337 286
0.021208318 0.67199999 -0.054199036 1.4286044e-38 338 286
0.022453187 0.67400002 -0.054360349 1.4101653e-38 339 286
0.023669999 0.67500001 -0.054441001 1.4376076e-38 340 286
0.024890319 0.676 -0.054521654 1.4376076e-38 341 286
0.026152719 0.67799997 -0.054682959 1.4194202e-38 342 286
0.027341479 0.67799997 -0.054682959 1.4378593e-38 343 286
0.028614398 0.68000001 -0.054844268 1.4103804e-38 344 286
0.029894331 0.68199998 -0.055005573 1.4103804e-38 345 286
0.031090107 0.68199998 -0.055005573 1.401125e-38 346 286
0.032333218 0.68300003 -0.055086225 1.401125e-38 347 286
0.033579841 0.68400002 -0.055166878 1.4012336e-38 348 286
0.03477912 0.68400002 -0.055166878 1.4196367e-38 349 286
0.036083598 0.68599999 -0.055328183 1.3829387e-38 350 286
0.037340738 0.68699998 -0.055408835 1.3552798e-38 351 286
0.038545277 0.68699998 -0.055408835 1.3917266e-38 352 286
0.039749816 0.68699998 -0.055408835 1.4101297e-38 353 286
0.041013971 0.68800002 -0.055489492 1.4193846e-38 354 286
0.042220265 0.68800002 -0.055489492 1.4193846e-38 355 286
0.043552797 0.69 -0.055650797 1.4102004e-38 356 286
0.044827472 0.69099998 -0.055731449 1.3733221e-38 357 286
0.04617228 0.69300002 -0.055892758 1.4191681e-38 358 286
0.047455717 0.69400001 -0.055973411 1.4468269e-38 359 286
0.048882935 0.69700003 -0.056215372 1.4100932e-38 360 286
0.050176892 0.69800001 -0.056296028 1.4285323e-38 361 286
0.051547997 0.69999999 -0.056457333 1.382831e-38 362 286
0.052775331 0.69999999 -0.056457333 1.4197093e-38 363 286
0.054079808 0.70099998 -0.056537982 1.3647878e-38 364 286
0.0554667 0.70300001 -0.056699295 1.3740075e-38 365 286
0.056699295 0.70300001 -0.056699295 1.3923025e-38 366 286
0.058014292 0.704 -0.056779943 1.3923025e-38 367 286
0.059416957 0.70599997 -0.056941248 1.4196014e-38 368 286
0.060740728 0.70700002 -0.057021905 1.4011983e-38 369 286
0.062068 0.708 -0.057102561 1.4287844e-38 370 286
0.063488193 0.70999998 -0.057263866 1.456407e-38 371 286
0.064824238 0.71100003 -0.057344519 1.456478e-38 372 286
0.066256717 0.713 -0.057505824 1.4103801e-38 373 286
0.067601517 0.71399999 -0.057586476 1.5017843e-38 374 286
0.068853401 0.71399999 -0.057586476 1.4465028e-38 375 286
-0.054851279 0.71100003 -0.058591139 1.7964509e-38 276 287
-0.053529263 0.70999998 -0.058508728 1.879463e-38 277 287
-0.05206348 0.70700002 -0.05826151 1.7877715e-38 278 287
-0.050751984 0.70599997 -0.058179103 1.7600768e-38 279 287
-0.049373865 0.704 -0.058014292 1.769332e-38 280 287
-0.047934376 0.70099998 -0.057767071 1.7601124e-38 281 287
-0.046505414 0.69800001 -0.057519849 1.7511091e-38 282 287
-0.045216713 0.69700003 -0.05743745 1.815646e-38 283 287
-0.043742158 0.69300002 -0.057107817 1.7606161e-38 284 287
-0.042404365 0.69099998 -0.056942999 1.6592009e-38 285 287
-0.041013971 0.68800002 -0.056695789 1.7600756e-38 286 287
-0.039749816 0.68699998 -0.056613375 1.7692951e-38 287 287
-0.03848917 0.68599999 -0.056530971 1.7599311e-38 288 287
-0.037123326 0.68300003 -0.056283753 1.7322364e-38 289 287
-0.035873197 0.68199998 -0.056201346 1.7416009e-38 290 287
-0.034524884 0.67900002 -0.055954125 1.7508204e-38 291 287
-0.033285279 0.67799997 -0.055871718 1.7233062e-38 292 287
-0.032001842 0.676 -0.055706903 1.769404e-38 293 287
-0.030725412 0.67400002 -0.055542093 1.7698003e-38 294 287
-0.029455997 0.67199999 -0.055377278 1.7421775e-38 295 287
-0.028235679 0.671 -0.055294871 1.714735e-38 296 287
-0.026938211 0.66799998 -0.05504765 1.714735e-38 297 287
-0.025728412 0.667 -0.054965243 1.7146986e-38 298 287
-0.024448479 0.66399997 -0.054718021 1.6501616e-38 299 287
-0.023284266 0.66399997 -0.054718021 1.7325982e-38 300 287
-0.022053426 0.662 -0.054553211 1.7049397e-38 301 287
-0.02086116 0.66100001 -0.054470807 1.704975e-38 302 287
-0.019702207 0.66100001 -0.054470807 1.6957554e-38 303 287
-0.018487146 0.65899998 -0.054305989 1.7048668e-38 304 287
-0.0172791 0.65700001 -0.054141179 1.7233418e-38 305 287
-0.016078066 0.65499997 -0.053976361 1.68668e-38 306 287
-0.014861252 0.65200001 -0.053729147 1.6774605e-38 307 287
-0.01371808 0.65200001 -0.053729147 1.695792e-38 308 287
-0.012574906 0.65200001 -0.053729147 1.7050115e-38 309 287
-0.011431733 0.65200001 -0.053729147 1.6408712e-38 310 287
-0.010256999 0.64999998 -0.053564329 1.5763342e-38 311 287
-0.0091173323 0.64999998 -0.053564329 1.5027942e-38 312 287
-0.0079776663 0.64999998 -0.053564329 1.4014149e-38 313 287
-0.0068590399 0.65200001 -0.053729147 1.4838868e-38 314 287
-0.0057158666 0.65200001 -0.053729147 1.3824717e-38 315 287
-0.0045797066 0.653 -0.05381155 1.2722316e-38 316 287
-0.0034347798 0.653 -0.05381155 1.3367685e-38 317 287
-0.0022898533 0.653 -0.05381155 1.493213e-38 318 287
-0.00114668 0.65399998 -0.053893957 1.4655903e-38 319 287
0 0.65499997 -0.053976361 1.4467193e-38 320 287
0.0011484332 0.65499997 -0.053976361 1.4651584e-38 321 287
0.0023038799 0.65700001 -0.054141179 1.4744502e-38 322 287
0.0034610799 0.65799999 -0.054223582 1.4836699e-38 323 287
0.0046147732 0.65799999 -0.054223582 1.4470087e-38 324 287
0.0057772328 0.65899998 -0.054305989 1.4377891e-38 325 287
0.00695372 0.66100001 -0.054470807 1.4287496e-38 326 287
0.0081126727 0.66100001 -0.054470807 1.4655919e-38 327 287
0.009285653 0.662 -0.054553211 1.429073e-38 328 287
0.01044636 0.662 -0.054553211 1.4475122e-38 329 287
0.011642133 0.66399997 -0.054718021 1.4475127e-38 330 287
0.01284492 0.66600001 -0.054882839 1.4475127e-38 331 287
0.014012639 0.66600001 -0.054882839 1.4199614e-38 332 287
0.015203152 0.667 -0.054965243 1.4107418e-38 333 287
0.016397171 0.66799998 -0.05504765 1.4380761e-38 334 287
0.017620999 0.67000002 -0.055212468 1.401198e-38 335 287
0.018823786 0.671 -0.055294871 1.4285328e-38 336 287
0.020030079 0.67199999 -0.055377278 1.446936e-38 337 287
0.021208318 0.67199999 -0.055377278 1.4285323e-38 338 287
0.022453187 0.67400002 -0.055542093 1.4100932e-38 339 287
0.023669999 0.67500001 -0.0556245 1.42846e-38 340 287
0.024890319 0.676 -0.055706903 1.4376795e-38 341 287
0.026152719 0.67799997 -0.055871718 1.4010534e-38 342 287
0.027381808 0.67900002 -0.055954125 1.4286762e-38 343 287
0.028614398 0.68000001 -0.056036532 1.410345e-38 344 287
0.029894331 0.68199998 -0.056201346 1.4011253e-38 345 287
0.031135695 0.68300003 -0.056283753 1.3735742e-38 346 287
0.032380559 0.68400002 -0.056366164 1.3827938e-38 347 287
0.033678025 0.68599999 -0.056530971 1.3644992e-38 348 287
0.034880809 0.68599999 -0.056530971 1.3829742e-38 349 287
0.036136195 0.68699998 -0.056613375 1.4012699e-38 350 287
0.037340738 0.68699998 -0.056613375 1.373611e-38 351 287
0.038545277 0.68699998 -0.056613375 1.3825789e-38 352 287
0.039807681 0.68800002 -0.056695789 1.3733594e-38 353 287
0.041013971 0.68800002 -0.056695789 1.3918338e-38 354 287
0.042342998 0.69 -0.0568606 1.3918338e-38 355 287
0.043552797 0.69 -0.0568606 1.4009089e-38 356 287
0.044957221 0.69300002 -0.057107817 1.3824338e-38 357 287
0.046238903 0.69400001 -0.057190225 1.391582e-38 358 287
0.047455717 0.69400001 -0.057190225 1.4008017e-38 359 287
0.048882935 0.69700003 -0.05743745 1.4100578e-38 360 287
0.050176892 0.69800001 -0.057519849 1.4285328e-38 361 287
0.051547997 0.69999999 -0.05768466 1.3737194e-38 362 287
0.052775331 0.69999999 -0.05768466 1.401342e-38 363 287
0.054234106 0.70300001 -0.057931885 1.3647159e-38 364 287
0.0554667 0.70300001 -0.057931885 1.3647159e-38 365 287
0.056779943 0.704 -0.058014292 1.3739354e-38 366 287
0.058014292 0.704 -0.058014292 1.3554963e-38 367 287
0.059416957 0.70599997 -0.058179103 1.3920506e-38 368 287
0.060826641 0.708 -0.058343921 1.3920506e-38 369 287
0.062243331 0.70999998 -0.058508728 1.474702e-38 370 287
0.063577622 0.71100003 -0.058591139 1.4562989e-38 371 287
-0.052137118 0.708 -0.059585281 1.7783352e-38 278 288
-0.050823875 0.70700002 -0.059501119 1.8243971e-38 279 288
-0.04951413 0.70599997 -0.059416957 1.7692601e-38 280 288
-0.048071139 0.70300001 -0.059164476 1.7692601e-38 281 288
-0.046638668 0.69999999 -0.058911994 1.732706e-38 282 288
-0.045216713 0.69700003 -0.05865952 1.7880232e-38 283 288
-0.043742158 0.69300002 -0.058322877 1.7605805e-38 284 288
-0.042404365 0.69099998 -0.058154557 1.6499816e-38 285 288
-0.041013971 0.68800002 -0.057902083 1.7691875e-38 286 288
-0.039807681 0.68800002 -0.057902083 1.7876266e-38 287 288
-0.038545277 0.68699998 -0.057817914 1.7323443e-38 288 288
-0.037177678 0.68400002 -0.057565439 1.6770271e-38 289 288
-0.035925802 0.68300003 -0.057481278 1.7506758e-38 290 288
-0.034575731 0.68000001 -0.057228796 1.7783346e-38 291 288
-0.033334374 0.67900002 -0.057144642 1.7325258e-38 292 288
-0.032001842 0.676 -0.056892153 1.7510008e-38 293 288
-0.030771 0.67500001 -0.056808002 1.7329579e-38 294 288
-0.029543666 0.67400002 -0.056723841 1.7421775e-38 295 288
-0.028235679 0.671 -0.056471359 1.7146986e-38 296 288
-0.027018867 0.67000002 -0.056387197 1.7146986e-38 297 288
-0.025766984 0.66799998 -0.056218877 1.7329579e-38 298 288
-0.02452212 0.66600001 -0.056050558 1.668421e-38 299 288
-0.023284266 0.66399997 -0.055882234 1.7232709e-38 300 288
-0.022053426 0.662 -0.055713918 1.7325263e-38 301 288
-0.020892721 0.662 -0.055713918 1.7049747e-38 302 288
-0.019702207 0.66100001 -0.05562976 1.6865356e-38 303 288
-0.018487146 0.65899998 -0.055461437 1.7048304e-38 304 288
-0.017305398 0.65799999 -0.055377278 1.7232696e-38 305 288
-0.016078066 0.65499997 -0.055124797 1.723486e-38 306 288
-0.014906839 0.65399998 -0.055040635 1.7050469e-38 307 288
-0.01371808 0.65200001 -0.054872319 1.658949e-38 308 288
-0.012574906 0.65200001 -0.054872319 1.6681688e-38 309 288
-0.011431733 0.65200001 -0.054872319 1.6683131e-38 310 288
-0.01028856 0.65200001 -0.054872319 1.6222153e-38 311 288
-0.0091453865 0.65200001 -0.054872319 1.5119049e-38 312 288
-0.0080022132 0.65200001 -0.054872319 1.4104897e-38 313 288
-0.0068590399 0.65200001 -0.054872319 1.5021461e-38 314 288
-0.0057158666 0.65200001 -0.054872319 1.3915114e-38 315 288
-0.0045867199 0.65399998 -0.055040635 1.2721963e-38 316 288
-0.0034400397 0.65399998 -0.055040635 1.3459528e-38 317 288
-0.00229336 0.65399998 -0.055040635 1.4656625e-38 318 288
-0.0011484332 0.65499997 -0.055124797 1.4380039e-38 319 288
0 0.65499997 -0.055124797 1.4284244e-38 320 288
0.00115194 0.65700001 -0.055293117 1.4468994e-38 321 288
0.0023073866 0.65799999 -0.055377278 1.4561189e-38 322 288
0.0034610799 0.65799999 -0.055377278 1.4653386e-38 323 288
0.0046217865 0.65899998 -0.055461437 1.4470443e-38 324 288
0.0057947668 0.66100001 -0.05562976 1.4470443e-38 325 288
0.00695372 0.66100001 -0.05562976 1.4287493e-38 326 288
0.0081126727 0.66100001 -0.05562976 1.4655916e-38 327 288
0.009285653 0.662 -0.055713918 1.429073e-38 328 288
0.01046214 0.66299999 -0.055798076 1.4382926e-38 329 288
0.011642133 0.66399997 -0.055882234 1.4475124e-38 330 288
0.01284492 0.66600001 -0.056050558 1.4475124e-38 331 288
0.014033679 0.667 -0.056134716 1.4475124e-38 332 288
0.015203152 0.667 -0.056134716 1.4382929e-38 333 288
0.016446266 0.67000002 -0.056387197 1.4196014e-38 334 288
0.017620999 0.67000002 -0.056387197 1.3919787e-38 335 288
0.018823786 0.671 -0.056471359 1.4286047e-38 336 288
0.020030079 0.67199999 -0.056555521 1.4286047e-38 337 288
0.021208318 0.67199999 -0.056555521 1.4193846e-38 338 288
0.022453187 0.67400002 -0.056723841 1.3825424e-38 339 288
0.023669999 0.67500001 -0.056808002 1.4376076e-38 340 288
0.024963958 0.67799997 -0.057060476 1.4468272e-38 341 288
0.026191294 0.67900002 -0.057144642 1.4286398e-38 342 288
0.027422134 0.68000001 -0.057228796 1.4378593e-38 343 288
0.02869856 0.68199998 -0.05739712 1.3920133e-38 344 288
0.029938167 0.68300003 -0.057481278 1.3827938e-38 345 288
0.031135695 0.68300003 -0.057481278 1.3919054e-38 346 288
0.032380559 0.68400002 -0.057565439 1.401125e-38 347 288
0.033678025 0.68599999 -0.057733759 1.3828308e-38 348 288
0.034880809 0.68599999 -0.057733759 1.3920503e-38 349 288
0.036136195 0.68699998 -0.057817914 1.3829387e-38 350 288
0.037340738 0.68699998 -0.057817914 1.3644995e-38 351 288
0.038601387 0.68800002 -0.057902083 1.4100934e-38 352 288
0.039807681 0.68800002 -0.057902083 1.4008739e-38 353 288
0.041013971 0.68800002 -0.057902083 1.3917619e-38 354 288
0.042342998 0.69 -0.058070395 1.4193846e-38 355 288
0.043615919 0.69099998 -0.058154557 1.3548833e-38 356 288
0.044957221 0.69300002 -0.058322877 1.3180051e-38 357 288
0.046238903 0.69400001 -0.058407038 1.4006215e-38 358 288
0.047592476 0.69599998 -0.058575355 1.4374997e-38 359 288
0.048953064 0.69800001 -0.058743682 1.4007664e-38 360 288
0.050320663 0.69999999 -0.058911994 1.4284249e-38 361 288
0.051547997 0.69999999 -0.058911994 1.3735757e-38 362 288
0.052850723 0.70099998 -0.058996156 1.4012704e-38 363 288
0.054234106 0.70300001 -0.059164476 1.3830471e-38 364 288
0.055545598 0.704 -0.059248637 1.4107418e-38 365 288
0.056779943 0.704 -0.059248637 1.4014499e-38 366 288
0.058179103 0.70599997 -0.059416957 1.3830108e-38 367 288
0.059416957 0.70599997 -0.059416957 1.4194202e-38 368 288
0.060826641 0.708 -0.059585281 1.3825421e-38 369 288
-0.050823875 0.70700002 -0.060740728 1.8239285e-38 279 289
-0.04951413 0.70599997 -0.060654808 1.7233062e-38 280 289
-0.048139516 0.704 -0.060482983 1.7325258e-38 281 289
-0.046705291 0.70099998 -0.060225245 1.7327779e-38 282 289
-0.045281585 0.69800001 -0.059967503 1.7788755e-38 283 289
-0.043742158 0.69300002 -0.05953794 1.7422128e-38 284 289
-0.042404365 0.69099998 -0.059366114 1.6407617e-38 285 289
-0.041013971 0.68800002 -0.059108373 1.7232696e-38 286 289
-0.039807681 0.68800002 -0.059108373 1.7416727e-38 287 289
-0.038545277 0.68699998 -0.059022456 1.7048654e-38 288 289
-0.037177678 0.68400002 -0.058764715 1.6495482e-38 289 289
-0.035925802 0.68300003 -0.05867881 1.7506042e-38 290 289
-0.034677424 0.68199998 -0.058592889 1.778227e-38 291 289
-0.033383466 0.68000001 -0.058421064 1.7049753e-38 292 289
-0.032143861 0.67900002 -0.058335152 1.7418175e-38 293 289
-0.030816587 0.676 -0.058077414 1.7237384e-38 294 289
-0.0295875 0.67500001 -0.057991501 1.7329579e-38 295 289
-0.02827776 0.67199999 -0.057733759 1.7330295e-38 296 289
-0.027018867 0.67000002 -0.057561934 1.72381e-38 297 289
-0.025766984 0.66799998 -0.057390101 1.7420693e-38 298 289
-0.02452212 0.66600001 -0.057218276 1.6499097e-38 299 289
-0.023354398 0.66600001 -0.057218276 1.7140869e-38 300 289
-0.022120051 0.66399997 -0.057046451 1.732526e-38 301 289
-0.020924279 0.66299999 -0.056960538 1.6958626e-38 302 289
-0.019732011 0.662 -0.056874625 1.6589844e-38 303 289
-0.018543253 0.66100001 -0.056788713 1.7048301e-38 304 289
-0.017305398 0.65799999 -0.056530971 1.7232693e-38 305 289
-0.01612716 0.65700001 -0.056445058 1.7235216e-38 306 289
-0.014929632 0.65499997 -0.056273226 1.695827e-38 307 289
-0.013760159 0.65399998 -0.056187313 1.6493695e-38 308 289
-0.012594193 0.653 -0.056101404 1.6125273e-38 309 289
-0.011431733 0.65200001 -0.056015491 1.6307866e-38 310 289
-0.01028856 0.65200001 -0.056015491 1.6215669e-38 311 289
-0.0091453865 0.65200001 -0.056015491 1.5021093e-38 312 289
-0.0080022132 0.65200001 -0.056015491 1.4191332e-38 313 289
-0.0068590399 0.65200001 -0.056015491 1.5201539e-38 314 289
-0.0057158666 0.65200001 -0.056015491 1.4463616e-38 315 289
-0.0045797066 0.653 -0.056101404 1.2905275e-38 316 289
-0.0034400397 0.65399998 -0.056187313 1.3735394e-38 317 289
-0.00229336 0.65399998 -0.056187313 1.4656622e-38 318 289
-0.0011484332 0.65499997 -0.056273226 1.4380395e-38 319 289
0 0.65700001 -0.056445058 1.4652659e-38 320 289
0.00115194 0.65700001 -0.056445058 1.4744855e-38 321 289
0.0023073866 0.65799999 -0.056530971 1.4561905e-38 322 289
0.0034663398 0.65899998 -0.056616884 1.4561905e-38 323 289
0.0046358132 0.66100001 -0.056788713 1.4470443e-38 324 289
0.0057947668 0.66100001 -0.056788713 1.4470443e-38 325 289
0.0069642398 0.662 -0.056874625 1.4379689e-38 326 289
0.0081249457 0.662 -0.056874625 1.4748472e-38 327 289
0.009285653 0.662 -0.056874625 1.4107418e-38 328 289
0.01046214 0.66299999 -0.056960538 1.4199614e-38 329 289
0.011677199 0.66600001 -0.057218276 1.4291456e-38 330 289
0.01284492 0.66600001 -0.057218276 1.4291456e-38 331 289
0.014033679 0.667 -0.057304189 1.4199617e-38 332 289
0.015225946 0.66799998 -0.057390101 1.4199617e-38 333 289
0.016446266 0.67000002 -0.057561934 1.419637e-38 334 289
0.0176473 0.671 -0.057647847 1.3827587e-38 335 289
0.018823786 0.671 -0.057647847 1.419313e-38 336 289
0.020030079 0.67199999 -0.057733759 1.4469357e-38 337 289
0.021271439 0.67400002 -0.057905588 1.4194202e-38 338 289
0.022486499 0.67500001 -0.057991501 1.3825421e-38 339 289
0.023705067 0.676 -0.058077414 1.4284597e-38 340 289
0.024963958 0.67799997 -0.058249239 1.4284597e-38 341 289
0.026229866 0.68000001 -0.058421064 1.4010887e-38 342 289
0.027422134 0.68000001 -0.058421064 1.4103083e-38 343 289
0.02869856 0.68199998 -0.058592889 1.4011606e-38 344 289
0.029938167 0.68300003 -0.05867881 1.4011606e-38 345 289
0.03118128 0.68400002 -0.058764715 1.3643546e-38 346 289
0.032380559 0.68400002 -0.058764715 1.3735742e-38 347 289
0.033678025 0.68599999 -0.058936544 1.3552798e-38 348 289
0.034880809 0.68599999 -0.058936544 1.3737191e-38 349 289
0.036136195 0.68699998 -0.059022456 1.3829389e-38 350 289
0.037340738 0.68699998 -0.059022456 1.3460247e-38 351 289
0.038601387 0.68800002 -0.059108373 1.4008383e-38 352 289
0.039807681 0.68800002 -0.059108373 1.3916187e-38 353 289
0.041133199 0.69 -0.059280202 1.3917622e-38 354 289
0.042404365 0.69099998 -0.059366114 1.4101653e-38 355 289
0.043742158 0.69300002 -0.05953794 1.3640309e-38 356 289
0.045022093 0.69400001 -0.059623852 1.3455918e-38 357 289
0.046438783 0.69700003 -0.05988159 1.4006934e-38 358 289
0.047729239 0.69800001 -0.059967503 1.4099129e-38 359 289
0.048953064 0.69800001 -0.059967503 1.391547e-38 360 289
0.050320663 0.69999999 -0.060139328 1.4283893e-38 361 289
0.051547997 0.69999999 -0.060139328 1.392015e-38 362 289
0.052850723 0.70099998 -0.060225245 1.41049e-38 363 289
0.054234106 0.70300001 -0.06039707 1.4012699e-38 364 289
0.055545598 0.704 -0.060482983 1.3920503e-38 365 289
0.056941248 0.70599997 -0.060654808 1.4100932e-38 366 289
0.058179103 0.70599997 -0.060654808 1.3547758e-38 367 289
0.059501119 0.70700002 -0.060740728 1.4004403e-38 368 289
-0.048139516 0.704 -0.061717331 1.787375e-38 281 290
-0.046838548 0.70300001 -0.061629668 1.7878431e-38 282 290
-0.04541133 0.69999999 -0.061366666 1.833941e-38 283 290
-0.043994639 0.69700003 -0.061103668 1.7513242e-38 284 290
-0.042527102 0.69300002 -0.060752999 1.6775677e-38 285 290
-0.041133199 0.69 -0.060489997 1.7232693e-38 286 290
-0.039807681 0.68800002 -0.060314666 1.7232693e-38 287 290
-0.038545277 0.68699998 -0.060226995 1.6865342e-38 288 290
-0.037286382 0.68599999 -0.060139328 1.6219972e-38 289 290
-0.035925802 0.68300003 -0.059876334 1.7322014e-38 290 290
-0.034677424 0.68199998 -0.059788663 1.7506405e-38 291 290
-0.033383466 0.68000001 -0.059613332 1.7140513e-38 292 290
-0.032143861 0.67900002 -0.059525665 1.7325263e-38 293 290
-0.030907756 0.67799997 -0.059437994 1.7512892e-38 294 290
-0.0295875 0.67500001 -0.059175 1.7512892e-38 295 290
-0.02827776 0.67199999 -0.058911994 1.7329576e-38 296 290
-0.027059194 0.671 -0.058824331 1.7145185e-38 297 290
-0.025844134 0.67000002 -0.058736663 1.7328497e-38 298 290
-0.024558939 0.667 -0.058473662 1.6499097e-38 299 290
-0.023389466 0.667 -0.058473662 1.7233065e-38 300 290
-0.02218668 0.66600001 -0.058385998 1.732526e-38 301 290
-0.020955838 0.66399997 -0.05821066 1.70501e-38 302 290
-0.019732011 0.662 -0.058035329 1.6773512e-38 303 290
-0.018543253 0.66100001 -0.057947662 1.7231613e-38 304 290
-0.0173843 0.66100001 -0.057947662 1.7416364e-38 305 290
-0.01612716 0.65700001 -0.057596996 1.732633e-38 306 290
-0.014929632 0.65499997 -0.057421666 1.6865353e-38 307 290
-0.013760159 0.65399998 -0.057333998 1.6031272e-38 308 290
-0.012613479 0.65399998 -0.057333998 1.5109676e-38 309 290
-0.011431733 0.65200001 -0.057158668 1.5565978e-38 310 290
-0.01028856 0.65200001 -0.057158668 1.5197555e-38 311 290
-0.0091453865 0.65200001 -0.057158668 1.4828413e-38 312 290
-0.0080022132 0.65200001 -0.057158668 1.4552186e-38 313 290
-0.0068695596 0.653 -0.057246335 1.4462157e-38 314 290
-0.0057246331 0.653 -0.057246335 1.4462157e-38 315 290
-0.0045797066 0.653 -0.057246335 1.3547761e-38 316 290
-0.0034400397 0.65399998 -0.057333998 1.4654108e-38 317 290
-0.00229336 0.65399998 -0.057333998 1.4656256e-38 318 290
-0.0011484332 0.65499997 -0.057421666 1.4379311e-38 319 290
0 0.65700001 -0.057596996 1.437643e-38 320 290
0.00115194 0.65700001 -0.057596996 1.4744852e-38 321 290
0.0023073866 0.65799999 -0.057684667 1.4286398e-38 322 290
0.0034663398 0.65899998 -0.057772331 1.4378593e-38 323 290
0.0046358132 0.66100001 -0.057947662 1.4470443e-38 324 290
0.0058035329 0.662 -0.058035329 1.4470443e-38 325 290
0.0069642398 0.662 -0.058035329 1.41049e-38 326 290
0.0081372196 0.66299999 -0.058122993 1.4381127e-38 327 290
