# .PCD v.7 - Point Cloud Data file format
FIELDS x y z rgb imX imY
SIZE 4 4 4 4 4 4
TYPE F F F F F F
COUNT 1 1 1 1 1 1
WIDTH 839
HEIGHT 1
VIEWPOINT 0 0 0 1 0 0 0
POINTS 839
DATA ascii
-0.021520413 0.722 -0.0075954394 1.8790546e-38 303 246
-0.020254506 0.722 -0.0075954394 1.851429e-38 304 246
-0.0189886 0.722 -0.0075954394 1.8422095e-38 305 246
-0.017722692 0.722 -0.0075954394 1.8973085e-38 306 246
-0.016456785 0.722 -0.0075954394 1.8973085e-38 307 246
-0.0151488 0.72000003 -0.0075743999 1.9431526e-38 308 246
-0.0138864 0.72000003 -0.0075743999 1.9431526e-38 309 246
-0.012624 0.72000003 -0.0075743999 1.9431498e-38 310 246
-0.011361601 0.72000003 -0.0075743999 1.9523693e-38 311 246
-0.010099201 0.72000003 -0.0075743999 2.0075756e-38 312 246
-0.0088613462 0.722 -0.0075954394 2.0075756e-38 313 246
-0.0075638802 0.71899998 -0.0075638802 2.0169012e-38 314 246
-0.0063032326 0.71899998 -0.0075638802 2.0076818e-38 315 246
-0.0050496003 0.72000003 -0.0075743999 1.9893864e-38 316 246
-0.0037872 0.72000003 -0.0075743999 1.9893864e-38 317 246
-0.0025318132 0.722 -0.0075954394 1.9618365e-38 318 246
-0.0012659066 0.722 -0.0075954394 1.9895312e-38 319 246
0 0.722 -0.0075954394 1.9710621e-38 320 246
0.0012659066 0.722 -0.0075954394 1.9802816e-38 321 246
0.0025318132 0.722 -0.0075954394 1.9251508e-38 322 246
0.0037977197 0.722 -0.0075954394 1.9712127e-38 323 246
0.0050636264 0.722 -0.0075954394 1.9163314e-38 324 246
0.0063295332 0.722 -0.0075954394 1.9716488e-38 325 246
0.0075954394 0.722 -0.0075954394 1.9995261e-38 326 246
0.0088736191 0.72299999 -0.0076059597 2.0732826e-38 327 246
-0.036558751 0.71899998 -0.0088245263 1.7661192e-38 291 247
-0.035347197 0.72000003 -0.0088367993 1.8489463e-38 292 247
-0.034084801 0.72000003 -0.0088367993 1.8673856e-38 293 247
-0.0328224 0.72000003 -0.0088367993 1.8505248e-38 294 247
-0.03156 0.72000003 -0.0088367993 1.905842e-38 295 247
-0.030381758 0.722 -0.0088613462 1.924638e-38 296 247
-0.029156178 0.72299999 -0.0088736191 1.9061989e-38 297 247
-0.02788852 0.72299999 -0.0088736191 1.8787534e-38 298 247
-0.026584039 0.722 -0.0088613462 1.8787534e-38 299 247
-0.025318133 0.722 -0.0088613462 1.9063758e-38 300 247
-0.024052227 0.722 -0.0088613462 1.934034e-38 301 247
-0.022786319 0.722 -0.0088613462 1.9155234e-38 302 247
-0.021460801 0.72000003 -0.0088367993 1.9155234e-38 303 247
-0.020198401 0.72000003 -0.0088367993 1.9339264e-38 304 247
-0.018935999 0.72000003 -0.0088367993 1.9615847e-38 305 247
-0.017649053 0.71899998 -0.0088245263 1.9891712e-38 306 247
-0.016388407 0.71899998 -0.0088245263 1.9799518e-38 307 247
-0.0151488 0.72000003 -0.0088367993 2.016686e-38 308 247
-0.0138864 0.72000003 -0.0088367993 2.0351248e-38 309 247
-0.012606465 0.71899998 -0.0088245263 2.0168653e-38 310 247
-0.01134582 0.71899998 -0.0088245263 2.0168653e-38 311 247
-0.010085173 0.71899998 -0.0088245263 2.0444519e-38 312 247
-0.0088245263 0.71899998 -0.0088245263 2.0536713e-38 313 247
-0.0075638802 0.71899998 -0.0088245263 2.0445236e-38 314 247
-0.0063032326 0.71899998 -0.0088245263 2.0445236e-38 315 247
-0.0050496003 0.72000003 -0.0088367993 2.0445236e-38 316 247
-0.0037872 0.72000003 -0.0088367993 2.0353042e-38 317 247
-0.0025248001 0.72000003 -0.0088367993 2.0169371e-38 318 247
-0.0012624001 0.72000003 -0.0088367993 1.9984982e-38 319 247
0 0.722 -0.0088613462 1.9892429e-38 320 247
0.0012659066 0.722 -0.0088613462 1.97084e-38 321 247
0.0025318132 0.722 -0.0088613462 1.9341058e-38 322 247
0.0037977197 0.722 -0.0088613462 1.9617646e-38 323 247
0.0050636264 0.722 -0.0088613462 1.8882661e-38 324 247
0.0063295332 0.722 -0.0088613462 1.952803e-38 325 247
0.0076059597 0.72299999 -0.0088736191 1.934659e-38 326 247
0.0088736191 0.72299999 -0.0088736191 2.0176351e-38 327 247
0.01014128 0.72299999 -0.0088736191 2.0362223e-38 328 247
-0.037871998 0.72000003 -0.010099201 1.8762092e-38 290 248
-0.036558751 0.71899998 -0.010085173 1.9130514e-38 291 248
-0.035298105 0.71899998 -0.010085173 1.9695541e-38 292 248
-0.03403746 0.71899998 -0.010085173 2.1355421e-38 293 248
-0.032776814 0.71899998 -0.010085173 2.0263426e-38 294 248
-0.031516165 0.71899998 -0.010085173 1.9710252e-38 295 248
-0.0302976 0.72000003 -0.010099201 2.0169021e-38 296 248
-0.029035201 0.72000003 -0.010099201 1.9984989e-38 297 248
-0.027849946 0.722 -0.010127253 2.0261924e-38 298 248
-0.026584039 0.722 -0.010127253 2.016973e-38 299 248
-0.025248 0.72000003 -0.010099201 2.0077177e-38 300 248
-0.023952285 0.71899998 -0.010085173 2.016973e-38 301 248
-0.022691639 0.71899998 -0.010085173 2.0353042e-38 302 248
-0.021460801 0.72000003 -0.010099201 2.0169012e-38 303 248
-0.020198401 0.72000003 -0.010099201 2.0351607e-38 304 248
-0.018909698 0.71899998 -0.010085173 2.0627831e-38 305 248
-0.017599959 0.71700001 -0.01005712 2.0720743e-38 306 248
-0.016342819 0.71700001 -0.01005712 2.0812937e-38 307 248
-0.01512776 0.71899998 -0.010085173 2.0996608e-38 308 248
-0.013867113 0.71899998 -0.010085173 2.0996608e-38 309 248
-0.012606465 0.71899998 -0.010085173 2.0812578e-38 310 248
-0.01134582 0.71899998 -0.010085173 2.0812578e-38 311 248
-0.01005712 0.71700001 -0.01005712 2.0629983e-38 312 248
-0.0087999795 0.71700001 -0.01005712 2.0629983e-38 313 248
-0.0075638802 0.71899998 -0.010085173 2.0629983e-38 314 248
-0.0063032326 0.71899998 -0.010085173 2.0537789e-38 315 248
-0.0050425865 0.71899998 -0.010085173 2.0261924e-38 316 248
-0.0037819401 0.71899998 -0.010085173 2.0261924e-38 317 248
-0.0025248001 0.72000003 -0.010099201 2.016973e-38 318 248
-0.0012624001 0.72000003 -0.010099201 2.016973e-38 319 248
0 0.72000003 -0.010099201 1.9893864e-38 320 248
0.0012624001 0.72000003 -0.010099201 1.980167e-38 321 248
0.0025248001 0.72000003 -0.010099201 1.9341416e-38 322 248
0.0037872 0.72000003 -0.010099201 1.9341416e-38 323 248
0.0050496003 0.72000003 -0.010099201 1.8881181e-38 324 248
0.0063295332 0.722 -0.010127253 1.8696431e-38 325 248
0.0075954394 0.722 -0.010127253 1.8604984e-38 326 248
0.0088613462 0.722 -0.010127253 1.8789375e-38 327 248
0.01014128 0.72299999 -0.01014128 1.8790151e-38 328 248
0.01140894 0.72299999 -0.01014128 1.9804663e-38 329 248
-0.039243106 0.722 -0.01139316 1.8310834e-38 289 249
-0.037871998 0.72000003 -0.011361601 1.8773944e-38 290 249
-0.036609601 0.72000003 -0.011361601 1.9327118e-38 291 249
-0.035298105 0.71899998 -0.01134582 1.9980378e-38 292 249
-0.03403746 0.71899998 -0.01134582 2.0717943e-38 293 249
-0.032776814 0.71899998 -0.01134582 2.0077904e-38 294 249
-0.031516165 0.71899998 -0.01134582 1.9985708e-38 295 249
-0.0302976 0.72000003 -0.011361601 2.0261924e-38 296 249
-0.029035201 0.72000003 -0.011361601 2.016973e-38 297 249
-0.027772799 0.72000003 -0.011361601 2.0353042e-38 298 249
-0.026510401 0.72000003 -0.011361601 2.0353042e-38 299 249
-0.025212931 0.71899998 -0.01134582 2.0445236e-38 300 249
-0.023952285 0.71899998 -0.01134582 2.0445236e-38 301 249
-0.022691639 0.71899998 -0.01134582 2.0537789e-38 302 249
-0.021430992 0.71899998 -0.01134582 2.0537789e-38 303 249
-0.020170346 0.71899998 -0.01134582 2.0721101e-38 304 249
-0.018909698 0.71899998 -0.01134582 2.0721101e-38 305 249
-0.017599959 0.71700001 -0.01131426 2.0812578e-38 306 249
-0.016342819 0.71700001 -0.01131426 2.0812578e-38 307 249
-0.015085679 0.71700001 -0.01131426 2.090549e-38 308 249
-0.013828539 0.71700001 -0.01131426 2.090549e-38 309 249
-0.0125714 0.71700001 -0.01131426 2.0904772e-38 310 249
-0.01131426 0.71700001 -0.01131426 2.0904772e-38 311 249
-0.01005712 0.71700001 -0.01131426 2.090549e-38 312 249
-0.0087999795 0.71700001 -0.01131426 2.090549e-38 313 249
-0.0075428397 0.71700001 -0.01131426 2.090549e-38 314 249
-0.0062857 0.71700001 -0.01131426 2.0813296e-38 315 249
-0.0050425865 0.71899998 -0.01134582 2.0537789e-38 316 249
-0.0037819401 0.71899998 -0.01134582 2.0445236e-38 317 249
-0.0025212932 0.71899998 -0.01134582 2.053743e-38 318 249
-0.0012606466 0.71899998 -0.01134582 2.0445236e-38 319 249
0 0.71899998 -0.01134582 2.0077177e-38 320 249
0.0012624001 0.72000003 -0.011361601 1.9892788e-38 321 249
0.0025248001 0.72000003 -0.011361601 1.9248505e-38 322 249
0.0037872 0.72000003 -0.011361601 1.9248505e-38 323 249
0.0050496003 0.72000003 -0.011361601 1.8880445e-38 324 249
0.0063120001 0.72000003 -0.011361601 1.8788251e-38 325 249
0.0075954394 0.722 -0.01139316 1.8880445e-38 326 249
0.0088613462 0.722 -0.01139316 1.8880445e-38 327 249
0.01014128 0.72299999 -0.01140894 1.8880475e-38 328 249
0.01140894 0.72299999 -0.01140894 1.9525844e-38 329 249
0.012676599 0.72299999 -0.01140894 1.9161474e-38 330 249
-0.040509012 0.722 -0.012659066 1.8964488e-38 288 250
-0.039243106 0.722 -0.012659066 1.8964488e-38 289 250
-0.0379772 0.722 -0.012659066 1.9612334e-38 290 250
-0.036609601 0.72000003 -0.012624 2.0442094e-38 291 250
-0.035347197 0.72000003 -0.012624 2.0262315e-38 292 250
-0.034084801 0.72000003 -0.012624 1.9801337e-38 293 250
-0.0328224 0.72000003 -0.012624 2.0261924e-38 294 250
-0.031516165 0.71899998 -0.012606465 2.0261924e-38 295 250
-0.030255521 0.71899998 -0.012606465 2.0170447e-38 296 250
-0.028994869 0.71899998 -0.012606465 2.0170447e-38 297 250
-0.027734226 0.71899998 -0.012606465 2.0170447e-38 298 250
-0.02647358 0.71899998 -0.012606465 2.0170447e-38 299 250
-0.0251428 0.71700001 -0.0125714 2.0537789e-38 300 250
-0.02388566 0.71700001 -0.0125714 2.0629983e-38 301 250
-0.02262852 0.71700001 -0.0125714 2.0629983e-38 302 250
-0.021430992 0.71899998 -0.012606465 2.0722177e-38 303 250
-0.020114239 0.71700001 -0.0125714 2.090549e-38 304 250
-0.018857099 0.71700001 -0.0125714 2.090549e-38 305 250
-0.017599959 0.71700001 -0.0125714 2.0904772e-38 306 250
-0.016320027 0.71600002 -0.012553867 2.0904772e-38 307 250
-0.01506464 0.71600002 -0.012553867 2.0904772e-38 308 250
-0.013809253 0.71600002 -0.012553867 2.0904772e-38 309 250
-0.012553867 0.71600002 -0.012553867 2.0904772e-38 310 250
-0.01129848 0.71600002 -0.012553867 2.0997325e-38 311 250
-0.010043093 0.71600002 -0.012553867 2.0905848e-38 312 250
-0.0087877065 0.71600002 -0.012553867 2.0905848e-38 313 250
-0.00753232 0.71600002 -0.012553867 2.0905848e-38 314 250
-0.0062857 0.71700001 -0.0125714 2.0905848e-38 315 250
-0.0050285598 0.71700001 -0.0125714 2.0722177e-38 316 250
-0.0037714199 0.71700001 -0.0125714 2.0629983e-38 317 250
-0.0025142799 0.71700001 -0.0125714 2.0262641e-38 318 250
-0.00125714 0.71700001 -0.0125714 2.0170447e-38 319 250
0 0.71700001 -0.0125714 1.9893864e-38 320 250
0.0012606466 0.71899998 -0.012606465 1.980167e-38 321 250
0.0025212932 0.71899998 -0.012606465 1.9248863e-38 322 250
0.0037819401 0.71899998 -0.012606465 1.9156669e-38 323 250
0.0050425865 0.71899998 -0.012606465 1.8880445e-38 324 250
0.0063032326 0.71899998 -0.012606465 1.8788251e-38 325 250
0.0075743999 0.72000003 -0.012624 1.8789327e-38 326 250
0.0088613462 0.722 -0.012659066 1.8973357e-38 327 250
0.010127253 0.722 -0.012659066 1.9341058e-38 328 250
0.01140894 0.72299999 -0.012676599 1.9341058e-38 329 250
0.012676599 0.72299999 -0.012676599 1.8420965e-38 330 250
-0.039243106 0.722 -0.013924973 1.9525944e-38 289 251
-0.037871998 0.72000003 -0.0138864 1.9985397e-38 290 251
-0.036609601 0.72000003 -0.0138864 1.9985397e-38 291 251
-0.035298105 0.71899998 -0.013867113 1.9986417e-38 292 251
-0.03403746 0.71899998 -0.013867113 1.9986417e-38 293 251
-0.032776814 0.71899998 -0.013867113 2.0170447e-38 294 251
-0.031428497 0.71700001 -0.013828539 2.0170447e-38 295 251
-0.030171359 0.71700001 -0.013828539 2.0261924e-38 296 251
-0.028873893 0.71600002 -0.013809253 2.0261924e-38 297 251
-0.027618507 0.71600002 -0.013809253 2.0261924e-38 298 251
-0.026363119 0.71600002 -0.013809253 2.0354118e-38 299 251
-0.025037598 0.71399999 -0.01377068 2.0538506e-38 300 251
-0.02378572 0.71399999 -0.01377068 2.0538506e-38 301 251
-0.022533838 0.71399999 -0.01377068 2.0630701e-38 302 251
-0.021341572 0.71600002 -0.013809253 2.0722895e-38 303 251
-0.020086186 0.71600002 -0.013809253 2.081473e-38 304 251
-0.0188308 0.71600002 -0.013809253 2.0722536e-38 305 251
-0.017575413 0.71600002 -0.013809253 2.0905848e-38 306 251
-0.016320027 0.71600002 -0.013809253 2.0905848e-38 307 251
-0.01506464 0.71600002 -0.013809253 2.0905848e-38 308 251
-0.01377068 0.71399999 -0.01377068 2.0905848e-38 309 251
-0.012518799 0.71399999 -0.01377068 2.0905848e-38 310 251
-0.01129848 0.71600002 -0.013809253 2.0905848e-38 311 251
-0.010043093 0.71600002 -0.013809253 2.0905848e-38 312 251
-0.0087877065 0.71600002 -0.013809253 2.0905848e-38 313 251
-0.00753232 0.71600002 -0.013809253 2.0722536e-38 314 251
-0.0062769335 0.71600002 -0.013809253 2.0722536e-38 315 251
-0.0050215465 0.71600002 -0.013809253 2.0538506e-38 316 251
-0.00376616 0.71600002 -0.013809253 2.0354477e-38 317 251
-0.0025107733 0.71600002 -0.013809253 2.0170447e-38 318 251
-0.0012553866 0.71600002 -0.013809253 1.9893864e-38 319 251
0 0.71600002 -0.013809253 1.9341416e-38 320 251
0.00125714 0.71700001 -0.013828539 1.9249222e-38 321 251
0.0025142799 0.71700001 -0.013828539 1.9155952e-38 322 251
0.0037714199 0.71700001 -0.013828539 1.9063399e-38 323 251
0.0050285598 0.71700001 -0.013828539 1.8696057e-38 324 251
0.0063032326 0.71899998 -0.013867113 1.8512027e-38 325 251
0.0075743999 0.72000003 -0.0138864 1.8788251e-38 326 251
0.0088367993 0.72000003 -0.0138864 1.8880445e-38 327 251
0.010127253 0.722 -0.013924973 1.9064116e-38 328 251
0.01139316 0.722 -0.013924973 1.9156311e-38 329 251
0.012659066 0.722 -0.013924973 1.8695715e-38 330 251
-0.040509012 0.722 -0.015190879 2.0452199e-38 288 252
-0.039134402 0.72000003 -0.0151488 1.916146e-38 289 252
-0.037871998 0.72000003 -0.0151488 1.9987154e-38 290 252
-0.036609601 0.72000003 -0.0151488 1.9710566e-38 291 252
-0.035298105 0.71899998 -0.01512776 2.0170447e-38 292 252
-0.03403746 0.71899998 -0.01512776 2.0170447e-38 293 252
-0.032685637 0.71700001 -0.015085679 2.0170447e-38 294 252
-0.031384666 0.71600002 -0.01506464 1.9986417e-38 295 252
-0.03012928 0.71600002 -0.01506464 2.0170447e-38 296 252
-0.028793238 0.71399999 -0.015022559 2.0262641e-38 297 252
-0.02754136 0.71399999 -0.015022559 2.0445236e-38 298 252
-0.026289478 0.71399999 -0.015022559 2.0537789e-38 299 252
-0.025002534 0.713 -0.015001519 2.0538506e-38 300 252
-0.023752406 0.713 -0.015001519 2.0538506e-38 301 252
-0.022502279 0.713 -0.015001519 2.0630701e-38 302 252
-0.021281958 0.71399999 -0.015022559 2.0722895e-38 303 252
-0.020002026 0.713 -0.015001519 2.081473e-38 304 252
-0.018751899 0.713 -0.015001519 2.081473e-38 305 252
-0.017501773 0.713 -0.015001519 2.0905848e-38 306 252
-0.016274439 0.71399999 -0.015022559 2.0998043e-38 307 252
-0.015022559 0.71399999 -0.015022559 2.0722177e-38 308 252
-0.013751393 0.713 -0.015001519 2.0629983e-38 309 252
-0.012501267 0.713 -0.015001519 2.0630701e-38 310 252
-0.011266919 0.71399999 -0.015022559 2.0630701e-38 311 252
-0.01001504 0.71399999 -0.015022559 2.0630701e-38 312 252
-0.0087631596 0.71399999 -0.015022559 2.0630701e-38 313 252
-0.0075112795 0.71399999 -0.015022559 2.0630701e-38 314 252
-0.0062593995 0.71399999 -0.015022559 2.0538506e-38 315 252
-0.0050075199 0.71399999 -0.015022559 2.0354118e-38 316 252
-0.0037556398 0.71399999 -0.015022559 2.0261924e-38 317 252
-0.0025107733 0.71600002 -0.01506464 1.9893864e-38 318 252
-0.0012553866 0.71600002 -0.01506464 1.9709476e-38 319 252
0 0.71600002 -0.01506464 1.8880087e-38 320 252
0.0012553866 0.71600002 -0.01506464 1.8603504e-38 321 252
0.0025107733 0.71600002 -0.01506464 1.8695339e-38 322 252
0.0037714199 0.71700001 -0.015085679 1.8695339e-38 323 252
0.0050285598 0.71700001 -0.015085679 1.8419474e-38 324 252
0.0062857 0.71700001 -0.015085679 1.832728e-38 325 252
0.0075638802 0.71899998 -0.01512776 1.8327997e-38 326 252
0.0088245263 0.71899998 -0.01512776 1.8512745e-38 327 252
0.010099201 0.72000003 -0.0151488 1.8787175e-38 328 252
0.011361601 0.72000003 -0.0151488 1.8879369e-38 329 252
0.012659066 0.722 -0.015190879 1.8696781e-38 330 252
0.01394426 0.72299999 -0.015211919 1.851239e-38 331 252
-0.041774917 0.722 -0.016456785 1.8705932e-38 287 253
-0.040509012 0.722 -0.016456785 1.9438357e-38 288 253
-0.039134402 0.72000003 -0.0164112 1.8884823e-38 289 253
-0.037819397 0.71899998 -0.016388407 1.9987135e-38 290 253
-0.036457058 0.71700001 -0.016342819 1.9803105e-38 291 253
-0.035199918 0.71700001 -0.016342819 2.0170447e-38 292 253
-0.03389544 0.71600002 -0.016320027 2.0170447e-38 293 253
-0.032548878 0.71399999 -0.016274439 1.9986417e-38 294 253
-0.031253166 0.713 -0.016251646 2.0262641e-38 295 253
-0.030003037 0.713 -0.016251646 2.0262641e-38 296 253
-0.028672259 0.71100003 -0.01620606 2.0170447e-38 297 253
-0.027425639 0.71100003 -0.01620606 2.0537789e-38 298 253
-0.026179021 0.71100003 -0.01620606 2.0629983e-38 299 253
-0.024932399 0.71100003 -0.01620606 2.0629983e-38 300 253
-0.023685781 0.71100003 -0.01620606 2.0629983e-38 301 253
-0.022439159 0.71100003 -0.01620606 2.0538506e-38 302 253
-0.021252153 0.713 -0.016251646 2.0722895e-38 303 253
-0.01994592 0.71100003 -0.01620606 2.081473e-38 304 253
-0.0186993 0.71100003 -0.01620606 2.081473e-38 305 253
-0.017501773 0.713 -0.016251646 2.081473e-38 306 253
-0.016251646 0.713 -0.016251646 2.081473e-38 307 253
-0.015001519 0.713 -0.016251646 2.081473e-38 308 253
-0.013751393 0.713 -0.016251646 2.0722536e-38 309 253
-0.012501267 0.713 -0.016251646 2.0630701e-38 310 253
-0.011251139 0.713 -0.016251646 2.0630701e-38 311 253
-0.010001013 0.713 -0.016251646 2.0538506e-38 312 253
-0.0087508867 0.713 -0.016251646 2.0538506e-38 313 253
-0.0075007593 0.713 -0.016251646 2.0355194e-38 314 253
-0.0062506334 0.713 -0.016251646 2.0263e-38 315 253
-0.0050005065 0.713 -0.016251646 2.0170447e-38 316 253
-0.0037556398 0.71399999 -0.016274439 1.9894223e-38 317 253
-0.0025037599 0.71399999 -0.016274439 1.9616923e-38 318 253
-0.00125188 0.71399999 -0.016274439 1.9248505e-38 319 253
0 0.71399999 -0.016274439 1.8234368e-38 320 253
0.00125188 0.71399999 -0.016274439 1.8418757e-38 321 253
0.0025107733 0.71600002 -0.016320027 1.8602069e-38 322 253
0.00376616 0.71600002 -0.016320027 1.8694263e-38 323 253
0.0050215465 0.71600002 -0.016320027 1.832728e-38 324 253
0.0062769335 0.71600002 -0.016320027 1.832728e-38 325 253
0.0075428397 0.71700001 -0.016342819 1.8510592e-38 326 253
0.0088245263 0.71899998 -0.016388407 1.8695339e-38 327 253
0.010099201 0.72000003 -0.0164112 1.8788251e-38 328 253
0.011361601 0.72000003 -0.0164112 1.8696057e-38 329 253
0.012659066 0.722 -0.016456785 1.8512027e-38 330 253
0.013924973 0.722 -0.016456785 1.8696057e-38 331 253
0.015211919 0.72299999 -0.01647958 1.8604939e-38 332 253
0.01647958 0.72299999 -0.01647958 1.8512745e-38 333 253
-0.041774917 0.722 -0.017722692 1.778501e-38 287 254
-0.040396802 0.72000003 -0.017673599 1.9712734e-38 288 254
-0.039080046 0.71899998 -0.017649053 1.9343953e-38 289 254
-0.037714198 0.71700001 -0.017599959 2.0079329e-38 290 254
-0.036406212 0.71600002 -0.017575413 1.9987135e-38 291 254
-0.035052639 0.71399999 -0.017526319 2.0170447e-38 292 254
-0.033800758 0.71399999 -0.017526319 2.0170447e-38 293 254
-0.032503292 0.713 -0.017501773 2.0170447e-38 294 254
-0.031253166 0.713 -0.017501773 2.0170447e-38 295 254
-0.029918881 0.71100003 -0.01745268 2.0262641e-38 296 254
-0.028672259 0.71100003 -0.01745268 2.0354835e-38 297 254
-0.027425639 0.71100003 -0.01745268 2.0538506e-38 298 254
-0.026179021 0.71100003 -0.01745268 2.0538506e-38 299 254
-0.024897331 0.70999998 -0.017428132 2.0630701e-38 300 254
-0.023652466 0.70999998 -0.017428132 2.0538506e-38 301 254
-0.022407599 0.70999998 -0.017428132 2.0630701e-38 302 254
-0.021192541 0.71100003 -0.01745268 2.0722895e-38 303 254
-0.01994592 0.71100003 -0.01745268 2.081473e-38 304 254
-0.0186993 0.71100003 -0.01745268 2.081473e-38 305 254
-0.01745268 0.71100003 -0.01745268 2.0630701e-38 306 254
-0.01620606 0.71100003 -0.01745268 2.0630701e-38 307 254
-0.014959441 0.71100003 -0.01745268 2.0447388e-38 308 254
-0.01371282 0.71100003 -0.01745268 2.0447388e-38 309 254
-0.0124662 0.71100003 -0.01745268 2.0171882e-38 310 254
-0.01121958 0.71100003 -0.01745268 2.0079329e-38 311 254
-0.0099729598 0.71100003 -0.01745268 2.0262641e-38 312 254
-0.0087263398 0.71100003 -0.01745268 2.0262641e-38 313 254
-0.0074797203 0.71100003 -0.01745268 2.0261924e-38 314 254
-0.0062330998 0.71100003 -0.01745268 2.0354118e-38 315 254
-0.0049864799 0.71100003 -0.01745268 1.9986059e-38 316 254
-0.0037503797 0.713 -0.017501773 1.980167e-38 317 254
-0.0025002533 0.713 -0.017501773 1.9433252e-38 318 254
-0.0012501266 0.713 -0.017501773 1.9156669e-38 319 254
0 0.713 -0.017501773 1.8694622e-38 320 254
0.00125188 0.71399999 -0.017526319 1.8602428e-38 321 254
0.0025037599 0.71399999 -0.017526319 1.8235086e-38 322 254
0.00376616 0.71600002 -0.017575413 1.8235086e-38 323 254
0.0050215465 0.71600002 -0.017575413 1.832728e-38 324 254
0.0062769335 0.71600002 -0.017575413 1.8235086e-38 325 254
0.0075428397 0.71700001 -0.017599959 1.8327997e-38 326 254
0.0088245263 0.71899998 -0.017649053 1.8420192e-38 327 254
0.010099201 0.72000003 -0.017673599 1.8512027e-38 328 254
0.011361601 0.72000003 -0.017673599 1.8696057e-38 329 254
0.012624 0.72000003 -0.017673599 1.8696057e-38 330 254
0.013924973 0.722 -0.017722692 1.8696057e-38 331 254
0.015211919 0.72299999 -0.017747238 1.8237956e-38 332 254
0.01647958 0.72299999 -0.017747238 1.833015e-38 333 254
0.017796334 0.72500002 -0.017796334 1.8329074e-38 334 254
0.019120099 0.727 -0.017845426 1.8329074e-38 335 254
0.020394772 0.727 -0.017845426 1.8052907e-38 336 254
-0.043040827 0.722 -0.0189886 1.916683e-38 286 255
-0.041659199 0.72000003 -0.018935999 1.7599504e-38 287 255
-0.040340692 0.71899998 -0.018909698 1.9804185e-38 288 255
-0.038971342 0.71700001 -0.018857099 1.9620153e-38 289 255
-0.037714198 0.71700001 -0.018857099 1.9987852e-38 290 255
-0.036406212 0.71600002 -0.0188308 1.9803823e-38 291 255
-0.035052639 0.71399999 -0.018778199 1.9987135e-38 292 255
-0.033800758 0.71399999 -0.018778199 1.9987135e-38 293 255
-0.032503292 0.713 -0.018751899 1.9987135e-38 294 255
-0.031165501 0.71100003 -0.0186993 2.0079329e-38 295 255
-0.029918881 0.71100003 -0.0186993 2.0263e-38 296 255
-0.028672259 0.71100003 -0.0186993 2.0447388e-38 297 255
-0.027387066 0.70999998 -0.018672999 2.0264076e-38 298 255
-0.026142199 0.70999998 -0.018672999 2.0264076e-38 299 255
-0.024897331 0.70999998 -0.018672999 2.0539583e-38 300 255
-0.023652466 0.70999998 -0.018672999 2.0447388e-38 301 255
-0.022407599 0.70999998 -0.018672999 2.0722536e-38 302 255
-0.021192541 0.71100003 -0.0186993 2.0722536e-38 303 255
-0.019917866 0.70999998 -0.018672999 2.0722895e-38 304 255
-0.018672999 0.70999998 -0.018672999 2.0722895e-38 305 255
-0.01745268 0.71100003 -0.0186993 2.0630701e-38 306 255
-0.01620606 0.71100003 -0.0186993 2.0630701e-38 307 255
-0.014959441 0.71100003 -0.0186993 2.0355194e-38 308 255
-0.01371282 0.71100003 -0.0186993 2.0263e-38 309 255
-0.0124662 0.71100003 -0.0186993 2.0262641e-38 310 255
-0.01121958 0.71100003 -0.0186993 2.0170447e-38 311 255
-0.0099729598 0.71100003 -0.0186993 2.0170447e-38 312 255
-0.0087263398 0.71100003 -0.0186993 2.0170447e-38 313 255
-0.0074797203 0.71100003 -0.0186993 2.0170447e-38 314 255
-0.0062330998 0.71100003 -0.0186993 2.0170447e-38 315 255
-0.0049864799 0.71100003 -0.0186993 1.971127e-38 316 255
-0.0037398601 0.71100003 -0.0186993 1.9434328e-38 317 255
-0.0025002533 0.713 -0.018751899 1.9341058e-38 318 255
-0.0012501266 0.713 -0.018751899 1.9156669e-38 319 255
0 0.713 -0.018751899 1.8327997e-38 320 255
0.0012501266 0.713 -0.018751899 1.8051415e-38 321 255
0.0025037599 0.71399999 -0.018778199 1.8234727e-38 322 255
0.0037556398 0.71399999 -0.018778199 1.8326921e-38 323 255
0.0050215465 0.71600002 -0.0188308 1.832728e-38 324 255
0.0062769335 0.71600002 -0.0188308 1.8419474e-38 325 255
0.0075428397 0.71700001 -0.018857099 1.8328356e-38 326 255
0.0087999795 0.71700001 -0.018857099 1.8512745e-38 327 255
0.010085173 0.71899998 -0.018909698 1.8512027e-38 328 255
0.01134582 0.71899998 -0.018909698 1.8696057e-38 329 255
0.012606465 0.71899998 -0.018909698 1.8696057e-38 330 255
0.0138864 0.72000003 -0.018935999 1.8696057e-38 331 255
0.0151488 0.72000003 -0.018935999 1.8237238e-38 332 255
0.016456785 0.722 -0.0189886 1.8237238e-38 333 255
0.017747238 0.72299999 -0.019014901 1.842055e-38 334 255
0.0190675 0.72500002 -0.0190675 1.842055e-38 335 255
0.020338668 0.72500002 -0.0190675 1.8326923e-38 336 255
0.021609833 0.72500002 -0.0190675 1.8050697e-38 337 255
-0.042921603 0.72000003 -0.020198401 1.9162839e-38 286 256
-0.041601337 0.71899998 -0.020170346 1.8241242e-38 287 256
-0.040228479 0.71700001 -0.020114239 1.9804181e-38 288 256
-0.038916986 0.71600002 -0.020086186 1.9804181e-38 289 256
-0.037556399 0.71399999 -0.020030079 1.9987852e-38 290 256
-0.036304519 0.71399999 -0.020030079 1.9987852e-38 291 256
-0.035003547 0.713 -0.020002026 1.9987852e-38 292 256
-0.033753417 0.713 -0.020002026 1.9987852e-38 293 256
-0.032412119 0.71100003 -0.01994592 2.0079329e-38 294 256
-0.031165501 0.71100003 -0.01994592 2.0171523e-38 295 256
-0.029918881 0.71100003 -0.01994592 2.0171882e-38 296 256
-0.028631933 0.70999998 -0.019917866 2.0171882e-38 297 256
-0.027387066 0.70999998 -0.019917866 2.0171882e-38 298 256
-0.026142199 0.70999998 -0.019917866 2.0171882e-38 299 256
-0.024897331 0.70999998 -0.019917866 2.0630701e-38 300 256
-0.023585839 0.708 -0.01986176 2.0538506e-38 301 256
-0.022344479 0.708 -0.01986176 2.0538506e-38 302 256
-0.021162732 0.70999998 -0.019917866 2.0538506e-38 303 256
-0.019917866 0.70999998 -0.019917866 2.0355194e-38 304 256
-0.018672999 0.70999998 -0.019917866 2.0355194e-38 305 256
-0.017428132 0.70999998 -0.019917866 2.0538506e-38 306 256
-0.016183265 0.70999998 -0.019917866 2.0538506e-38 307 256
-0.014938398 0.70999998 -0.019917866 2.0354835e-38 308 256
-0.013693533 0.70999998 -0.019917866 2.0262641e-38 309 256
-0.012448666 0.70999998 -0.019917866 2.0170447e-38 310 256
-0.011203799 0.70999998 -0.019917866 2.0170447e-38 311 256
-0.0099589331 0.70999998 -0.019917866 1.9894941e-38 312 256
-0.0087140659 0.70999998 -0.019917866 1.9894941e-38 313 256
-0.0074691991 0.70999998 -0.019917866 1.9894582e-38 314 256
-0.0062330998 0.71100003 -0.01994592 1.9894582e-38 315 256
-0.0049864799 0.71100003 -0.01994592 1.9709835e-38 316 256
-0.0037398601 0.71100003 -0.01994592 1.9433611e-38 317 256
-0.0024932399 0.71100003 -0.01994592 1.9155593e-38 318 256
-0.00124662 0.71100003 -0.01994592 1.8694622e-38 319 256
0 0.71100003 -0.01994592 1.786882e-38 320 256
0.00124662 0.71100003 -0.01994592 1.7684431e-38 321 256
0.0025002533 0.713 -0.020002026 1.8142533e-38 322 256
0.0037556398 0.71399999 -0.020030079 1.8326921e-38 323 256
0.0050075199 0.71399999 -0.020030079 1.8420192e-38 324 256
0.0062769335 0.71600002 -0.020086186 1.8420192e-38 325 256
0.00753232 0.71600002 -0.020086186 1.842055e-38 326 256
0.0087999795 0.71700001 -0.020114239 1.842055e-38 327 256
0.01005712 0.71700001 -0.020114239 1.8512027e-38 328 256
0.01131426 0.71700001 -0.020114239 1.8512027e-38 329 256
0.012606465 0.71899998 -0.020170346 1.8696057e-38 330 256
0.013867113 0.71899998 -0.020170346 1.8512027e-38 331 256
0.01512776 0.71899998 -0.020170346 1.8328356e-38 332 256
0.016456785 0.722 -0.020254506 1.8235803e-38 333 256
0.017747238 0.72299999 -0.020282559 1.8235803e-38 334 256
0.019014901 0.72299999 -0.020282559 1.8235803e-38 335 256
0.020282559 0.72299999 -0.020282559 1.832728e-38 336 256
0.021550218 0.72299999 -0.020282559 1.8050697e-38 337 256
0.02281788 0.72299999 -0.020282559 1.7314598e-38 338 256
-0.042742759 0.71700001 -0.021371379 1.8884068e-38 286 257
-0.041427758 0.71600002 -0.021341572 1.8884068e-38 287 257
-0.040172372 0.71600002 -0.021341572 1.9528316e-38 288 257
-0.038916986 0.71600002 -0.021341572 1.9620869e-38 289 257
-0.037556399 0.71399999 -0.021281958 1.980454e-38 290 257
-0.036304519 0.71399999 -0.021281958 1.980454e-38 291 257
-0.034905359 0.71100003 -0.021192541 1.980454e-38 292 257
-0.033658739 0.71100003 -0.021192541 1.980454e-38 293 257
-0.032366529 0.70999998 -0.021162732 1.9987852e-38 294 257
-0.031121666 0.70999998 -0.021162732 1.9987852e-38 295 257
-0.029876797 0.70999998 -0.021162732 2.0080046e-38 296 257
-0.028631933 0.70999998 -0.021162732 2.0080046e-38 297 257
-0.027387066 0.70999998 -0.021162732 2.0080046e-38 298 257
-0.026142199 0.70999998 -0.021162732 2.0080046e-38 299 257
-0.024827199 0.708 -0.021103119 1.9987852e-38 300 257
-0.023585839 0.708 -0.021103119 1.9987852e-38 301 257
-0.022344479 0.708 -0.021103119 2.0171523e-38 302 257
-0.021162732 0.70999998 -0.021162732 2.0079329e-38 303 257
-0.019917866 0.70999998 -0.021162732 2.0262641e-38 304 257
-0.018672999 0.70999998 -0.021162732 2.0170447e-38 305 257
-0.017428132 0.70999998 -0.021162732 2.0262641e-38 306 257
-0.016183265 0.70999998 -0.021162732 2.0262641e-38 307 257
-0.014938398 0.70999998 -0.021162732 2.0079329e-38 308 257
-0.013693533 0.70999998 -0.021162732 2.0079329e-38 309 257
-0.012448666 0.70999998 -0.021162732 1.9894582e-38 310 257
-0.011203799 0.70999998 -0.021162732 1.9802388e-38 311 257
-0.0099589331 0.70999998 -0.021162732 1.9710193e-38 312 257
-0.0087140659 0.70999998 -0.021162732 1.9710193e-38 313 257
-0.0074691991 0.70999998 -0.021162732 1.9802388e-38 314 257
-0.0062243328 0.70999998 -0.021162732 1.9710193e-38 315 257
-0.0049794666 0.70999998 -0.021162732 1.9433611e-38 316 257
-0.0037398601 0.71100003 -0.021192541 1.9249222e-38 317 257
-0.0024932399 0.71100003 -0.021192541 1.8695339e-38 318 257
-0.00124662 0.71100003 -0.021192541 1.8142174e-38 319 257
0 0.71100003 -0.021192541 1.7959938e-38 320 257
0.00124662 0.71100003 -0.021192541 1.7867744e-38 321 257
0.0024932399 0.71100003 -0.021192541 1.8051415e-38 322 257
0.0037503797 0.713 -0.021252153 1.8327997e-38 323 257
0.0050005065 0.713 -0.021252153 1.8145403e-38 324 257
0.0062593995 0.71399999 -0.021281958 1.8145403e-38 325 257
0.00753232 0.71600002 -0.021341572 1.842055e-38 326 257
0.0087877065 0.71600002 -0.021341572 1.8328356e-38 327 257
0.01005712 0.71700001 -0.021371379 1.8328356e-38 328 257
0.01131426 0.71700001 -0.021371379 1.842055e-38 329 257
0.0125714 0.71700001 -0.021371379 1.842055e-38 330 257
0.013867113 0.71899998 -0.021430992 1.8328356e-38 331 257
0.01512776 0.71899998 -0.021430992 1.8235803e-38 332 257
0.016456785 0.722 -0.021520413 1.7959579e-38 333 257
0.017747238 0.72299999 -0.021550218 1.795922e-38 334 257
0.019014901 0.72299999 -0.021550218 1.795922e-38 335 257
0.020282559 0.72299999 -0.021550218 1.8051415e-38 336 257
0.021550218 0.72299999 -0.021550218 1.795922e-38 337 257
0.022975679 0.72799999 -0.021699252 1.7774473e-38 338 257
0.024252106 0.72799999 -0.021699252 1.7313502e-38 339 257
0.028081384 0.72799999 -0.021699252 2.018108e-38 342 257
0.029357811 0.72799999 -0.021699252 2.0733895e-38 343 257
0.030634239 0.72799999 -0.021699252 2.036656e-38 344 257
-0.044183999 0.72000003 -0.022723202 1.7048508e-38 285 258
-0.042742759 0.71700001 -0.02262852 1.9342507e-38 286 258
-0.041427758 0.71600002 -0.022596961 1.9526898e-38 287 258
-0.040060159 0.71399999 -0.022533838 1.962051e-38 288 258
-0.038808275 0.71399999 -0.022533838 1.962051e-38 289 258
-0.037503798 0.713 -0.022502279 1.9896734e-38 290 258
-0.036253672 0.713 -0.022502279 1.9896734e-38 291 258
-0.034905359 0.71100003 -0.022439159 1.9896734e-38 292 258
-0.033611398 0.70999998 -0.022407599 1.980454e-38 293 258
-0.032366529 0.70999998 -0.022407599 1.9987852e-38 294 258
-0.031121666 0.70999998 -0.022407599 1.9987852e-38 295 258
-0.029876797 0.70999998 -0.022407599 2.0080046e-38 296 258
-0.028631933 0.70999998 -0.022407599 1.9987852e-38 297 258
-0.027387066 0.70999998 -0.022407599 1.980454e-38 298 258
-0.026068559 0.708 -0.022344479 1.980454e-38 299 258
-0.024827199 0.708 -0.022344479 1.980454e-38 300 258
-0.023585839 0.708 -0.022344479 1.9896734e-38 301 258
-0.022344479 0.708 -0.022344479 1.9987852e-38 302 258
-0.021162732 0.70999998 -0.022407599 1.9803823e-38 303 258
-0.019917866 0.70999998 -0.022407599 2.0170447e-38 304 258
-0.018672999 0.70999998 -0.022407599 1.9893864e-38 305 258
-0.017428132 0.70999998 -0.022407599 1.9986059e-38 306 258
-0.016183265 0.70999998 -0.022407599 2.0170447e-38 307 258
-0.014938398 0.70999998 -0.022407599 2.0170447e-38 308 258
-0.013693533 0.70999998 -0.022407599 1.9986059e-38 309 258
-0.0124136 0.708 -0.022344479 1.9802388e-38 310 258
-0.01117224 0.708 -0.022344479 1.9710193e-38 311 258
-0.0099589331 0.70999998 -0.022407599 1.9710193e-38 312 258
-0.0087140659 0.70999998 -0.022407599 1.9710193e-38 313 258
-0.0074691991 0.70999998 -0.022407599 1.9526522e-38 314 258
-0.0062243328 0.70999998 -0.022407599 1.9434328e-38 315 258
-0.0049794666 0.70999998 -0.022407599 1.9341058e-38 316 258
-0.0037345996 0.70999998 -0.022407599 1.9156669e-38 317 258
-0.0024897333 0.70999998 -0.022407599 1.8328356e-38 318 258
-0.00124662 0.71100003 -0.022439159 1.7959579e-38 319 258
0 0.71100003 -0.022439159 1.7959938e-38 320 258
0.00124662 0.71100003 -0.022439159 1.7959938e-38 321 258
0.0024932399 0.71100003 -0.022439159 1.8052491e-38 322 258
0.0037398601 0.71100003 -0.022439159 1.8236879e-38 323 258
0.0050005065 0.713 -0.022502279 1.8329432e-38 324 258
0.0062506334 0.713 -0.022502279 1.8329432e-38 325 258
0.0075112795 0.71399999 -0.022533838 1.842055e-38 326 258
0.0087877065 0.71600002 -0.022596961 1.842055e-38 327 258
0.01005712 0.71700001 -0.02262852 1.8328356e-38 328 258
0.01131426 0.71700001 -0.02262852 1.842055e-38 329 258
0.0125714 0.71700001 -0.02262852 1.8327997e-38 330 258
0.013828539 0.71700001 -0.02262852 1.8235803e-38 331 258
0.015085679 0.71700001 -0.02262852 1.795922e-38 332 258
0.0164112 0.72000003 -0.022723202 1.7867026e-38 333 258
0.017722692 0.722 -0.022786319 1.7867744e-38 334 258
0.019014901 0.72299999 -0.02281788 1.7683714e-38 335 258
0.020338668 0.72500002 -0.022880999 1.7867026e-38 336 258
0.021609833 0.72500002 -0.022880999 1.795922e-38 337 258
0.022944121 0.727 -0.022944121 1.795922e-38 338 258
0.024252106 0.72799999 -0.022975679 1.7867026e-38 339 258
0.025598666 0.73000002 -0.023038799 1.7864895e-38 340 258
0.026804959 0.72799999 -0.022975679 1.878721e-38 341 258
0.028081384 0.72799999 -0.022975679 1.8521515e-38 342 258
0.029357811 0.72799999 -0.022975679 2.0273232e-38 343 258
0.030634239 0.72799999 -0.022975679 2.0090328e-38 344 258
0.031910665 0.72799999 -0.022975679 1.9998132e-38 345 258
-0.043999899 0.71700001 -0.02388566 1.7231089e-38 285 259
-0.042683143 0.71600002 -0.023852346 1.9252093e-38 286 259
-0.041427758 0.71600002 -0.023852346 1.952832e-38 287 259
-0.040060159 0.71399999 -0.02378572 1.9529392e-38 288 259
-0.038753927 0.713 -0.023752406 1.9621586e-38 289 259
-0.037398599 0.71100003 -0.023685781 1.9805257e-38 290 259
-0.036151983 0.71100003 -0.023685781 1.9805257e-38 291 259
-0.034856264 0.70999998 -0.023652466 1.9805257e-38 292 259
-0.033611398 0.70999998 -0.023652466 1.9621228e-38 293 259
-0.032366529 0.70999998 -0.023652466 1.9896734e-38 294 259
-0.031121666 0.70999998 -0.023652466 1.9896734e-38 295 259
-0.029876797 0.70999998 -0.023652466 1.9896734e-38 296 259
-0.028631933 0.70999998 -0.023652466 1.980454e-38 297 259
-0.027387066 0.70999998 -0.023652466 1.980454e-38 298 259
-0.026068559 0.708 -0.023585839 1.980454e-38 299 259
-0.024827199 0.708 -0.023585839 1.9711987e-38 300 259
-0.023585839 0.708 -0.023585839 1.9711987e-38 301 259
-0.022344479 0.708 -0.023585839 1.9711987e-38 302 259
-0.021103119 0.708 -0.023585839 1.9619793e-38 303 259
-0.01986176 0.708 -0.023585839 1.9526881e-38 304 259
-0.0186204 0.708 -0.023585839 1.9619075e-38 305 259
-0.017379038 0.708 -0.023585839 1.971127e-38 306 259
-0.01613768 0.708 -0.023585839 1.9619075e-38 307 259
-0.01489632 0.708 -0.023585839 1.9619075e-38 308 259
-0.013654959 0.708 -0.023585839 1.9526522e-38 309 259
-0.0124136 0.708 -0.023585839 1.9526522e-38 310 259
-0.01117224 0.708 -0.023585839 1.9526522e-38 311 259
-0.0099308798 0.708 -0.023585839 1.9526522e-38 312 259
-0.008689519 0.708 -0.023585839 1.9434328e-38 313 259
-0.0074481601 0.708 -0.023585839 1.9434328e-38 314 259
-0.0062067998 0.708 -0.023585839 1.9157745e-38 315 259
-0.0049794666 0.70999998 -0.023652466 1.8972998e-38 316 259
-0.0037345996 0.70999998 -0.023652466 1.878861e-38 317 259
-0.0024897333 0.70999998 -0.023652466 1.8512027e-38 318 259
-0.0012448666 0.70999998 -0.023652466 1.8419833e-38 319 259
0 0.70999998 -0.023652466 1.8144685e-38 320 259
0.00124662 0.71100003 -0.023685781 1.8144685e-38 321 259
0.0024932399 0.71100003 -0.023685781 1.8328356e-38 322 259
0.0037398601 0.71100003 -0.023685781 1.8512745e-38 323 259
0.0049864799 0.71100003 -0.023685781 1.8237238e-38 324 259
0.0062506334 0.713 -0.023752406 1.8329432e-38 325 259
0.0075112795 0.71399999 -0.02378572 1.8329432e-38 326 259
0.0087631596 0.71399999 -0.02378572 1.8237238e-38 327 259
0.010043093 0.71600002 -0.023852346 1.8512745e-38 328 259
0.01129848 0.71600002 -0.023852346 1.842055e-38 329 259
0.012553867 0.71600002 -0.023852346 1.8235803e-38 330 259
0.013828539 0.71700001 -0.02388566 1.7959579e-38 331 259
0.015085679 0.71700001 -0.02388566 1.7683714e-38 332 259
0.016388407 0.71899998 -0.023952285 1.7683714e-38 333 259
0.017722692 0.722 -0.024052227 1.7683714e-38 334 259
0.019014901 0.72299999 -0.024085538 1.7591161e-38 335 259
0.020282559 0.72299999 -0.024085538 1.7774832e-38 336 259
0.021609833 0.72500002 -0.024152167 1.795922e-38 337 259
0.022880999 0.72500002 -0.024152167 1.7867744e-38 338 259
0.024252106 0.72799999 -0.024252106 1.7683714e-38 339 259
0.025598666 0.73000002 -0.024318734 1.8142174e-38 340 259
0.026804959 0.72799999 -0.024252106 1.7589009e-38 341 259
0.028081384 0.72799999 -0.024252106 1.741117e-38 342 259
0.029357811 0.72799999 -0.024252106 2.0084843e-38 343 259
0.030634239 0.72799999 -0.024252106 1.9813015e-38 344 259
0.031910665 0.72799999 -0.024252106 2.0273993e-38 345 259
0.033187091 0.72799999 -0.024252106 2.0364392e-38 346 259
-0.043938532 0.71600002 -0.025107734 1.759878e-38 285 260
-0.042683143 0.71600002 -0.025107734 1.9435763e-38 286 260
-0.041312039 0.71399999 -0.025037598 1.9527957e-38 287 260
-0.040004052 0.713 -0.025002534 1.9805257e-38 288 260
-0.038645219 0.71100003 -0.024932399 1.9620869e-38 289 260
-0.037345998 0.70999998 -0.024897331 1.9805257e-38 290 260
-0.036101133 0.70999998 -0.024897331 1.9621228e-38 291 260
-0.034856264 0.70999998 -0.024897331 1.9621228e-38 292 260
-0.033611398 0.70999998 -0.024897331 1.9805257e-38 293 260
-0.032366529 0.70999998 -0.024897331 1.9805257e-38 294 260
-0.031034 0.708 -0.024827199 1.9805257e-38 295 260
-0.02979264 0.708 -0.024827199 1.9896734e-38 296 260
-0.02855128 0.708 -0.024827199 1.980454e-38 297 260
-0.027309919 0.708 -0.024827199 1.9711987e-38 298 260
-0.026068559 0.708 -0.024827199 1.9619793e-38 299 260
-0.024827199 0.708 -0.024827199 1.9711987e-38 300 260
-0.023585839 0.708 -0.024827199 1.9619793e-38 301 260
-0.022344479 0.708 -0.024827199 1.9619793e-38 302 260
-0.021103119 0.708 -0.024827199 1.9619793e-38 303 260
-0.01986176 0.708 -0.024827199 1.9710193e-38 304 260
-0.0186204 0.708 -0.024827199 1.9710193e-38 305 260
-0.017379038 0.708 -0.024827199 1.9710193e-38 306 260
-0.01613768 0.708 -0.024827199 1.9710193e-38 307 260
-0.01489632 0.708 -0.024827199 1.9526522e-38 308 260
-0.013654959 0.708 -0.024827199 1.9526522e-38 309 260
-0.0124136 0.708 -0.024827199 1.934321e-38 310 260
-0.01117224 0.708 -0.024827199 1.934321e-38 311 260
-0.0099308798 0.708 -0.024827199 1.934321e-38 312 260
-0.008689519 0.708 -0.024827199 1.9251016e-38 313 260
-0.0074481601 0.708 -0.024827199 1.9157745e-38 314 260
-0.0062067998 0.708 -0.024827199 1.9065551e-38 315 260
-0.0049794666 0.70999998 -0.024897331 1.8880804e-38 316 260
-0.0037345996 0.70999998 -0.024897331 1.878861e-38 317 260
-0.0024897333 0.70999998 -0.024897331 1.8329432e-38 318 260
-0.0012448666 0.70999998 -0.024897331 1.8329432e-38 319 260
0 0.70999998 -0.024897331 1.7962449e-38 320 260
0.0012448666 0.70999998 -0.024897331 1.8054643e-38 321 260
0.0024897333 0.70999998 -0.024897331 1.8054643e-38 322 260
0.0037398601 0.71100003 -0.024932399 1.8054643e-38 323 260
0.0049864799 0.71100003 -0.024932399 1.8145761e-38 324 260
0.0062506334 0.713 -0.025002534 1.8237956e-38 325 260
0.0075112795 0.71399999 -0.025037598 1.8329432e-38 326 260
0.0087631596 0.71399999 -0.025037598 1.8329432e-38 327 260
0.010043093 0.71600002 -0.025107734 1.8329432e-38 328 260
0.01129848 0.71600002 -0.025107734 1.8329432e-38 329 260
0.012553867 0.71600002 -0.025107734 1.8144685e-38 330 260
0.013828539 0.71700001 -0.0251428 1.7867744e-38 331 260
0.015085679 0.71700001 -0.0251428 1.7591161e-38 332 260
0.016388407 0.71899998 -0.025212931 1.7591161e-38 333 260
0.017673599 0.72000003 -0.025248 1.7774832e-38 334 260
0.0189886 0.722 -0.025318133 1.7867026e-38 335 260
0.020282559 0.72299999 -0.025353199 1.7867026e-38 336 260
0.021609833 0.72500002 -0.025423333 1.7774832e-38 337 260
0.022880999 0.72500002 -0.025423333 1.7774832e-38 338 260
0.024252106 0.72799999 -0.025528532 1.7774832e-38 339 260
0.025598666 0.73000002 -0.025598666 1.7957068e-38 340 260
0.026804959 0.72799999 -0.025528532 1.777268e-38 341 260
0.028081384 0.72799999 -0.025528532 1.7131314e-38 342 260
0.029357811 0.72799999 -0.025528532 1.8790836e-38 343 260
0.030634239 0.72799999 -0.025528532 1.9076141e-38 344 260
0.031910665 0.72799999 -0.025528532 2.0182487e-38 345 260
0.033187091 0.72799999 -0.025528532 2.0454422e-38 346 260
-0.043938532 0.71600002 -0.026363119 1.8149059e-38 285 261
-0.042563915 0.71399999 -0.026289478 1.9253168e-38 286 261
-0.041254178 0.713 -0.026252659 1.9253168e-38 287 261
-0.039891839 0.71100003 -0.026179021 1.934608e-38 288 261
-0.038590867 0.70999998 -0.026142199 1.9438274e-38 289 261
-0.037345998 0.70999998 -0.026142199 1.934608e-38 290 261
-0.036101133 0.70999998 -0.026142199 1.934608e-38 291 261
-0.034856264 0.70999998 -0.026142199 1.9621945e-38 292 261
-0.033611398 0.70999998 -0.026142199 1.9621945e-38 293 261
-0.03227536 0.708 -0.026068559 1.9438633e-38 294 261
-0.031034 0.708 -0.026068559 1.9438633e-38 295 261
-0.02979264 0.708 -0.026068559 1.9438274e-38 296 261
-0.02855128 0.708 -0.026068559 1.934608e-38 297 261
-0.027309919 0.708 -0.026068559 1.9529392e-38 298 261
-0.026068559 0.708 -0.026068559 1.9437198e-38 299 261
-0.024827199 0.708 -0.026068559 1.9437198e-38 300 261
-0.023585839 0.708 -0.026068559 1.9253168e-38 301 261
-0.022344479 0.708 -0.026068559 1.9436481e-38 302 261
-0.021103119 0.708 -0.026068559 1.9344286e-38 303 261
-0.01986176 0.708 -0.026068559 1.934321e-38 304 261
-0.0186204 0.708 -0.026068559 1.934321e-38 305 261
-0.017379038 0.708 -0.026068559 1.934321e-38 306 261
-0.016114887 0.70700002 -0.02603174 1.9251016e-38 307 261
-0.01487528 0.70700002 -0.02603174 1.9342134e-38 308 261
-0.013635674 0.70700002 -0.02603174 1.9434328e-38 309 261
-0.0124136 0.708 -0.026068559 1.9251016e-38 310 261
-0.01117224 0.708 -0.026068559 1.9251016e-38 311 261
-0.0099308798 0.708 -0.026068559 1.9342134e-38 312 261
-0.008677247 0.70700002 -0.02603174 1.9342134e-38 313 261
-0.0074376399 0.70700002 -0.02603174 1.9341058e-38 314 261
-0.0062067998 0.708 -0.026068559 1.9156669e-38 315 261
-0.0049794666 0.70999998 -0.026142199 1.8972998e-38 316 261
-0.0037345996 0.70999998 -0.026142199 1.8880804e-38 317 261
-0.0024897333 0.70999998 -0.026142199 1.8604939e-38 318 261
-0.0012448666 0.70999998 -0.026142199 1.8604939e-38 319 261
0 0.70999998 -0.026142199 1.8513462e-38 320 261
0.0012448666 0.70999998 -0.026142199 1.8513462e-38 321 261
0.0024897333 0.70999998 -0.026142199 1.8513462e-38 322 261
0.0037398601 0.71100003 -0.026179021 1.8329432e-38 323 261
0.0049864799 0.71100003 -0.026179021 1.8237238e-38 324 261
0.0062330998 0.71100003 -0.026179021 1.8329432e-38 325 261
0.0075007593 0.713 -0.026252659 1.8237956e-38 326 261
0.0087631596 0.71399999 -0.026289478 1.8237956e-38 327 261
0.01001504 0.71399999 -0.026289478 1.8329432e-38 328 261
0.01129848 0.71600002 -0.026363119 1.8237238e-38 329 261
0.012553867 0.71600002 -0.026363119 1.7960297e-38 330 261
0.013828539 0.71700001 -0.02639994 1.7868102e-38 331 261
0.015085679 0.71700001 -0.02639994 1.7591161e-38 332 261
0.016388407 0.71899998 -0.02647358 1.7591161e-38 333 261
0.017673599 0.72000003 -0.026510401 1.7867026e-38 334 261
0.0189886 0.722 -0.026584039 1.7867026e-38 335 261
0.020282559 0.72299999 -0.026620859 1.7774832e-38 336 261
0.021609833 0.72500002 -0.026694499 1.7774832e-38 337 261
0.022880999 0.72500002 -0.026694499 1.7682279e-38 338 261
0.024252106 0.72799999 -0.026804959 1.7590085e-38 339 261
0.025528532 0.72799999 -0.026804959 1.7405696e-38 340 261
0.026804959 0.72799999 -0.026804959 1.7313502e-38 341 261
0.028081384 0.72799999 -0.026804959 1.6760338e-38 342 261
0.029357811 0.72799999 -0.026804959 1.7590459e-38 343 261
0.030634239 0.72799999 -0.026804959 1.8981748e-38 344 261
0.031910665 0.72799999 -0.026804959 2.0549434e-38 345 261
0.033187091 0.72799999 -0.026804959 2.04537e-38 346 261
-0.043815799 0.71399999 -0.02754136 1.8699683e-38 285 262
-0.042504307 0.713 -0.027502786 1.925281e-38 286 262
-0.041254178 0.713 -0.027502786 1.925281e-38 287 262
-0.039891839 0.71100003 -0.027425639 1.9253886e-38 288 262
-0.038590867 0.70999998 -0.027387066 1.9253886e-38 289 262
-0.037345998 0.70999998 -0.027387066 1.9254603e-38 290 262
-0.036101133 0.70999998 -0.027387066 1.9254603e-38 291 262
-0.034856264 0.70999998 -0.027387066 1.9621586e-38 292 262
-0.033516716 0.708 -0.027309919 1.9621586e-38 293 262
-0.03227536 0.708 -0.027309919 1.9438633e-38 294 262
-0.031034 0.708 -0.027309919 1.9438633e-38 295 262
-0.02979264 0.708 -0.027309919 1.9438274e-38 296 262
-0.028510952 0.70700002 -0.027271347 1.934608e-38 297 262
-0.027271347 0.70700002 -0.027271347 1.9253886e-38 298 262
-0.02603174 0.70700002 -0.027271347 1.9161692e-38 299 262
-0.024792133 0.70700002 -0.027271347 1.9253168e-38 300 262
-0.023552528 0.70700002 -0.027271347 1.9253168e-38 301 262
-0.022312919 0.70700002 -0.027271347 1.9160615e-38 302 262
-0.021103119 0.708 -0.027309919 1.9160615e-38 303 262
-0.01986176 0.708 -0.027309919 1.9251733e-38 304 262
-0.0186204 0.708 -0.027309919 1.9159539e-38 305 262
-0.017354494 0.70700002 -0.027271347 1.934321e-38 306 262
-0.016114887 0.70700002 -0.027271347 1.9251016e-38 307 262
-0.014854239 0.70599997 -0.027232772 1.9251016e-38 308 262
-0.013616386 0.70599997 -0.027232772 1.9251016e-38 309 262
-0.012396066 0.70700002 -0.027271347 1.9342134e-38 310 262
-0.011156459 0.70700002 -0.027271347 1.9342134e-38 311 262
-0.0099168532 0.70700002 -0.027271347 1.9157745e-38 312 262
-0.008677247 0.70700002 -0.027271347 1.9157745e-38 313 262
-0.0074376399 0.70700002 -0.027271347 1.9248863e-38 314 262
-0.0061980332 0.70700002 -0.027271347 1.9064475e-38 315 262
-0.0049654399 0.708 -0.027309919 1.8697492e-38 316 262
-0.00372408 0.708 -0.027309919 1.8697492e-38 317 262
-0.00248272 0.708 -0.027309919 1.8606015e-38 318 262
-0.00124136 0.708 -0.027309919 1.8606015e-38 319 262
0 0.70999998 -0.027387066 1.8513462e-38 320 262
0.0012448666 0.70999998 -0.027387066 1.8513462e-38 321 262
0.0024897333 0.70999998 -0.027387066 1.8237956e-38 322 262
0.0037345996 0.70999998 -0.027387066 1.8145403e-38 323 262
0.0049864799 0.71100003 -0.027425639 1.8144685e-38 324 262
0.0062330998 0.71100003 -0.027425639 1.8237238e-38 325 262
0.0075007593 0.713 -0.027502786 1.8237956e-38 326 262
0.0087508867 0.713 -0.027502786 1.8145403e-38 327 262
0.01001504 0.71399999 -0.02754136 1.8145403e-38 328 262
0.01129848 0.71600002 -0.027618507 1.7869179e-38 329 262
0.012553867 0.71600002 -0.027618507 1.7867744e-38 330 262
0.013809253 0.71600002 -0.027618507 1.7683714e-38 331 262
0.015085679 0.71700001 -0.027657079 1.7591161e-38 332 262
0.016388407 0.71899998 -0.027734226 1.7683714e-38 333 262
0.017673599 0.72000003 -0.027772799 1.7683714e-38 334 262
0.0189886 0.722 -0.027849946 1.7867744e-38 335 262
0.020282559 0.72299999 -0.02788852 1.7867026e-38 336 262
0.021550218 0.72299999 -0.02788852 1.7774832e-38 337 262
0.022944121 0.727 -0.028042812 1.7498967e-38 338 262
0.024252106 0.72799999 -0.028081384 1.7498967e-38 339 262
0.025528532 0.72799999 -0.028081384 1.740462e-38 340 262
0.026804959 0.72799999 -0.028081384 1.722059e-38 341 262
0.028081384 0.72799999 -0.028081384 1.6299366e-38 342 262
0.029357811 0.72799999 -0.028081384 1.6944725e-38 343 262
