# .PCD v.7 - Point Cloud Data file format
FIELDS x y z rgb imX imY
SIZE 4 4 4 4 4 4
TYPE F F F F F F
COUNT 1 1 1 1 1 1
WIDTH 833
HEIGHT 1
VIEWPOINT 0 0 0 1 0 0 0
POINTS 833
DATA ascii
0.021162732 0.70999998 -0.022407599 1.2059507e-38 337 258
0.022407599 0.70999998 -0.022407599 1.1967672e-38 338 258
0.023685781 0.71100003 -0.022439159 1.1875478e-38 339 258
0.025002534 0.713 -0.022502279 1.1507418e-38 340 258
0.026179021 0.71100003 -0.022439159 1.1599612e-38 341 258
0.027425639 0.71100003 -0.022439159 1.1324465e-38 342 258
0.028672259 0.71100003 -0.022439159 1.1416659e-38 343 258
-0.044815198 0.70999998 -0.023652466 1.4186137e-38 284 259
-0.043570329 0.70999998 -0.023652466 1.2711006e-38 285 259
-0.042325463 0.70999998 -0.023652466 1.3810839e-38 286 259
-0.041080594 0.70999998 -0.023652466 1.3718645e-38 287 259
-0.039835732 0.70999998 -0.023652466 1.3811198e-38 288 259
-0.038590867 0.70999998 -0.023652466 1.3995227e-38 289 259
-0.037345998 0.70999998 -0.023652466 1.3904468e-38 290 259
-0.036101133 0.70999998 -0.023652466 1.4089215e-38 291 259
-0.034758076 0.708 -0.023585839 1.4089933e-38 292 259
-0.033516716 0.708 -0.023585839 1.3997739e-38 293 259
-0.032229774 0.70700002 -0.023552528 1.3997739e-38 294 259
-0.030946331 0.70599997 -0.023519212 1.3997739e-38 295 259
-0.029624319 0.704 -0.023452586 1.3997739e-38 296 259
-0.028349647 0.70300001 -0.023419274 1.3997739e-38 297 259
-0.027039904 0.70099998 -0.023352645 1.3905544e-38 298 259
-0.025773998 0.69999999 -0.023319334 1.3997739e-38 299 259
-0.024546666 0.69999999 -0.023319334 1.3997739e-38 300 259
-0.023319334 0.69999999 -0.023319334 1.3997739e-38 301 259
-0.022091998 0.69999999 -0.023319334 1.3997739e-38 302 259
-0.020864666 0.69999999 -0.023319334 1.3905544e-38 303 259
-0.019637333 0.69999999 -0.023319334 1.3812991e-38 304 259
-0.018409999 0.69999999 -0.023319334 1.3812991e-38 305 259
-0.017182667 0.69999999 -0.023319334 1.3812991e-38 306 259
-0.015955333 0.69999999 -0.023319334 1.3812991e-38 307 259
-0.014727999 0.69999999 -0.023319334 1.3812274e-38 308 259
-0.013500666 0.69999999 -0.023319334 1.372008e-38 309 259
-0.012238266 0.69800001 -0.023252707 1.3627527e-38 310 259
-0.01101444 0.69800001 -0.023252707 1.3627527e-38 311 259
-0.0097906133 0.69800001 -0.023252707 1.3627527e-38 312 259
-0.0085667865 0.69800001 -0.023252707 1.3351303e-38 313 259
-0.0073429602 0.69800001 -0.023252707 1.3351303e-38 314 259
-0.006119133 0.69800001 -0.023252707 1.3443497e-38 315 259
-0.0048953067 0.69800001 -0.023252707 1.3168349e-38 316 259
-0.0036819996 0.69999999 -0.023319334 1.3076155e-38 317 259
-0.0024546667 0.69999999 -0.023319334 1.3167273e-38 318 259
-0.0012273333 0.69999999 -0.023319334 1.3259467e-38 319 259
0 0.69999999 -0.023319334 1.2983243e-38 320 259
0.0012273333 0.69999999 -0.023319334 1.2891049e-38 321 259
0.0024546667 0.69999999 -0.023319334 1.2799214e-38 322 259
0.0036872597 0.70099998 -0.023352645 1.2799214e-38 323 259
0.0049303733 0.70300001 -0.023419274 1.2614825e-38 324 259
0.0061629666 0.70300001 -0.023419274 1.2522631e-38 325 259
0.0074060797 0.704 -0.023452586 1.2522631e-38 326 259
0.0086404262 0.704 -0.023452586 1.2338242e-38 327 259
0.0098747732 0.704 -0.023452586 1.2338242e-38 328 259
0.011109119 0.704 -0.023452586 1.2338242e-38 329 259
0.012343466 0.704 -0.023452586 1.2245689e-38 330 259
0.013616386 0.70599997 -0.023519212 1.2245689e-38 331 259
0.014854239 0.70599997 -0.023519212 1.2153495e-38 332 259
0.016092092 0.70599997 -0.023519212 1.2153495e-38 333 259
0.017329946 0.70599997 -0.023519212 1.1969107e-38 334 259
0.018594101 0.70700002 -0.023552528 1.1969107e-38 335 259
0.01986176 0.708 -0.023585839 1.2060225e-38 336 259
0.021162732 0.70999998 -0.023652466 1.1875836e-38 337 259
0.022407599 0.70999998 -0.023652466 1.1691448e-38 338 259
0.023685781 0.71100003 -0.023685781 1.1598895e-38 339 259
0.024932399 0.71100003 -0.023685781 1.1507418e-38 340 259
0.026179021 0.71100003 -0.023685781 1.1231194e-38 341 259
0.027425639 0.71100003 -0.023685781 1.1140435e-38 342 259
0.028672259 0.71100003 -0.023685781 1.1140435e-38 343 259
0.029918881 0.71100003 -0.023685781 1.1047882e-38 344 259
-0.046060063 0.70999998 -0.024897331 1.2348023e-38 283 260
-0.044815198 0.70999998 -0.024897331 1.3074375e-38 284 260
-0.043570329 0.70999998 -0.024897331 1.298218e-38 285 260
-0.042325463 0.70999998 -0.024897331 1.3719003e-38 286 260
-0.041080594 0.70999998 -0.024897331 1.3626809e-38 287 260
-0.039835732 0.70999998 -0.024897331 1.3811556e-38 288 260
-0.038482159 0.708 -0.024827199 1.3811556e-38 289 260
-0.0372408 0.708 -0.024827199 1.408778e-38 290 260
-0.03599944 0.708 -0.024827199 1.4180333e-38 291 260
-0.034758076 0.708 -0.024827199 1.3997021e-38 292 260
-0.033469379 0.70700002 -0.024792133 1.4089215e-38 293 260
-0.032184184 0.70599997 -0.024757065 1.3997739e-38 294 260
-0.030858666 0.704 -0.024686933 1.3997739e-38 295 260
-0.029624319 0.704 -0.024686933 1.3997739e-38 296 260
-0.028268991 0.70099998 -0.024581732 1.3905544e-38 297 260
-0.027001332 0.69999999 -0.024546666 1.3814426e-38 298 260
-0.025773998 0.69999999 -0.024546666 1.3814426e-38 299 260
-0.024476532 0.69800001 -0.024476532 1.3905544e-38 300 260
-0.023252707 0.69800001 -0.024476532 1.3905544e-38 301 260
-0.02202888 0.69800001 -0.024476532 1.3905544e-38 302 260
-0.020864666 0.69999999 -0.024546666 1.3905544e-38 303 260
-0.019637333 0.69999999 -0.024546666 1.3812991e-38 304 260
-0.018409999 0.69999999 -0.024546666 1.3536767e-38 305 260
-0.017182667 0.69999999 -0.024546666 1.3811556e-38 306 260
-0.015909746 0.69800001 -0.024476532 1.3995586e-38 307 260
-0.01468592 0.69800001 -0.024476532 1.372008e-38 308 260
-0.013462093 0.69800001 -0.024476532 1.372008e-38 309 260
-0.012238266 0.69800001 -0.024476532 1.3627527e-38 310 260
-0.01101444 0.69800001 -0.024476532 1.3443497e-38 311 260
-0.0097906133 0.69800001 -0.024476532 1.3351303e-38 312 260
-0.0085667865 0.69800001 -0.024476532 1.3351303e-38 313 260
-0.0073429602 0.69800001 -0.024476532 1.325875e-38 314 260
-0.006119133 0.69800001 -0.024476532 1.3351303e-38 315 260
-0.0048953067 0.69800001 -0.024476532 1.3259467e-38 316 260
-0.0036819996 0.69999999 -0.024546666 1.3167273e-38 317 260
-0.0024546667 0.69999999 -0.024546666 1.2982885e-38 318 260
-0.0012273333 0.69999999 -0.024546666 1.2982885e-38 319 260
0 0.69999999 -0.024546666 1.289069e-38 320 260
0.0012273333 0.69999999 -0.024546666 1.289069e-38 321 260
0.0024546667 0.69999999 -0.024546666 1.2799214e-38 322 260
0.0036819996 0.69999999 -0.024546666 1.2615184e-38 323 260
0.0049163462 0.70099998 -0.024581732 1.2431154e-38 324 260
0.0061629666 0.70300001 -0.024651866 1.233896e-38 325 260
0.0074060797 0.704 -0.024686933 1.2430437e-38 326 260
0.0086404262 0.704 -0.024686933 1.2338242e-38 327 260
0.0098747732 0.704 -0.024686933 1.2245689e-38 328 260
0.011109119 0.704 -0.024686933 1.2245689e-38 329 260
0.012343466 0.704 -0.024686933 1.2152778e-38 330 260
0.013616386 0.70599997 -0.024757065 1.2152778e-38 331 260
0.014854239 0.70599997 -0.024757065 1.2152419e-38 332 260
0.016092092 0.70599997 -0.024757065 1.2060225e-38 333 260
0.017329946 0.70599997 -0.024757065 1.2152419e-38 334 260
0.018594101 0.70700002 -0.024792133 1.1968031e-38 335 260
0.01986176 0.708 -0.024827199 1.1875478e-38 336 260
0.021162732 0.70999998 -0.024897331 1.1599254e-38 337 260
0.022407599 0.70999998 -0.024897331 1.1598895e-38 338 260
0.023685781 0.71100003 -0.024932399 1.1598895e-38 339 260
0.024932399 0.71100003 -0.024932399 1.1506701e-38 340 260
0.026179021 0.71100003 -0.024932399 1.1506701e-38 341 260
0.027425639 0.71100003 -0.024932399 1.1139359e-38 342 260
0.028672259 0.71100003 -0.024932399 1.1231912e-38 343 260
0.029918881 0.71100003 -0.024932399 1.1415941e-38 344 260
0.031165501 0.71100003 -0.024932399 1.1692524e-38 345 260
-0.047304932 0.70999998 -0.026142199 1.3453279e-38 282 261
-0.046060063 0.70999998 -0.026142199 1.1793399e-38 283 261
-0.044815198 0.70999998 -0.026142199 1.2889614e-38 284 261
-0.043570329 0.70999998 -0.026142199 1.3258394e-38 285 261
-0.042325463 0.70999998 -0.026142199 1.3443138e-38 286 261
-0.041080594 0.70999998 -0.026142199 1.3627527e-38 287 261
-0.039723519 0.708 -0.026068559 1.372008e-38 288 261
-0.038482159 0.708 -0.026068559 1.3812274e-38 289 261
-0.0372408 0.708 -0.026068559 1.3904468e-38 290 261
-0.03599944 0.708 -0.026068559 1.3904468e-38 291 261
-0.034708988 0.70700002 -0.02603174 1.3997739e-38 292 261
-0.033422034 0.70599997 -0.025994917 1.3905544e-38 293 261
-0.032184184 0.70599997 -0.025994917 1.3997739e-38 294 261
-0.030858666 0.704 -0.02592128 1.3997739e-38 295 261
-0.029582238 0.70300001 -0.025884461 1.3814426e-38 296 261
-0.028268991 0.70099998 -0.025810819 1.3814426e-38 297 261
-0.027001332 0.69999999 -0.025773998 1.3722591e-38 298 261
-0.025773998 0.69999999 -0.025773998 1.3538561e-38 299 261
-0.024476532 0.69800001 -0.025700359 1.3538561e-38 300 261
-0.023252707 0.69800001 -0.025700359 1.3538561e-38 301 261
-0.02202888 0.69800001 -0.025700359 1.3721873e-38 302 261
-0.020864666 0.69999999 -0.025773998 1.3721873e-38 303 261
-0.019581227 0.69800001 -0.025700359 1.3537485e-38 304 261
-0.0183574 0.69800001 -0.025700359 1.3445291e-38 305 261
-0.017133573 0.69800001 -0.025700359 1.3260902e-38 306 261
-0.015909746 0.69800001 -0.025700359 1.3260902e-38 307 261
-0.01468592 0.69800001 -0.025700359 1.3444932e-38 308 261
-0.013462093 0.69800001 -0.025700359 1.3260902e-38 309 261
-0.012238266 0.69800001 -0.025700359 1.335202e-38 310 261
-0.01101444 0.69800001 -0.025700359 1.3259467e-38 311 261
-0.0097906133 0.69800001 -0.025700359 1.2983243e-38 312 261
-0.0085667865 0.69800001 -0.025700359 1.2983243e-38 313 261
-0.0073429602 0.69800001 -0.025700359 1.2891767e-38 314 261
-0.006119133 0.69800001 -0.025700359 1.2891767e-38 315 261
-0.0048953067 0.69800001 -0.025700359 1.2983243e-38 316 261
-0.0036819996 0.69999999 -0.025773998 1.2983243e-38 317 261
-0.0024546667 0.69999999 -0.025773998 1.2708096e-38 318 261
-0.0012273333 0.69999999 -0.025773998 1.2615901e-38 319 261
0 0.69999999 -0.025773998 1.2523707e-38 320 261
0.0012273333 0.69999999 -0.025773998 1.2523707e-38 321 261
0.0024546667 0.69999999 -0.025773998 1.2523348e-38 322 261
0.0036819996 0.69999999 -0.025773998 1.2431154e-38 323 261
0.0049163462 0.70099998 -0.025810819 1.2338242e-38 324 261
0.0061629666 0.70300001 -0.025884461 1.2338242e-38 325 261
0.0073955595 0.70300001 -0.025884461 1.2337884e-38 326 261
0.0086404262 0.704 -0.02592128 1.2245689e-38 327 261
0.0098747732 0.704 -0.02592128 1.2062377e-38 328 261
0.011109119 0.704 -0.02592128 1.1970183e-38 329 261
0.012343466 0.704 -0.02592128 1.1969107e-38 330 261
0.013577812 0.704 -0.02592128 1.1969107e-38 331 261
0.014812159 0.704 -0.02592128 1.1876913e-38 332 261
0.016046507 0.704 -0.02592128 1.1876913e-38 333 261
0.017329946 0.70599997 -0.025994917 1.1692883e-38 334 261
0.018594101 0.70700002 -0.02603174 1.1508853e-38 335 261
0.01986176 0.708 -0.026068559 1.14163e-38 336 261
0.021162732 0.70999998 -0.026142199 1.1324106e-38 337 261
0.022407599 0.70999998 -0.026142199 1.1323388e-38 338 261
0.023652466 0.70999998 -0.026142199 1.1323388e-38 339 261
0.024932399 0.71100003 -0.026179021 1.1506701e-38 340 261
0.026179021 0.71100003 -0.026179021 1.1414506e-38 341 261
0.027425639 0.71100003 -0.026179021 1.0956046e-38 342 261
0.028672259 0.71100003 -0.026179021 1.1048241e-38 343 261
0.029918881 0.71100003 -0.026179021 1.1048958e-38 344 261
0.031165501 0.71100003 -0.026179021 1.1141152e-38 345 261
-0.048549797 0.70999998 -0.027387066 1.4282725e-38 281 262
-0.047304932 0.70999998 -0.027387066 1.2529524e-38 282 262
-0.046060063 0.70999998 -0.027387066 1.1146231e-38 283 262
-0.044815198 0.70999998 -0.027387066 1.2614108e-38 284 262
-0.043570329 0.70999998 -0.027387066 1.289069e-38 285 262
-0.042325463 0.70999998 -0.027387066 1.3259467e-38 286 262
-0.040964879 0.708 -0.027309919 1.3351661e-38 287 262
-0.039723519 0.708 -0.027309919 1.3812274e-38 288 262
-0.038482159 0.708 -0.027309919 1.3812274e-38 289 262
-0.037188202 0.70700002 -0.027271347 1.3904468e-38 290 262
-0.035948593 0.70700002 -0.027271347 1.3812274e-38 291 262
-0.034659892 0.70599997 -0.027232772 1.3904468e-38 292 262
-0.033422034 0.70599997 -0.027232772 1.3904468e-38 293 262
-0.032093015 0.704 -0.027155625 1.3812991e-38 294 262
-0.030814834 0.70300001 -0.027117053 1.3905544e-38 295 262
-0.029498078 0.70099998 -0.027039904 1.3814426e-38 296 262
-0.028228667 0.69999999 -0.027001332 1.3721873e-38 297 262
-0.027001332 0.69999999 -0.027001332 1.3539278e-38 298 262
-0.025700359 0.69800001 -0.026924185 1.3447084e-38 299 262
-0.024476532 0.69800001 -0.026924185 1.3447084e-38 300 262
-0.023252707 0.69800001 -0.026924185 1.3447084e-38 301 262
-0.02202888 0.69800001 -0.026924185 1.3446367e-38 302 262
-0.020805053 0.69800001 -0.026924185 1.3446367e-38 303 262
-0.019581227 0.69800001 -0.026924185 1.3444932e-38 304 262
-0.0183574 0.69800001 -0.026924185 1.3260902e-38 305 262
-0.017133573 0.69800001 -0.026924185 1.335202e-38 306 262
-0.015909746 0.69800001 -0.026924185 1.335202e-38 307 262
-0.01468592 0.69800001 -0.026924185 1.335202e-38 308 262
-0.013462093 0.69800001 -0.026924185 1.3259467e-38 309 262
-0.012238266 0.69800001 -0.026924185 1.3167273e-38 310 262
-0.01101444 0.69800001 -0.026924185 1.2983243e-38 311 262
-0.0097906133 0.69800001 -0.026924185 1.289069e-38 312 262
-0.0085545136 0.69700003 -0.026885614 1.2798496e-38 313 262
-0.00733244 0.69700003 -0.026885614 1.2615184e-38 314 262
-0.0061103669 0.69700003 -0.026885614 1.2799214e-38 315 262
-0.0048953067 0.69800001 -0.026924185 1.289069e-38 316 262
-0.0036714801 0.69800001 -0.026924185 1.2798496e-38 317 262
-0.0024476533 0.69800001 -0.026924185 1.2615184e-38 318 262
-0.0012238267 0.69800001 -0.026924185 1.2615184e-38 319 262
0 0.69800001 -0.026924185 1.2523348e-38 320 262
0.0012238267 0.69800001 -0.026924185 1.2431154e-38 321 262
0.0024546667 0.69999999 -0.027001332 1.2522631e-38 322 262
0.0036819996 0.69999999 -0.027001332 1.2430437e-38 323 262
0.0049163462 0.70099998 -0.027039904 1.2337166e-38 324 262
0.0061454331 0.70099998 -0.027039904 1.2337166e-38 325 262
0.0073955595 0.70300001 -0.027117053 1.2062377e-38 326 262
0.0086281532 0.70300001 -0.027117053 1.2062377e-38 327 262
0.0098747732 0.704 -0.027155625 1.2062377e-38 328 262
0.011109119 0.704 -0.027155625 1.1970183e-38 329 262
0.012343466 0.704 -0.027155625 1.2153136e-38 330 262
0.013577812 0.704 -0.027155625 1.1969107e-38 331 262
0.014812159 0.704 -0.027155625 1.1785436e-38 332 262
0.016046507 0.704 -0.027155625 1.1692883e-38 333 262
0.017329946 0.70599997 -0.027232772 1.1508853e-38 334 262
0.018567799 0.70599997 -0.027232772 1.1508853e-38 335 262
0.019833706 0.70700002 -0.027271347 1.14163e-38 336 262
0.021103119 0.708 -0.027309919 1.1324106e-38 337 262
0.022344479 0.708 -0.027309919 1.1323388e-38 338 262
0.023652466 0.70999998 -0.027387066 1.1138641e-38 339 262
0.024932399 0.71100003 -0.027425639 1.1322312e-38 340 262
0.026179021 0.71100003 -0.027425639 1.1322312e-38 341 262
0.027425639 0.71100003 -0.027425639 1.1047164e-38 342 262
0.028631933 0.70999998 -0.027387066 1.1139359e-38 343 262
0.029876797 0.70999998 -0.027387066 1.0956046e-38 344 262
0.031121666 0.70999998 -0.027387066 1.0956046e-38 345 262
-0.048549797 0.70999998 -0.028631933 1.3176379e-38 281 263
-0.047304932 0.70999998 -0.028631933 1.050157e-38 282 263
-0.045930319 0.708 -0.02855128 1.0040592e-38 283 263
-0.044688959 0.708 -0.02855128 1.2062736e-38 284 263
-0.043447599 0.708 -0.02855128 1.2339677e-38 285 263
-0.042206239 0.708 -0.02855128 1.2983961e-38 286 263
-0.040964879 0.708 -0.02855128 1.3168349e-38 287 263
-0.039723519 0.708 -0.02855128 1.3719721e-38 288 263
-0.038427804 0.70700002 -0.028510952 1.3811915e-38 289 263
-0.037188202 0.70700002 -0.028510952 1.3628962e-38 290 263
-0.035897743 0.70599997 -0.028470624 1.3628962e-38 291 263
-0.034659892 0.70599997 -0.028470624 1.3628962e-38 292 263
-0.03332736 0.704 -0.028389972 1.3628962e-38 293 263
-0.032093015 0.704 -0.028389972 1.362932e-38 294 263
-0.030814834 0.70300001 -0.028349647 1.3721873e-38 295 263
-0.029498078 0.70099998 -0.028268991 1.3538561e-38 296 263
-0.028228667 0.69999999 -0.028228667 1.3722591e-38 297 263
-0.026924185 0.69800001 -0.028148014 1.3538561e-38 298 263
-0.025700359 0.69800001 -0.028148014 1.3722591e-38 299 263
-0.024476532 0.69800001 -0.028148014 1.3263772e-38 300 263
-0.023219392 0.69700003 -0.028107686 1.3263772e-38 301 263
-0.02199732 0.69700003 -0.028107686 1.335489e-38 302 263
-0.020805053 0.69800001 -0.028148014 1.335489e-38 303 263
-0.019581227 0.69800001 -0.028148014 1.326162e-38 304 263
-0.0183574 0.69800001 -0.028148014 1.3169425e-38 305 263
-0.017133573 0.69800001 -0.028148014 1.3259467e-38 306 263
-0.015909746 0.69800001 -0.028148014 1.3167273e-38 307 263
-0.01468592 0.69800001 -0.028148014 1.2982885e-38 308 263
-0.013462093 0.69800001 -0.028148014 1.2982885e-38 309 263
-0.012238266 0.69800001 -0.028148014 1.2891408e-38 310 263
-0.01101444 0.69800001 -0.028148014 1.2799214e-38 311 263
-0.0097906133 0.69800001 -0.028148014 1.2798496e-38 312 263
-0.0085545136 0.69700003 -0.028107686 1.2705943e-38 313 263
-0.00733244 0.69700003 -0.028107686 1.2613749e-38 314 263
-0.0061103669 0.69700003 -0.028107686 1.2705943e-38 315 263
-0.0048882933 0.69700003 -0.028107686 1.2522631e-38 316 263
-0.0036714801 0.69800001 -0.028148014 1.2522631e-38 317 263
-0.0024476533 0.69800001 -0.028148014 1.2522631e-38 318 263
-0.0012238267 0.69800001 -0.028148014 1.2522631e-38 319 263
0 0.69800001 -0.028148014 1.2431154e-38 320 263
0.0012238267 0.69800001 -0.028148014 1.233896e-38 321 263
0.0024546667 0.69999999 -0.028228667 1.2337884e-38 322 263
0.0036819996 0.69999999 -0.028228667 1.2245689e-38 323 263
0.0049163462 0.70099998 -0.028268991 1.2244972e-38 324 263
0.0061454331 0.70099998 -0.028268991 1.2244972e-38 325 263
0.0073955595 0.70300001 -0.028349647 1.2153136e-38 326 263
0.0086281532 0.70300001 -0.028349647 1.1969107e-38 327 263
0.0098607466 0.70300001 -0.028349647 1.187763e-38 328 263
0.011109119 0.704 -0.028389972 1.187763e-38 329 263
0.012343466 0.704 -0.028389972 1.1876913e-38 330 263
0.013577812 0.704 -0.028389972 1.1784718e-38 331 263
0.014812159 0.704 -0.028389972 1.1692165e-38 332 263
0.016046507 0.704 -0.028389972 1.1599971e-38 333 263
0.017329946 0.70599997 -0.028470624 1.1416659e-38 334 263
0.018567799 0.70599997 -0.028470624 1.1324465e-38 335 263
0.019833706 0.70700002 -0.028510952 1.1140794e-38 336 263
0.021103119 0.708 -0.02855128 1.0956405e-38 337 263
0.022344479 0.708 -0.02855128 1.1138641e-38 338 263
0.023652466 0.70999998 -0.028631933 1.1138641e-38 339 263
0.024932399 0.71100003 -0.028672259 1.1229759e-38 340 263
0.026179021 0.71100003 -0.028672259 1.1229759e-38 341 263
0.027425639 0.71100003 -0.028672259 1.1046447e-38 342 263
0.028631933 0.70999998 -0.028631933 1.1138641e-38 343 263
0.029876797 0.70999998 -0.028631933 1.0956046e-38 344 263
0.031121666 0.70999998 -0.028631933 1.0863852e-38 345 263
-0.048549797 0.70999998 -0.029876797 1.1516853e-38 281 264
-0.047304932 0.70999998 -0.029876797 8.4739895e-39 282 264
-0.045930319 0.708 -0.02979264 8.9349677e-39 283 264
-0.044688959 0.708 -0.02979264 1.123514e-38 284 264
-0.043447599 0.708 -0.02979264 1.1788306e-38 285 264
-0.042206239 0.708 -0.02979264 1.2616619e-38 286 264
-0.040964879 0.708 -0.02979264 1.2801007e-38 287 264
-0.039667413 0.70700002 -0.029750559 1.3168349e-38 288 264
-0.038427804 0.70700002 -0.029750559 1.3260902e-38 289 264
-0.037135597 0.70599997 -0.029708479 1.3444932e-38 290 264
-0.035897743 0.70599997 -0.029708479 1.3444932e-38 291 264
-0.034659892 0.70599997 -0.029708479 1.3444932e-38 292 264
-0.03332736 0.704 -0.029624319 1.3444932e-38 293 264
-0.032093015 0.704 -0.029624319 1.3353814e-38 294 264
-0.030727165 0.70099998 -0.029498078 1.3446008e-38 295 264
-0.029455997 0.69999999 -0.029455997 1.335489e-38 296 264
-0.028228667 0.69999999 -0.029455997 1.335489e-38 297 264
-0.026924185 0.69800001 -0.029371841 1.3171219e-38 298 264
-0.025700359 0.69800001 -0.029371841 1.3263413e-38 299 264
-0.024476532 0.69800001 -0.029371841 1.3171937e-38 300 264
-0.023219392 0.69700003 -0.02932976 1.3171937e-38 301 264
-0.02199732 0.69700003 -0.02932976 1.3171219e-38 302 264
-0.020805053 0.69800001 -0.029371841 1.3079025e-38 303 264
-0.019581227 0.69800001 -0.029371841 1.3078307e-38 304 264
-0.0183574 0.69800001 -0.029371841 1.289356e-38 305 264
-0.017133573 0.69800001 -0.029371841 1.2891767e-38 306 264
-0.015909746 0.69800001 -0.029371841 1.2891767e-38 307 264
-0.01468592 0.69800001 -0.029371841 1.2891408e-38 308 264
-0.013462093 0.69800001 -0.029371841 1.2891408e-38 309 264
-0.012238266 0.69800001 -0.029371841 1.2615543e-38 310 264
-0.01101444 0.69800001 -0.029371841 1.2523348e-38 311 264
-0.0097906133 0.69800001 -0.029371841 1.2522631e-38 312 264
-0.0085545136 0.69700003 -0.02932976 1.2430437e-38 313 264
-0.00733244 0.69700003 -0.02932976 1.2430437e-38 314 264
-0.0061103669 0.69700003 -0.02932976 1.2430437e-38 315 264
-0.0048882933 0.69700003 -0.02932976 1.2430437e-38 316 264
-0.0036714801 0.69800001 -0.029371841 1.2430437e-38 317 264
-0.0024476533 0.69800001 -0.029371841 1.233896e-38 318 264
-0.0012238267 0.69800001 -0.029371841 1.233896e-38 319 264
0 0.69800001 -0.029371841 1.233896e-38 320 264
0.0012238267 0.69800001 -0.029371841 1.2154571e-38 321 264
0.0024476533 0.69800001 -0.029371841 1.2153495e-38 322 264
0.0036819996 0.69999999 -0.029455997 1.1969465e-38 323 264
0.0049093333 0.69999999 -0.029455997 1.1969107e-38 324 264
0.0061454331 0.70099998 -0.029498078 1.1969107e-38 325 264
0.0073955595 0.70300001 -0.029582238 1.187763e-38 326 264
0.0086281532 0.70300001 -0.029582238 1.1785436e-38 327 264
0.0098607466 0.70300001 -0.029582238 1.1876913e-38 328 264
0.011109119 0.704 -0.029624319 1.1876913e-38 329 264
0.012343466 0.704 -0.029624319 1.178436e-38 330 264
0.013577812 0.704 -0.029624319 1.1692165e-38 331 264
0.014812159 0.704 -0.029624319 1.1416659e-38 332 264
0.016046507 0.704 -0.029624319 1.1416659e-38 333 264
0.017329946 0.70599997 -0.029708479 1.1324823e-38 334 264
0.018567799 0.70599997 -0.029708479 1.1140794e-38 335 264
0.019833706 0.70700002 -0.029750559 1.1231912e-38 336 264
0.021103119 0.708 -0.02979264 1.1139359e-38 337 264
0.022344479 0.708 -0.02979264 1.1047164e-38 338 264
0.023652466 0.70999998 -0.029876797 1.0863135e-38 339 264
0.024932399 0.71100003 -0.029918881 1.1046447e-38 340 264
0.026179021 0.71100003 -0.029918881 1.1046447e-38 341 264
0.027425639 0.71100003 -0.029918881 1.1047164e-38 342 264
0.028631933 0.70999998 -0.029876797 1.1139359e-38 343 264
0.029876797 0.70999998 -0.029876797 1.0956046e-38 344 264
0.031165501 0.71100003 -0.029918881 1.0863852e-38 345 264
0.032412119 0.71100003 -0.029918881 1.0863852e-38 346 264
-0.048549797 0.70999998 -0.031121666 9.2123155e-39 281 265
-0.047304932 0.70999998 -0.031121666 7.9226108e-39 282 265
-0.045930319 0.708 -0.031034 8.5679802e-39 283 265
-0.044688959 0.708 -0.031034 1.068341e-38 284 265
-0.043447599 0.708 -0.031034 1.1513163e-38 285 265
-0.042206239 0.708 -0.031034 1.2433665e-38 286 265
-0.040907022 0.70700002 -0.030990168 1.2433665e-38 287 265
-0.039667413 0.70700002 -0.030990168 1.3076155e-38 288 265
-0.038373452 0.70599997 -0.030946331 1.3168349e-38 289 265
-0.037030395 0.704 -0.030858666 1.3444214e-38 290 265
-0.035796054 0.704 -0.030858666 1.3444214e-38 291 265
-0.034561705 0.704 -0.030858666 1.3168708e-38 292 265
-0.03332736 0.704 -0.030858666 1.3260902e-38 293 265
-0.032093015 0.704 -0.030858666 1.3260902e-38 294 265
-0.030727165 0.70099998 -0.030727165 1.3444932e-38 295 265
-0.029455997 0.69999999 -0.030683333 1.3353814e-38 296 265
-0.028228667 0.69999999 -0.030683333 1.326162e-38 297 265
-0.026924185 0.69800001 -0.030595668 1.3078307e-38 298 265
-0.025700359 0.69800001 -0.030595668 1.3262337e-38 299 265
-0.024476532 0.69800001 -0.030595668 1.3079025e-38 300 265
-0.023219392 0.69700003 -0.030551834 1.3079025e-38 301 265
-0.02199732 0.69700003 -0.030551834 1.3078307e-38 302 265
-0.020805053 0.69800001 -0.030595668 1.3078307e-38 303 265
-0.019581227 0.69800001 -0.030595668 1.3169067e-38 304 265
-0.018331099 0.69700003 -0.030551834 1.2892843e-38 305 265
-0.017109027 0.69700003 -0.030551834 1.280029e-38 306 265
-0.015864158 0.69599998 -0.030507999 1.2615901e-38 307 265
-0.014643839 0.69599998 -0.030507999 1.2615901e-38 308 265
-0.013442807 0.69700003 -0.030551834 1.2615901e-38 309 265
-0.012220734 0.69700003 -0.030551834 1.2523348e-38 310 265
-0.01099866 0.69700003 -0.030551834 1.2431154e-38 311 265
-0.0097765867 0.69700003 -0.030551834 1.2338242e-38 312 265
-0.0085545136 0.69700003 -0.030551834 1.2338242e-38 313 265
-0.00733244 0.69700003 -0.030551834 1.2521555e-38 314 265
-0.0061103669 0.69700003 -0.030551834 1.2521555e-38 315 265
-0.0048953067 0.69800001 -0.030595668 1.2338242e-38 316 265
-0.0036714801 0.69800001 -0.030595668 1.2338242e-38 317 265
-0.0024476533 0.69800001 -0.030595668 1.2338242e-38 318 265
-0.0012238267 0.69800001 -0.030595668 1.2338242e-38 319 265
0 0.69800001 -0.030595668 1.2245689e-38 320 265
0.0012238267 0.69800001 -0.030595668 1.2153495e-38 321 265
0.0024476533 0.69800001 -0.030595668 1.2152419e-38 322 265
0.0036819996 0.69999999 -0.030683333 1.2152419e-38 323 265
0.0049093333 0.69999999 -0.030683333 1.1876913e-38 324 265
0.0061454331 0.70099998 -0.030727165 1.1876913e-38 325 265
0.0073745195 0.70099998 -0.030727165 1.1876913e-38 326 265
0.0086281532 0.70300001 -0.030814834 1.1876913e-38 327 265
0.0098607466 0.70300001 -0.030814834 1.1784718e-38 328 265
0.01109334 0.70300001 -0.030814834 1.1692165e-38 329 265
0.012343466 0.704 -0.030858666 1.1875478e-38 330 265
0.013577812 0.704 -0.030858666 1.1691448e-38 331 265
0.014812159 0.704 -0.030858666 1.1599612e-38 332 265
0.016046507 0.704 -0.030858666 1.1507418e-38 333 265
0.017329946 0.70599997 -0.030946331 1.1231912e-38 334 265
0.018567799 0.70599997 -0.030946331 1.1324106e-38 335 265
0.019833706 0.70700002 -0.030990168 1.1048241e-38 336 265
0.021103119 0.708 -0.031034 1.0863852e-38 337 265
0.022344479 0.708 -0.031034 1.1229759e-38 338 265
0.023652466 0.70999998 -0.031121666 1.1045371e-38 339 265
0.024932399 0.71100003 -0.031165501 1.0770582e-38 340 265
0.026179021 0.71100003 -0.031165501 1.0770582e-38 341 265
0.027425639 0.71100003 -0.031165501 1.0863135e-38 342 265
0.028672259 0.71100003 -0.031165501 1.1139359e-38 343 265
0.029918881 0.71100003 -0.031165501 1.0956764e-38 344 265
0.031165501 0.71100003 -0.031165501 1.086457e-38 345 265
0.032412119 0.71100003 -0.031165501 1.0956764e-38 346 265
-0.048549797 0.70999998 -0.032366529 8.1052476e-39 281 266
-0.047304932 0.70999998 -0.032366529 8.7487814e-39 282 266
-0.046060063 0.70999998 -0.032366529 9.0253682e-39 283 266
-0.044688959 0.708 -0.03227536 1.0405751e-38 284 266
-0.043447599 0.708 -0.03227536 1.1327697e-38 285 266
-0.042206239 0.708 -0.03227536 1.2525142e-38 286 266
-0.040907022 0.70700002 -0.032229774 1.2340754e-38 287 266
-0.039667413 0.70700002 -0.032229774 1.2708813e-38 288 266
-0.038373452 0.70599997 -0.032184184 1.2616619e-38 289 266
-0.037030395 0.704 -0.032093015 1.2708813e-38 290 266
-0.035796054 0.704 -0.032093015 1.2708813e-38 291 266
-0.034561705 0.704 -0.032093015 1.2801366e-38 292 266
-0.03332736 0.704 -0.032093015 1.2801366e-38 293 266
-0.032093015 0.704 -0.032093015 1.2801366e-38 294 266
-0.030727165 0.70099998 -0.031956252 1.289356e-38 295 266
-0.029455997 0.69999999 -0.031910665 1.2709889e-38 296 266
-0.028148014 0.69800001 -0.031819493 1.2709889e-38 297 266
-0.026924185 0.69800001 -0.031819493 1.2710607e-38 298 266
-0.025700359 0.69800001 -0.031819493 1.2618412e-38 299 266
-0.024476532 0.69800001 -0.031819493 1.2986472e-38 300 266
-0.023219392 0.69700003 -0.03177391 1.2986472e-38 301 266
-0.02199732 0.69700003 -0.03177391 1.2986831e-38 302 266
-0.020775247 0.69700003 -0.03177391 1.2894278e-38 303 266
-0.019553173 0.69700003 -0.03177391 1.289356e-38 304 266
-0.018331099 0.69700003 -0.03177391 1.2801366e-38 305 266
-0.017084479 0.69599998 -0.031728316 1.2523707e-38 306 266
-0.015864158 0.69599998 -0.031728316 1.2615901e-38 307 266
-0.014643839 0.69599998 -0.031728316 1.2340036e-38 308 266
-0.013442807 0.69700003 -0.03177391 1.2340036e-38 309 266
-0.012220734 0.69700003 -0.03177391 1.2247842e-38 310 266
-0.01099866 0.69700003 -0.03177391 1.2155289e-38 311 266
-0.0097765867 0.69700003 -0.03177391 1.233896e-38 312 266
-0.0085667865 0.69800001 -0.031819493 1.2154571e-38 313 266
-0.0073429602 0.69800001 -0.031819493 1.2062377e-38 314 266
-0.006119133 0.69800001 -0.031819493 1.2062377e-38 315 266
-0.0048953067 0.69800001 -0.031819493 1.2154571e-38 316 266
-0.0036714801 0.69800001 -0.031819493 1.2154571e-38 317 266
-0.0024476533 0.69800001 -0.031819493 1.19709e-38 318 266
-0.0012238267 0.69800001 -0.031819493 1.19709e-38 319 266
0 0.69999999 -0.031910665 1.1969107e-38 320 266
0.0012273333 0.69999999 -0.031910665 1.1969107e-38 321 266
0.0024546667 0.69999999 -0.031910665 1.1785436e-38 322 266
0.0036819996 0.69999999 -0.031910665 1.1785436e-38 323 266
0.0049163462 0.70099998 -0.031956252 1.1785436e-38 324 266
0.0061454331 0.70099998 -0.031956252 1.1785436e-38 325 266
0.0073745195 0.70099998 -0.031956252 1.1692883e-38 326 266
0.0086281532 0.70300001 -0.032047424 1.1692883e-38 327 266
0.0098607466 0.70300001 -0.032047424 1.1692883e-38 328 266
0.01109334 0.70300001 -0.032047424 1.1508853e-38 329 266
0.012343466 0.704 -0.032093015 1.1324823e-38 330 266
0.013577812 0.704 -0.032093015 1.1140794e-38 331 266
0.014812159 0.704 -0.032093015 1.1231912e-38 332 266
0.016046507 0.704 -0.032093015 1.1231912e-38 333 266
0.017329946 0.70599997 -0.032184184 1.1048599e-38 334 266
0.018567799 0.70599997 -0.032184184 1.1048599e-38 335 266
0.019833706 0.70700002 -0.032229774 1.1139359e-38 336 266
0.021103119 0.708 -0.03227536 1.0863135e-38 337 266
0.022344479 0.708 -0.03227536 1.0953894e-38 338 266
0.023652466 0.70999998 -0.032366529 1.0953894e-38 339 266
0.024932399 0.71100003 -0.032412119 1.0679105e-38 340 266
0.026179021 0.71100003 -0.032412119 1.0771299e-38 341 266
0.027425639 0.71100003 -0.032412119 1.0863852e-38 342 266
0.028672259 0.71100003 -0.032412119 1.1140794e-38 343 266
0.029918881 0.71100003 -0.032412119 1.1049317e-38 344 266
0.031165501 0.71100003 -0.032412119 1.0957123e-38 345 266
0.032412119 0.71100003 -0.032412119 1.0956764e-38 346 266
-0.048549797 0.70999998 -0.033611398 8.5644027e-39 281 267
-0.047304932 0.70999998 -0.033611398 8.6572892e-39 282 267
-0.046060063 0.70999998 -0.033611398 8.4729007e-39 283 267
-0.044688959 0.708 -0.033516716 1.0036974e-38 284 267
-0.043447599 0.708 -0.033516716 1.0958558e-38 285 267
-0.042206239 0.708 -0.033516716 1.1787947e-38 286 267
-0.040907022 0.70700002 -0.033469379 1.1880141e-38 287 267
-0.039667413 0.70700002 -0.033469379 1.2523348e-38 288 267
-0.038373452 0.70599997 -0.033422034 1.2615543e-38 289 267
-0.037030395 0.704 -0.03332736 1.2800648e-38 290 267
-0.035796054 0.704 -0.03332736 1.2892843e-38 291 267
-0.034561705 0.704 -0.03332736 1.2892843e-38 292 267
-0.03332736 0.704 -0.03332736 1.2800648e-38 293 267
-0.032047424 0.70300001 -0.033280019 1.2892843e-38 294 267
-0.030727165 0.70099998 -0.03318534 1.2800648e-38 295 267
-0.029455997 0.69999999 -0.033137999 1.2800648e-38 296 267
-0.028148014 0.69800001 -0.033043321 1.2892843e-38 297 267
-0.026924185 0.69800001 -0.033043321 1.2801366e-38 298 267
-0.025700359 0.69800001 -0.033043321 1.289356e-38 299 267
-0.024476532 0.69800001 -0.033043321 1.289356e-38 300 267
-0.023219392 0.69700003 -0.03299598 1.2985754e-38 301 267
-0.02199732 0.69700003 -0.03299598 1.2710248e-38 302 267
-0.020775247 0.69700003 -0.03299598 1.2710248e-38 303 267
-0.019553173 0.69700003 -0.03299598 1.2801366e-38 304 267
-0.018331099 0.69700003 -0.03299598 1.2616619e-38 305 267
-0.017084479 0.69599998 -0.032948639 1.2523348e-38 306 267
-0.015864158 0.69599998 -0.032948639 1.233896e-38 307 267
-0.014643839 0.69599998 -0.032948639 1.2522631e-38 308 267
-0.013423519 0.69599998 -0.032948639 1.2430437e-38 309 267
-0.012220734 0.69700003 -0.03299598 1.233896e-38 310 267
-0.01099866 0.69700003 -0.03299598 1.2154571e-38 311 267
-0.0097765867 0.69700003 -0.03299598 1.2153495e-38 312 267
-0.0085667865 0.69800001 -0.033043321 1.2153495e-38 313 267
-0.0073429602 0.69800001 -0.033043321 1.2062377e-38 314 267
-0.006119133 0.69800001 -0.033043321 1.2062377e-38 315 267
-0.0048953067 0.69800001 -0.033043321 1.2063095e-38 316 267
-0.0036714801 0.69800001 -0.033043321 1.19709e-38 317 267
-0.0024476533 0.69800001 -0.033043321 1.2062018e-38 318 267
-0.0012238267 0.69800001 -0.033043321 1.187763e-38 319 267
0 0.69999999 -0.033137999 1.1969107e-38 320 267
0.0012273333 0.69999999 -0.033137999 1.1784718e-38 321 267
0.0024546667 0.69999999 -0.033137999 1.1784718e-38 322 267
0.0036819996 0.69999999 -0.033137999 1.1876913e-38 323 267
0.0049163462 0.70099998 -0.03318534 1.1692883e-38 324 267
0.0061454331 0.70099998 -0.03318534 1.1785436e-38 325 267
0.0073745195 0.70099998 -0.03318534 1.1692883e-38 326 267
0.0086036054 0.70099998 -0.03318534 1.1692883e-38 327 267
0.0098607466 0.70300001 -0.033280019 1.1416659e-38 328 267
0.01109334 0.70300001 -0.033280019 1.1416659e-38 329 267
0.012343466 0.704 -0.03332736 1.1507418e-38 330 267
0.013577812 0.704 -0.03332736 1.1323388e-38 331 267
0.014812159 0.704 -0.03332736 1.1139359e-38 332 267
0.016046507 0.704 -0.03332736 1.1139359e-38 333 267
0.017329946 0.70599997 -0.033422034 1.1048241e-38 334 267
0.018567799 0.70599997 -0.033422034 1.0956046e-38 335 267
0.019833706 0.70700002 -0.033469379 1.0863135e-38 336 267
0.021103119 0.708 -0.033516716 1.0770941e-38 337 267
0.022344479 0.708 -0.033516716 1.0770582e-38 338 267
0.023652466 0.70999998 -0.033611398 1.0770582e-38 339 267
0.024932399 0.71100003 -0.033658739 1.0770582e-38 340 267
0.026179021 0.71100003 -0.033658739 1.0862776e-38 341 267
0.027425639 0.71100003 -0.033658739 1.0956046e-38 342 267
0.028672259 0.71100003 -0.033658739 1.1140794e-38 343 267
0.029918881 0.71100003 -0.033658739 1.1048958e-38 344 267
0.031165501 0.71100003 -0.033658739 1.1048958e-38 345 267
-0.048549797 0.70999998 -0.034856264 9.7614843e-39 281 268
-0.047304932 0.70999998 -0.034856264 8.1956006e-39 282 268
-0.046060063 0.70999998 -0.034856264 8.2877948e-39 283 268
-0.044688959 0.708 -0.034758076 9.3015726e-39 284 268
-0.043447599 0.708 -0.034758076 1.0131325e-38 285 268
-0.042206239 0.708 -0.034758076 1.1236575e-38 286 268
-0.040907022 0.70700002 -0.034708988 1.1604993e-38 287 268
-0.039667413 0.70700002 -0.034708988 1.2064171e-38 288 268
-0.038373452 0.70599997 -0.034659892 1.2248201e-38 289 268
-0.037030395 0.704 -0.034561705 1.2249635e-38 290 268
-0.035796054 0.704 -0.034561705 1.2434024e-38 291 268
-0.034561705 0.704 -0.034561705 1.2525501e-38 292 268
-0.03332736 0.704 -0.034561705 1.2433306e-38 293 268
-0.032047424 0.70300001 -0.034512613 1.2616619e-38 294 268
-0.030727165 0.70099998 -0.034414422 1.2432589e-38 295 268
-0.029498078 0.70099998 -0.034414422 1.2340754e-38 296 268
-0.028228667 0.69999999 -0.034365334 1.2525501e-38 297 268
-0.026924185 0.69800001 -0.034267146 1.2249994e-38 298 268
-0.025700359 0.69800001 -0.034267146 1.2249994e-38 299 268
-0.024476532 0.69800001 -0.034267146 1.2434024e-38 300 268
-0.023252707 0.69800001 -0.034267146 1.2434024e-38 301 268
-0.02199732 0.69700003 -0.034218054 1.2433306e-38 302 268
-0.020775247 0.69700003 -0.034218054 1.2340754e-38 303 268
-0.019581227 0.69800001 -0.034267146 1.2432589e-38 304 268
-0.0183574 0.69800001 -0.034267146 1.2340036e-38 305 268
-0.017109027 0.69700003 -0.034218054 1.233896e-38 306 268
-0.015864158 0.69599998 -0.034168959 1.215493e-38 307 268
-0.014643839 0.69599998 -0.034168959 1.2062377e-38 308 268
-0.013423519 0.69599998 -0.034168959 1.2062377e-38 309 268
-0.012220734 0.69700003 -0.034218054 1.1786512e-38 310 268
-0.01099866 0.69700003 -0.034218054 1.1694318e-38 311 268
-0.0097765867 0.69700003 -0.034218054 1.187763e-38 312 268
-0.0085667865 0.69800001 -0.034267146 1.187763e-38 313 268
-0.0073429602 0.69800001 -0.034267146 1.187763e-38 314 268
-0.006119133 0.69800001 -0.034267146 1.1969824e-38 315 268
-0.0048953067 0.69800001 -0.034267146 1.1787229e-38 316 268
-0.0036714801 0.69800001 -0.034267146 1.1695035e-38 317 268
-0.0024476533 0.69800001 -0.034267146 1.1694318e-38 318 268
-0.0012238267 0.69800001 -0.034267146 1.1602124e-38 319 268
0 0.69999999 -0.034365334 1.1692883e-38 320 268
0.0012273333 0.69999999 -0.034365334 1.1692883e-38 321 268
0.0024546667 0.69999999 -0.034365334 1.1509571e-38 322 268
0.0036819996 0.69999999 -0.034365334 1.1601765e-38 323 268
0.0049093333 0.69999999 -0.034365334 1.1508853e-38 324 268
0.0061454331 0.70099998 -0.034414422 1.1508853e-38 325 268
0.0073745195 0.70099998 -0.034414422 1.1508853e-38 326 268
0.0086036054 0.70099998 -0.034414422 1.1416659e-38 327 268
0.0098607466 0.70300001 -0.034512613 1.1324106e-38 328 268
0.01109334 0.70300001 -0.034512613 1.1324106e-38 329 268
0.012343466 0.704 -0.034561705 1.1048241e-38 330 268
0.013577812 0.704 -0.034561705 1.0956046e-38 331 268
0.014812159 0.704 -0.034561705 1.1139359e-38 332 268
0.016046507 0.704 -0.034561705 1.1139359e-38 333 268
0.017329946 0.70599997 -0.034659892 1.0956046e-38 334 268
0.018567799 0.70599997 -0.034659892 1.0863852e-38 335 268
0.019833706 0.70700002 -0.034708988 1.0863135e-38 336 268
0.021073313 0.70700002 -0.034708988 1.0770941e-38 337 268
0.022344479 0.708 -0.034758076 1.0679105e-38 338 268
0.023652466 0.70999998 -0.034856264 1.0771299e-38 339 268
0.024932399 0.71100003 -0.034905359 1.0587987e-38 340 268
0.026252659 0.713 -0.035003547 1.0587987e-38 341 268
0.027425639 0.71100003 -0.034905359 1.0773452e-38 342 268
0.028672259 0.71100003 -0.034905359 1.095784e-38 343 268
0.029918881 0.71100003 -0.034905359 1.1140435e-38 344 268
-0.048549797 0.70999998 -0.036101133 1.1515023e-38 281 269
-0.047304932 0.70999998 -0.036101133 9.2075889e-39 282 269
-0.046060063 0.70999998 -0.036101133 8.3778366e-39 283 269
-0.044688959 0.708 -0.03599944 9.3916144e-39 284 269
-0.043447599 0.708 -0.03599944 1.0405392e-38 285 269
-0.042206239 0.708 -0.03599944 1.1511364e-38 286 269
-0.040964879 0.708 -0.03599944 1.1787947e-38 287 269
-0.039667413 0.70700002 -0.035948593 1.2064171e-38 288 269
-0.038373452 0.70599997 -0.035897743 1.2248201e-38 289 269
-0.037135597 0.70599997 -0.035897743 1.2340754e-38 290 269
-0.035897743 0.70599997 -0.035897743 1.2340754e-38 291 269
-0.034561705 0.704 -0.035796054 1.2432589e-38 292 269
-0.03332736 0.704 -0.035796054 1.2432589e-38 293 269
-0.032047424 0.70300001 -0.035745207 1.2340036e-38 294 269
-0.030727165 0.70099998 -0.035643511 1.2432589e-38 295 269
-0.029455997 0.69999999 -0.035592664 1.2340036e-38 296 269
-0.028228667 0.69999999 -0.035592664 1.2432589e-38 297 269
-0.026924185 0.69800001 -0.035490975 1.2340754e-38 298 269
-0.025700359 0.69800001 -0.035490975 1.2340754e-38 299 269
-0.024476532 0.69800001 -0.035490975 1.2340754e-38 300 269
-0.023252707 0.69800001 -0.035490975 1.2340754e-38 301 269
-0.02199732 0.69700003 -0.035440128 1.2431154e-38 302 269
-0.020775247 0.69700003 -0.035440128 1.2431154e-38 303 269
-0.019581227 0.69800001 -0.035490975 1.2431154e-38 304 269
-0.0183574 0.69800001 -0.035490975 1.233896e-38 305 269
-0.017133573 0.69800001 -0.035490975 1.2154571e-38 306 269
-0.015864158 0.69599998 -0.035389278 1.2062377e-38 307 269
-0.014643839 0.69599998 -0.035389278 1.1969824e-38 308 269
-0.013423519 0.69599998 -0.035389278 1.1969824e-38 309 269
-0.012220734 0.69700003 -0.035440128 1.1785436e-38 310 269
-0.01099866 0.69700003 -0.035440128 1.1785436e-38 311 269
-0.0097765867 0.69700003 -0.035440128 1.1876913e-38 312 269
-0.0085667865 0.69800001 -0.035490975 1.1876913e-38 313 269
-0.0073429602 0.69800001 -0.035490975 1.1694318e-38 314 269
-0.006119133 0.69800001 -0.035490975 1.1694318e-38 315 269
-0.0048953067 0.69800001 -0.035490975 1.1694318e-38 316 269
-0.0036714801 0.69800001 -0.035490975 1.1601765e-38 317 269
-0.0024476533 0.69800001 -0.035490975 1.1785436e-38 318 269
-0.0012238267 0.69800001 -0.035490975 1.1692883e-38 319 269
0 0.69999999 -0.035592664 1.1692883e-38 320 269
0.0012273333 0.69999999 -0.035592664 1.1508853e-38 321 269
0.0024546667 0.69999999 -0.035592664 1.1417376e-38 322 269
0.0036819996 0.69999999 -0.035592664 1.1509571e-38 323 269
0.0049093333 0.69999999 -0.035592664 1.1416659e-38 324 269
0.0061454331 0.70099998 -0.035643511 1.1416659e-38 325 269
0.0073745195 0.70099998 -0.035643511 1.1416659e-38 326 269
0.0086281532 0.70300001 -0.035745207 1.1324465e-38 327 269
0.0098607466 0.70300001 -0.035745207 1.1231912e-38 328 269
0.01109334 0.70300001 -0.035745207 1.1231912e-38 329 269
0.012343466 0.704 -0.035796054 1.1139359e-38 330 269
0.013577812 0.704 -0.035796054 1.1139359e-38 331 269
0.014812159 0.704 -0.035796054 1.1139359e-38 332 269
0.016046507 0.704 -0.035796054 1.1047164e-38 333 269
0.017329946 0.70599997 -0.035897743 1.1047164e-38 334 269
0.018567799 0.70599997 -0.035897743 1.1047164e-38 335 269
0.019833706 0.70700002 -0.035948593 1.0770941e-38 336 269
0.021073313 0.70700002 -0.035948593 1.0770941e-38 337 269
0.022344479 0.708 -0.03599944 1.0679105e-38 338 269
0.023652466 0.70999998 -0.036101133 1.0771299e-38 339 269
0.024932399 0.71100003 -0.036151983 1.0680181e-38 340 269
0.026252659 0.713 -0.036253672 1.0680181e-38 341 269
0.027502786 0.713 -0.036253672 1.0773452e-38 342 269
0.028752912 0.713 -0.036253672 1.095784e-38 343 269
0.030003037 0.713 -0.036253672 1.1140076e-38 344 269
-0.048549797 0.70999998 -0.037345998 1.3728091e-38 281 270
-0.047304932 0.70999998 -0.037345998 1.2618834e-38 282 270
-0.046060063 0.70999998 -0.037345998 1.0590529e-38 283 270
-0.044815198 0.70999998 -0.037345998 1.0405033e-38 284 270
-0.043570329 0.70999998 -0.037345998 1.1050393e-38 285 270
-0.042206239 0.708 -0.0372408 1.1603917e-38 286 270
-0.040964879 0.708 -0.0372408 1.1880141e-38 287 270
-0.039667413 0.70700002 -0.037188202 1.1972694e-38 288 270
-0.038427804 0.70700002 -0.037188202 1.1972694e-38 289 270
-0.037135597 0.70599997 -0.037135597 1.2248559e-38 290 270
-0.035897743 0.70599997 -0.037135597 1.2248559e-38 291 270
-0.034561705 0.704 -0.037030395 1.2340036e-38 292 270
-0.03332736 0.704 -0.037030395 1.2340036e-38 293 270
-0.032047424 0.70300001 -0.036977798 1.2247842e-38 294 270
-0.030727165 0.70099998 -0.036872596 1.2247842e-38 295 270
-0.029455997 0.69999999 -0.036819998 1.2248559e-38 296 270
-0.028228667 0.69999999 -0.036819998 1.2248559e-38 297 270
-0.026924185 0.69800001 -0.0367148 1.2248559e-38 298 270
-0.025700359 0.69800001 -0.0367148 1.2248559e-38 299 270
-0.024476532 0.69800001 -0.0367148 1.2248559e-38 300 270
-0.023252707 0.69800001 -0.0367148 1.206453e-38 301 270
-0.02199732 0.69700003 -0.036662199 1.2155289e-38 302 270
-0.020775247 0.69700003 -0.036662199 1.2063095e-38 303 270
-0.019581227 0.69800001 -0.0367148 1.2155289e-38 304 270
-0.0183574 0.69800001 -0.0367148 1.2063095e-38 305 270
-0.017133573 0.69800001 -0.0367148 1.19709e-38 306 270
-0.015864158 0.69599998 -0.036609598 1.19709e-38 307 270
-0.014643839 0.69599998 -0.036609598 1.1694318e-38 308 270
-0.013423519 0.69599998 -0.036609598 1.1694318e-38 309 270
-0.012238266 0.69800001 -0.0367148 1.1509571e-38 310 270
-0.01099866 0.69700003 -0.036662199 1.1601765e-38 311 270
-0.0097765867 0.69700003 -0.036662199 1.1418453e-38 312 270
-0.0085667865 0.69800001 -0.0367148 1.1418453e-38 313 270
-0.0073429602 0.69800001 -0.0367148 1.1602482e-38 314 270
-0.006119133 0.69800001 -0.0367148 1.1418453e-38 315 270
-0.0048953067 0.69800001 -0.0367148 1.1601765e-38 316 270
-0.0036714801 0.69800001 -0.0367148 1.1509571e-38 317 270
-0.0024476533 0.69800001 -0.0367148 1.1692883e-38 318 270
-0.0012273333 0.69999999 -0.036819998 1.1692883e-38 319 270
0 0.69999999 -0.036819998 1.1508853e-38 320 270
0.0012273333 0.69999999 -0.036819998 1.1416659e-38 321 270
0.0024581731 0.70099998 -0.036872596 1.1324823e-38 322 270
0.0036872597 0.70099998 -0.036872596 1.1324823e-38 323 270
0.0049163462 0.70099998 -0.036872596 1.1416659e-38 324 270
0.0061454331 0.70099998 -0.036872596 1.1324465e-38 325 270
0.0073745195 0.70099998 -0.036872596 1.1231912e-38 326 270
0.0086281532 0.70300001 -0.036977798 1.1231912e-38 327 270
0.0098607466 0.70300001 -0.036977798 1.1231912e-38 328 270
0.01109334 0.70300001 -0.036977798 1.1139359e-38 329 270
0.012343466 0.704 -0.037030395 1.1047164e-38 330 270
0.013577812 0.704 -0.037030395 1.1047164e-38 331 270
0.014812159 0.704 -0.037030395 1.0863135e-38 332 270
0.016092092 0.70599997 -0.037135597 1.0863135e-38 333 270
0.017329946 0.70599997 -0.037135597 1.0863135e-38 334 270
0.018567799 0.70599997 -0.037135597 1.0863135e-38 335 270
0.019833706 0.70700002 -0.037188202 1.0679105e-38 336 270
0.021073313 0.70700002 -0.037188202 1.0679105e-38 337 270
0.022344479 0.708 -0.0372408 1.0679105e-38 338 270
0.023652466 0.70999998 -0.037345998 1.0863493e-38 339 270
0.025002534 0.713 -0.037503798 1.086457e-38 340 270
0.026252659 0.713 -0.037503798 1.0956764e-38 341 270
0.02754136 0.71399999 -0.037556399 1.1140435e-38 342 270
0.028793238 0.71399999 -0.037556399 1.1324465e-38 343 270
0.030045118 0.71399999 -0.037556399 1.1602505e-38 344 270
-0.047304932 0.70999998 -0.038590867 1.4648598e-38 282 271
-0.046060063 0.70999998 -0.038590867 1.3081273e-38 283 271
-0.044815198 0.70999998 -0.038590867 1.2065268e-38 284 271
-0.043570329 0.70999998 -0.038590867 1.1419899e-38 285 271
-0.042206239 0.708 -0.038482159 1.18805e-38 286 271
-0.040964879 0.708 -0.038482159 1.1972694e-38 287 271
-0.039723519 0.708 -0.038482159 1.18805e-38 288 271
-0.038427804 0.70700002 -0.038427804 1.1973053e-38 289 271
-0.037188202 0.70700002 -0.038427804 1.2248559e-38 290 271
-0.035897743 0.70599997 -0.038373452 1.2248559e-38 291 271
-0.034659892 0.70599997 -0.038373452 1.2340036e-38 292 271
-0.03332736 0.704 -0.038264744 1.2340036e-38 293 271
-0.032093015 0.704 -0.038264744 1.2248559e-38 294 271
-0.030727165 0.70099998 -0.038101684 1.2248559e-38 295 271
-0.029498078 0.70099998 -0.038101684 1.2248559e-38 296 271
-0.028228667 0.69999999 -0.038047329 1.2248559e-38 297 271
-0.026924185 0.69800001 -0.037938625 1.2248559e-38 298 271
-0.025700359 0.69800001 -0.037938625 1.2248559e-38 299 271
-0.024476532 0.69800001 -0.037938625 1.2247842e-38 300 271
-0.023252707 0.69800001 -0.037938625 1.2155289e-38 301 271
-0.02202888 0.69800001 -0.037938625 1.2063095e-38 302 271
-0.020805053 0.69800001 -0.037938625 1.19709e-38 303 271
-0.019581227 0.69800001 -0.037938625 1.19709e-38 304 271
-0.0183574 0.69800001 -0.037938625 1.19709e-38 305 271
-0.017133573 0.69800001 -0.037938625 1.1695035e-38 306 271
-0.015909746 0.69800001 -0.037938625 1.1695035e-38 307 271
-0.01466488 0.69700003 -0.037884273 1.1694318e-38 308 271
-0.013442807 0.69700003 -0.037884273 1.1694318e-38 309 271
-0.012238266 0.69800001 -0.037938625 1.1692883e-38 310 271
-0.01101444 0.69800001 -0.037938625 1.1692883e-38 311 271
-0.0097906133 0.69800001 -0.037938625 1.1601765e-38 312 271
-0.0085667865 0.69800001 -0.037938625 1.1509571e-38 313 271
-0.0073429602 0.69800001 -0.037938625 1.1326258e-38 314 271
-0.006119133 0.69800001 -0.037938625 1.1326258e-38 315 271
-0.0048953067 0.69800001 -0.037938625 1.1509571e-38 316 271
-0.0036714801 0.69800001 -0.037938625 1.1509571e-38 317 271
-0.0024546667 0.69999999 -0.038047329 1.1509571e-38 318 271
-0.0012273333 0.69999999 -0.038047329 1.1417376e-38 319 271
0 0.69999999 -0.038047329 1.1416659e-38 320 271
0.0012290865 0.70099998 -0.038101684 1.1416659e-38 321 271
0.0024581731 0.70099998 -0.038101684 1.1324465e-38 322 271
0.0036872597 0.70099998 -0.038101684 1.1416659e-38 323 271
0.0049163462 0.70099998 -0.038101684 1.1324823e-38 324 271
0.0061629666 0.70300001 -0.038210396 1.1324823e-38 325 271
0.0073955595 0.70300001 -0.038210396 1.1507418e-38 326 271
0.0086281532 0.70300001 -0.038210396 1.1323388e-38 327 271
0.0098747732 0.704 -0.038264744 1.1323388e-38 328 271
0.011109119 0.704 -0.038264744 1.1231194e-38 329 271
0.012343466 0.704 -0.038264744 1.1047164e-38 330 271
0.013616386 0.70599997 -0.038373452 1.1047164e-38 331 271
0.014854239 0.70599997 -0.038373452 1.0863135e-38 332 271
0.016092092 0.70599997 -0.038373452 1.0863135e-38 333 271
0.017329946 0.70599997 -0.038373452 1.0863135e-38 334 271
