# .PCD v.7 - Point Cloud Data file format
FIELDS x y z rgb imX imY
SIZE 4 4 4 4 4 4
TYPE F F F F F F
COUNT 1 1 1 1 1 1
WIDTH 840
HEIGHT 1
VIEWPOINT 0 0 0 1 0 0 0
POINTS 840
DATA ascii
-0.0125714 0.71700001 -0.013828539 2.1843845e-38 310 251
-0.01134582 0.71899998 -0.013867113 2.1382867e-38 311 251
-0.010127253 0.722 -0.013924973 2.1658728e-38 312 251
-0.0088736191 0.72299999 -0.01394426 2.1934956e-38 313 251
-0.0076059597 0.72299999 -0.01394426 2.2118632e-38 314 251
-0.0063382997 0.72299999 -0.01394426 2.1842043e-38 315 251
-0.0050846669 0.72500002 -0.013982833 2.1750572e-38 316 251
-0.0038135003 0.72500002 -0.013982833 2.156618e-38 317 251
-0.0025423334 0.72500002 -0.013982833 2.1013373e-38 318 251
-0.0012746733 0.727 -0.014021406 2.1105927e-38 319 251
0 0.72799999 -0.014040692 2.1658022e-38 320 251
0.0012764266 0.72799999 -0.014040692 2.2026805e-38 321 251
0.0025598668 0.73000002 -0.014079267 2.1933887e-38 322 251
0.0038397999 0.73000002 -0.014079267 2.1196321e-38 323 251
0.0051197335 0.73000002 -0.014079267 1.9815186e-38 324 251
0.006575 0.75 -0.014465 1.8524447e-38 325 251
0.0078794798 0.74900001 -0.014445714 1.8064911e-38 326 251
0.0091927266 0.74900001 -0.014445714 1.8064911e-38 327 251
0.010505973 0.74900001 -0.014445714 1.8158907e-38 328 251
0.01181922 0.74900001 -0.014445714 1.8896472e-38 329 251
0.013132467 0.74900001 -0.014445714 2.0275808e-38 330 251
0.014445714 0.74900001 -0.014445714 2.0460558e-38 331 251
0.01575896 0.74900001 -0.014445714 2.0458756e-38 332 251
0.017072206 0.74900001 -0.014445714 2.0089975e-38 333 251
0.018409999 0.75 -0.014465 1.9079418e-38 334 251
0.019724999 0.75 -0.014465 1.8895027e-38 335 251
0.02104 0.75 -0.014465 1.6964684e-38 336 251
0.022414612 0.75199997 -0.014503572 1.6872487e-38 337 251
0.02379624 0.75400001 -0.014542146 1.6690261e-38 338 251
0.025151566 0.755 -0.014561433 1.6598065e-38 339 251
0.026475333 0.755 -0.014561433 1.6873933e-38 340 251
0.027799098 0.755 -0.014561433 1.7795529e-38 341 251
0.029122867 0.755 -0.014561433 1.9537132e-38 342 251
0.030446632 0.755 -0.014561433 1.8430784e-38 343 251
0.031770397 0.755 -0.014561433 1.8798453e-38 344 251
0.033181835 0.75700003 -0.014600007 1.8798453e-38 345 251
-0.040789545 0.727 -0.015296079 2.1843861e-38 288 252
-0.039514873 0.727 -0.015296079 2.1843861e-38 289 252
-0.038240198 0.727 -0.015296079 2.1567641e-38 290 252
-0.036965527 0.727 -0.015296079 2.1660195e-38 291 252
-0.035592668 0.72500002 -0.015254001 2.157161e-38 292 252
-0.034321502 0.72500002 -0.015254001 2.2124783e-38 293 252
-0.032959159 0.72299999 -0.015211919 2.1571612e-38 294 252
-0.031647664 0.722 -0.015190879 2.1294667e-38 295 252
-0.030381758 0.722 -0.015190879 2.1018439e-38 296 252
-0.029115854 0.722 -0.015190879 2.0926243e-38 297 252
-0.027849946 0.722 -0.015190879 2.083441e-38 298 252
-0.026510401 0.72000003 -0.0151488 2.0373434e-38 299 252
-0.025248 0.72000003 -0.0151488 2.0467433e-38 300 252
-0.023952285 0.71899998 -0.01512776 2.1112802e-38 301 252
-0.022691639 0.71899998 -0.01512776 2.1573412e-38 302 252
-0.021430992 0.71899998 -0.01512776 2.1849638e-38 303 252
-0.020114239 0.71700001 -0.015085679 2.1480486e-38 304 252
-0.018857099 0.71700001 -0.015085679 2.1019509e-38 305 252
-0.017599959 0.71700001 -0.015085679 2.1938224e-38 306 252
-0.016342819 0.71700001 -0.015085679 2.2122616e-38 307 252
-0.015085679 0.71700001 -0.015085679 2.2674339e-38 308 252
-0.013809253 0.71600002 -0.01506464 2.2121165e-38 309 252
-0.012553867 0.71600002 -0.01506464 2.2118634e-38 310 252
-0.01131426 0.71700001 -0.015085679 2.1473265e-38 311 252
-0.010085173 0.71899998 -0.01512776 2.0922965e-38 312 252
-0.0088367993 0.72000003 -0.0151488 2.0553823e-38 313 252
-0.0075954394 0.722 -0.015190879 2.0922612e-38 314 252
-0.0063382997 0.72299999 -0.015211919 2.1475786e-38 315 252
-0.0050706398 0.72299999 -0.015211919 2.2118281e-38 316 252
-0.0038135003 0.72500002 -0.015254001 2.1841693e-38 317 252
-0.0025423334 0.72500002 -0.015254001 2.1105208e-38 318 252
-0.0012711667 0.72500002 -0.015254001 2.0828261e-38 319 252
0 0.727 -0.015296079 2.1290672e-38 320 252
0.0012764266 0.72799999 -0.01531712 2.1936041e-38 321 252
0.0025528532 0.72799999 -0.01531712 2.2118632e-38 322 252
0.0038292799 0.72799999 -0.01531712 2.1749848e-38 323 252
0.0051057064 0.72799999 -0.01531712 2.0920457e-38 324 252
0.0063821329 0.72799999 -0.01531712 1.9629718e-38 325 252
0.0078794798 0.74900001 -0.01575896 1.8799239e-38 326 252
0.0091681797 0.74699998 -0.015716879 1.8153869e-38 327 252
0.010477919 0.74699998 -0.015716879 1.7513535e-38 328 252
0.01181922 0.74900001 -0.01575896 1.8066708e-38 329 252
0.013132467 0.74900001 -0.01575896 1.898687e-38 330 252
0.014445714 0.74900001 -0.01575896 1.9632239e-38 331 252
0.01575896 0.74900001 -0.01575896 1.9907384e-38 332 252
0.017072206 0.74900001 -0.01575896 1.9815188e-38 333 252
0.018385453 0.74900001 -0.01575896 1.9538595e-38 334 252
0.019724999 0.75 -0.01578 1.9169813e-38 335 252
0.02104 0.75 -0.01578 1.7883393e-38 336 252
0.022355 0.75 -0.01578 1.7791198e-38 337 252
0.023733119 0.75199997 -0.015822079 1.7607535e-38 338 252
0.025118252 0.75400001 -0.01586416 1.7422785e-38 339 252
0.026475333 0.755 -0.015885198 1.7332037e-38 340 252
0.027799098 0.755 -0.015885198 1.7793015e-38 341 252
0.029122867 0.755 -0.015885198 1.8156753e-38 342 252
0.030446632 0.755 -0.015885198 1.6313199e-38 343 252
0.031854562 0.75700003 -0.015927281 1.7324456e-38 344 252
0.033181835 0.75700003 -0.015927281 2.0090684e-38 345 252
-0.042122077 0.72799999 -0.016593546 2.1935338e-38 287 253
-0.040789545 0.727 -0.016570752 2.1934984e-38 288 253
-0.039514873 0.727 -0.016570752 2.202718e-38 289 253
-0.038240198 0.727 -0.016570752 2.1755278e-38 290 253
-0.036965527 0.727 -0.016570752 2.193967e-38 291 253
-0.035592668 0.72500002 -0.016525166 2.1756727e-38 292 253
-0.034321502 0.72500002 -0.016525166 2.147978e-38 293 253
-0.032959159 0.72299999 -0.01647958 2.055603e-38 294 253
-0.031647664 0.722 -0.016456785 2.009541e-38 295 253
-0.030381758 0.722 -0.016456785 1.9912458e-38 296 253
-0.029115854 0.722 -0.016456785 1.9820263e-38 297 253
-0.027849946 0.722 -0.016456785 1.9544752e-38 298 253
-0.026510401 0.72000003 -0.0164112 1.9544752e-38 299 253
-0.025248 0.72000003 -0.0164112 1.98199e-38 300 253
-0.023952285 0.71899998 -0.016388407 1.9635148e-38 301 253
-0.022691639 0.71899998 -0.016388407 1.9727348e-38 302 253
-0.021371379 0.71700001 -0.016342819 2.0003575e-38 303 253
-0.020114239 0.71700001 -0.016342819 1.9729865e-38 304 253
-0.018857099 0.71700001 -0.016342819 2.0006452e-38 305 253
-0.017599959 0.71700001 -0.016342819 2.0745096e-38 306 253
-0.016320027 0.71600002 -0.016320027 2.1298269e-38 307 253
-0.01506464 0.71600002 -0.016320027 2.1664881e-38 308 253
-0.013809253 0.71600002 -0.016320027 2.1296099e-38 309 253
-0.012553867 0.71600002 -0.016320027 2.26729e-38 310 253
-0.01129848 0.71600002 -0.016320027 2.202753e-38 311 253
-0.01005712 0.71700001 -0.016342819 2.1383233e-38 312 253
-0.0088245263 0.71899998 -0.016388407 2.0645668e-38 313 253
-0.0075743999 0.72000003 -0.0164112 2.0644949e-38 314 253
-0.0063295332 0.722 -0.016456785 2.1013373e-38 315 253
-0.0050706398 0.72299999 -0.01647958 2.2208682e-38 316 253
-0.0038029798 0.72299999 -0.01647958 2.2577104e-38 317 253
-0.0025423334 0.72500002 -0.016525166 2.1840618e-38 318 253
-0.0012711667 0.72500002 -0.016525166 2.1471836e-38 319 253
0 0.727 -0.016570752 2.0828261e-38 320 253
0.0012746733 0.727 -0.016570752 2.0828261e-38 321 253
0.0025528532 0.72799999 -0.016593546 2.1195599e-38 322 253
0.0038292799 0.72799999 -0.016593546 2.1288154e-38 323 253
0.0051057064 0.72799999 -0.016593546 2.1288518e-38 324 253
0.0063996664 0.73000002 -0.016639132 2.0550953e-38 325 253
0.0078794798 0.74900001 -0.017072206 1.9720835e-38 326 253
0.0091681797 0.74699998 -0.017026618 1.8614847e-38 327 253
0.010477919 0.74699998 -0.017026618 1.7512816e-38 328 253
0.011787659 0.74699998 -0.017026618 1.7696847e-38 329 253
0.013132467 0.74900001 -0.017072206 1.806599e-38 330 253
0.014445714 0.74900001 -0.017072206 1.8526968e-38 331 253
0.015716879 0.74699998 -0.017026618 1.9355647e-38 332 253
0.017026618 0.74699998 -0.017026618 1.9540397e-38 333 253
0.018385453 0.74900001 -0.017072206 1.9354563e-38 334 253
0.0196987 0.74900001 -0.017072206 1.9077618e-38 335 253
0.021011947 0.74900001 -0.017072206 1.8893228e-38 336 253
0.022355 0.75 -0.017095 1.8985425e-38 337 253
0.023669999 0.75 -0.017095 1.8985072e-38 338 253
0.025118252 0.75400001 -0.017186172 1.8985072e-38 339 253
0.026440267 0.75400001 -0.017186172 1.8892519e-38 340 253
0.027799098 0.755 -0.017208965 1.8708488e-38 341 253
0.029122867 0.755 -0.017208965 1.8065992e-38 342 253
0.030446632 0.755 -0.017208965 1.769685e-38 343 253
0.031854562 0.75700003 -0.017254554 1.7694686e-38 344 253
-0.043398503 0.72799999 -0.017869972 2.1843508e-38 286 254
-0.042122077 0.72799999 -0.017869972 2.1751312e-38 287 254
-0.040845651 0.72799999 -0.017869972 2.1843155e-38 288 254
-0.039514873 0.727 -0.017845426 2.2212297e-38 289 254
-0.038240198 0.727 -0.017845426 2.1663452e-38 290 254
-0.036965527 0.727 -0.017845426 2.2032235e-38 291 254
-0.035690852 0.727 -0.017845426 2.1018809e-38 292 254
-0.034321502 0.72500002 -0.017796334 2.0465635e-38 293 254
-0.033050332 0.72500002 -0.017796334 2.0095773e-38 294 254
-0.031691495 0.72299999 -0.017747238 2.0095773e-38 295 254
-0.030381758 0.722 -0.017722692 1.9912464e-38 296 254
-0.029115854 0.722 -0.017722692 1.9819909e-38 297 254
-0.027849946 0.722 -0.017722692 1.9819546e-38 298 254
-0.026584039 0.722 -0.017722692 1.9819546e-38 299 254
-0.025248 0.72000003 -0.017673599 2.0187603e-38 300 254
-0.023952285 0.71899998 -0.017649053 2.0095408e-38 301 254
-0.022691639 0.71899998 -0.017649053 2.0003212e-38 302 254
-0.021371379 0.71700001 -0.017599959 2.0003212e-38 303 254
-0.020114239 0.71700001 -0.017599959 1.9636597e-38 304 254
-0.0188308 0.71600002 -0.017575413 1.9913183e-38 305 254
-0.017575413 0.71600002 -0.017575413 2.0100095e-38 306 254
-0.016320027 0.71600002 -0.017575413 2.1943649e-38 307 254
-0.01506464 0.71600002 -0.017575413 2.221915e-38 308 254
-0.013809253 0.71600002 -0.017575413 2.221915e-38 309 254
-0.012553867 0.71600002 -0.017575413 2.2308093e-38 310 254
-0.01129848 0.71600002 -0.017575413 2.1662723e-38 311 254
-0.010043093 0.71600002 -0.017575413 2.1751309e-38 312 254
-0.0087999795 0.71700001 -0.017599959 2.0921909e-38 313 254
-0.0075428397 0.71700001 -0.017599959 2.1013376e-38 314 254
-0.0063032326 0.71899998 -0.017649053 2.0828983e-38 315 254
-0.0050636264 0.722 -0.017722692 2.1563675e-38 316 254
-0.0038029798 0.72299999 -0.017747238 2.2209045e-38 317 254
-0.0025353199 0.72299999 -0.017747238 2.1658745e-38 318 254
-0.0012676599 0.72299999 -0.017747238 2.1197767e-38 319 254
0 0.72299999 -0.017747238 2.0828264e-38 320 254
0.0012711667 0.72500002 -0.017796334 2.0736069e-38 321 254
0.0025493465 0.727 -0.017845426 2.0552398e-38 322 254
0.0038240198 0.727 -0.017845426 2.0644952e-38 323 254
0.0050986931 0.727 -0.017845426 2.1196325e-38 324 254
0.0063821329 0.72799999 -0.017869972 2.0827543e-38 325 254
0.0076585598 0.72799999 -0.017869972 2.0458405e-38 326 254
0.0091559067 0.74599999 -0.018311813 1.9167667e-38 327 254
0.010463892 0.74599999 -0.018311813 1.8248586e-38 328 254
0.011787659 0.74699998 -0.018336359 1.8064193e-38 329 254
0.013097399 0.74699998 -0.018336359 1.8064908e-38 330 254
0.014407139 0.74699998 -0.018336359 1.8434049e-38 331 254
0.015716879 0.74699998 -0.018336359 1.8894308e-38 332 254
0.017026618 0.74699998 -0.018336359 1.9354926e-38 333 254
0.018336359 0.74699998 -0.018336359 1.9169816e-38 334 254
0.019646099 0.74699998 -0.018336359 1.9077621e-38 335 254
0.021011947 0.74900001 -0.018385453 1.8985422e-38 336 254
0.022325192 0.74900001 -0.018385453 1.8893225e-38 337 254
0.023669999 0.75 -0.018409999 1.8892872e-38 338 254
0.025051624 0.75199997 -0.018459093 1.8708841e-38 339 254
0.02637013 0.75199997 -0.018459093 1.8340779e-38 340 254
0.027762281 0.75400001 -0.018508185 1.806419e-38 341 254
0.029084291 0.75400001 -0.018508185 1.7147626e-38 342 254
0.030446632 0.755 -0.018532733 1.7516409e-38 343 254
0.031770397 0.755 -0.018532733 1.760357e-38 344 254
0.033094164 0.755 -0.018532733 1.6773449e-38 345 254
0.034509107 0.75700003 -0.018581826 1.4930259e-38 346 254
-0.043398503 0.72799999 -0.0191464 2.1842789e-38 286 255
-0.042122077 0.72799999 -0.0191464 2.1658039e-38 287 255
-0.040845651 0.72799999 -0.0191464 2.1661288e-38 288 255
-0.039514873 0.727 -0.019120099 2.2582885e-38 289 255
-0.038240198 0.727 -0.019120099 2.138903e-38 290 255
-0.036965527 0.727 -0.019120099 2.0467433e-38 291 255
-0.035690852 0.727 -0.019120099 1.9637672e-38 292 255
-0.03441618 0.727 -0.019120099 1.9452922e-38 293 255
-0.033050332 0.72500002 -0.0190675 1.9544755e-38 294 255
-0.031779166 0.72500002 -0.0190675 1.9544755e-38 295 255
-0.030423839 0.72299999 -0.019014901 1.9911013e-38 296 255
-0.029156178 0.72299999 -0.019014901 1.9726621e-38 297 255
-0.02788852 0.72299999 -0.019014901 2.0093237e-38 298 255
-0.026584039 0.722 -0.0189886 2.0093237e-38 299 255
-0.025248 0.72000003 -0.018935999 2.0184354e-38 300 255
-0.0239856 0.72000003 -0.018935999 1.9908127e-38 301 255
-0.022691639 0.71899998 -0.018909698 1.9909211e-38 302 255
-0.021371379 0.71700001 -0.018857099 2.0093961e-38 303 255
-0.020114239 0.71700001 -0.018857099 1.9727345e-38 304 255
-0.0188308 0.71600002 -0.0188308 1.98199e-38 305 255
-0.017575413 0.71600002 -0.0188308 1.9084861e-38 306 255
-0.016320027 0.71600002 -0.0188308 2.03756e-38 307 255
-0.01506464 0.71600002 -0.0188308 2.2218794e-38 308 255
-0.01377068 0.71399999 -0.018778199 2.2310989e-38 309 255
-0.012518799 0.71399999 -0.018778199 2.1480133e-38 310 255
-0.01129848 0.71600002 -0.0188308 2.1203906e-38 311 255
-0.010043093 0.71600002 -0.0188308 2.2212297e-38 312 255
-0.0087877065 0.71600002 -0.0188308 2.1197785e-38 313 255
-0.00753232 0.71600002 -0.0188308 2.1105218e-38 314 255
-0.0062857 0.71700001 -0.018857099 2.082863e-38 315 255
-0.0050425865 0.71899998 -0.018909698 2.0828264e-38 316 255
-0.0037977197 0.722 -0.0189886 2.1012657e-38 317 255
-0.0025318132 0.722 -0.0189886 2.1197767e-38 318 255
-0.0012659066 0.722 -0.0189886 2.1197767e-38 319 255
0 0.72299999 -0.019014901 2.0645671e-38 320 255
0.0012676599 0.72299999 -0.019014901 2.027689e-38 321 255
0.0025423334 0.72500002 -0.0190675 2.0368003e-38 322 255
0.0038135003 0.72500002 -0.0190675 2.0368003e-38 323 255
0.0050846669 0.72500002 -0.0190675 2.0826817e-38 324 255
0.0063821329 0.72799999 -0.0191464 2.1011208e-38 325 255
0.0076795998 0.73000002 -0.019199001 2.0643151e-38 326 255
0.0089595336 0.73000002 -0.019199001 1.9536804e-38 327 255
0.010463892 0.74599999 -0.019619798 1.8984354e-38 328 255
0.011771879 0.74599999 -0.019619798 1.8431182e-38 329 255
0.013097399 0.74699998 -0.019646099 1.7971639e-38 330 255
0.014407139 0.74699998 -0.019646099 1.8064193e-38 331 255
0.015716879 0.74699998 -0.019646099 1.8249302e-38 332 255
0.017026618 0.74699998 -0.019646099 1.8434052e-38 333 255
0.018336359 0.74699998 -0.019646099 1.9076902e-38 334 255
0.019646099 0.74699998 -0.019646099 1.8984705e-38 335 255
0.020955838 0.74699998 -0.019646099 1.8616645e-38 336 255
0.022325192 0.74900001 -0.0196987 1.8616645e-38 337 255
0.02363844 0.74900001 -0.0196987 1.8431898e-38 338 255
0.024984999 0.75 -0.019724999 1.8247505e-38 339 255
0.02637013 0.75199997 -0.0197776 1.7603935e-38 340 255
0.027762281 0.75400001 -0.019830201 1.7235153e-38 341 255
0.029084291 0.75400001 -0.019830201 1.6503346e-38 342 255
0.030446632 0.755 -0.0198565 1.6964684e-38 343 255
0.031770397 0.755 -0.0198565 1.7052208e-38 344 255
0.033094164 0.755 -0.0198565 1.6222446e-38 345 255
0.034509107 0.75700003 -0.019909101 1.4009395e-38 346 255
-0.043398503 0.72799999 -0.020422826 2.1933905e-38 286 256
-0.042122077 0.72799999 -0.020422826 2.1749874e-38 287 256
-0.040845651 0.72799999 -0.020422826 2.1569459e-38 288 256
-0.039514873 0.727 -0.020394772 2.2214828e-38 289 256
-0.038240198 0.727 -0.020394772 2.0651112e-38 290 256
-0.036965527 0.727 -0.020394772 1.9729514e-38 291 256
-0.035690852 0.727 -0.020394772 1.9545118e-38 292 256
-0.03441618 0.727 -0.020394772 1.9545118e-38 293 256
-0.033141505 0.727 -0.020394772 1.9727345e-38 294 256
-0.031779166 0.72500002 -0.020338668 1.9635148e-38 295 256
-0.030423839 0.72299999 -0.020282559 1.9818451e-38 296 256
-0.029156178 0.72299999 -0.020282559 1.9726255e-38 297 256
-0.02788852 0.72299999 -0.020282559 1.990992e-38 298 256
-0.026620859 0.72299999 -0.020282559 1.990992e-38 299 256
-0.025318133 0.722 -0.020254506 2.0001397e-38 300 256
-0.024052227 0.722 -0.020254506 1.9816647e-38 301 256
-0.023385961 0.741 -0.020787518 1.9908848e-38 302 256
-0.021371379 0.71700001 -0.020114239 2.0001044e-38 303 256
-0.020114239 0.71700001 -0.020114239 1.9725536e-38 304 256
-0.0188308 0.71600002 -0.020086186 2.0001763e-38 305 256
-0.017575413 0.71600002 -0.020086186 1.9543674e-38 306 256
-0.016320027 0.71600002 -0.020086186 2.0005013e-38 307 256
-0.01506464 0.71600002 -0.020086186 2.0835138e-38 308 256
-0.01377068 0.71399999 -0.020030079 2.0835138e-38 309 256
-0.012518799 0.71399999 -0.020030079 2.0465263e-38 310 256
-0.011266919 0.71399999 -0.020030079 2.0649653e-38 311 256
-0.01001504 0.71399999 -0.020030079 2.1383979e-38 312 256
-0.0087877065 0.71600002 -0.020086186 2.092264e-38 313 256
-0.00753232 0.71600002 -0.020086186 2.0830432e-38 314 256
-0.0062769335 0.71600002 -0.020086186 2.0461649e-38 315 256
-0.0050215465 0.71600002 -0.020086186 2.0736066e-38 316 256
-0.0037819401 0.71899998 -0.020170346 2.0736066e-38 317 256
-0.0025248001 0.72000003 -0.020198401 2.064387e-38 318 256
-0.0012624001 0.72000003 -0.020198401 2.0828261e-38 319 256
0 0.722 -0.020254506 2.027689e-38 320 256
0.0012659066 0.722 -0.020254506 2.0184694e-38 321 256
0.0025353199 0.72299999 -0.020282559 2.0092496e-38 322 256
0.0038029798 0.72299999 -0.020282559 1.9815907e-38 323 256
0.0050706398 0.72299999 -0.020282559 1.9814464e-38 324 256
0.0063733663 0.727 -0.020394772 1.9998854e-38 325 256
0.0076585598 0.72799999 -0.020422826 2.0183248e-38 326 256
0.0089595336 0.73000002 -0.020478934 1.9445324e-38 327 256
0.010323626 0.736 -0.020647252 1.907727e-38 328 256
0.011740319 0.74400002 -0.02087168 1.8616292e-38 329 256
0.0130448 0.74400002 -0.02087168 1.8340784e-38 330 256
0.01434928 0.74400002 -0.02087168 1.8248589e-38 331 256
0.015695838 0.74599999 -0.020927785 1.8064913e-38 332 256
0.017003827 0.74599999 -0.020927785 1.8157109e-38 333 256
0.018311813 0.74599999 -0.020927785 1.8525169e-38 334 256
0.019646099 0.74699998 -0.020955838 1.8340779e-38 335 256
0.020955838 0.74699998 -0.020955838 1.8247505e-38 336 256
0.022265578 0.74699998 -0.020955838 1.8247505e-38 337 256
0.02363844 0.74900001 -0.021011947 1.71462e-38 338 256
0.024984999 0.75 -0.02104 1.6132049e-38 339 256
0.0263 0.75 -0.02104 1.5582115e-38 340 256
0.027688639 0.75199997 -0.021096105 1.5858702e-38 341 256
0.029084291 0.75400001 -0.021152213 1.5950901e-38 342 256
0.030406307 0.75400001 -0.021152213 1.6504074e-38 343 256
0.031770397 0.755 -0.021180267 1.668487e-38 344 256
0.033094164 0.755 -0.021180267 1.5762912e-38 345 256
0.034417931 0.755 -0.021180267 1.3640615e-38 346 256
-0.043398503 0.72799999 -0.021699252 2.1750593e-38 286 257
-0.042122077 0.72799999 -0.021699252 2.1750593e-38 287 257
-0.040845651 0.72799999 -0.021699252 2.1018087e-38 288 257
-0.039569225 0.72799999 -0.021699252 2.1110283e-38 289 257
-0.038240198 0.727 -0.021669446 1.9730233e-38 290 257
-0.036965527 0.727 -0.021669446 1.9361811e-38 291 257
-0.035690852 0.727 -0.021669446 1.963695e-38 292 257
-0.03441618 0.727 -0.021669446 1.9820981e-38 293 257
-0.033141505 0.727 -0.021669446 1.9818814e-38 294 257
-0.03186683 0.727 -0.021669446 1.9542587e-38 295 257
-0.030592158 0.727 -0.021669446 1.9909567e-38 296 257
-0.029236834 0.72500002 -0.021609833 1.9909567e-38 297 257
-0.027965667 0.72500002 -0.021609833 1.9909565e-38 298 257
-0.02702588 0.73400003 -0.021878093 1.9725533e-38 299 257
-0.025914267 0.73900002 -0.022027127 1.9909202e-38 300 257
-0.024685178 0.741 -0.02208674 1.9909202e-38 301 257
-0.023385961 0.741 -0.02208674 2.0092158e-38 302 257
-0.02208674 0.741 -0.02208674 1.9908127e-38 303 257
-0.020787518 0.741 -0.02208674 1.9723731e-38 304 257
-0.0188308 0.71600002 -0.021341572 1.9908483e-38 305 257
-0.017575413 0.71600002 -0.021341572 2.0278704e-38 306 257
-0.016320027 0.71600002 -0.021341572 2.03709e-38 307 257
-0.01506464 0.71600002 -0.021341572 1.991029e-38 308 257
-0.01377068 0.71399999 -0.021281958 1.9725899e-38 309 257
-0.012518799 0.71399999 -0.021281958 1.9818814e-38 310 257
-0.011266919 0.71399999 -0.021281958 2.0187956e-38 311 257
-0.01001504 0.71399999 -0.021281958 2.0738609e-38 312 257
-0.0087631596 0.71399999 -0.021281958 2.0738609e-38 313 257
-0.0075112795 0.71399999 -0.021281958 2.0922272e-38 314 257
-0.0062593995 0.71399999 -0.021281958 2.0461652e-38 315 257
-0.0050075199 0.71399999 -0.021281958 2.0552398e-38 316 257
-0.00376616 0.71600002 -0.021341572 2.0275811e-38 317 257
-0.0025212932 0.71899998 -0.021430992 2.027509e-38 318 257
-0.0012606466 0.71899998 -0.021430992 2.027509e-38 319 257
0 0.72000003 -0.021460801 2.0092142e-38 320 257
0.0012624001 0.72000003 -0.021460801 2.0092142e-38 321 257
0.0025318132 0.722 -0.021520413 2.0000301e-38 322 257
0.0037977197 0.722 -0.021520413 1.9539325e-38 323 257
0.0050636264 0.722 -0.021520413 1.9261659e-38 324 257
0.0063733663 0.727 -0.021669446 1.9261659e-38 325 257
0.0076585598 0.72799999 -0.021699252 1.926238e-38 326 257
0.0089595336 0.73000002 -0.021758866 1.9170185e-38 327 257
0.010239467 0.73000002 -0.021758866 1.8893958e-38 328 257
0.01170876 0.74199998 -0.022116546 1.8801404e-38 329 257
0.013009733 0.74199998 -0.022116546 1.8526248e-38 330 257
0.014310705 0.74199998 -0.022116546 1.8341498e-38 331 257
0.015695838 0.74599999 -0.022235774 1.8064188e-38 332 257
0.017003827 0.74599999 -0.022235774 1.8064188e-38 333 257
0.018311813 0.74599999 -0.022235774 1.8064188e-38 334 257
0.019646099 0.74699998 -0.022265578 1.7971992e-38 335 257
0.020955838 0.74699998 -0.022265578 1.7971273e-38 336 257
0.022265578 0.74699998 -0.022265578 1.7879077e-38 337 257
0.023575317 0.74699998 -0.022265578 1.6594472e-38 338 257
0.024951685 0.74900001 -0.022325192 1.5027145e-38 339 257
0.0263 0.75 -0.022355 1.3927285e-38 340 257
0.027688639 0.75199997 -0.022414612 1.4572655e-38 341 257
0.029084291 0.75400001 -0.022474226 1.5581765e-38 342 257
0.030406307 0.75400001 -0.022474226 1.5950547e-38 343 257
0.031770397 0.755 -0.022504034 1.6499756e-38 344 257
0.033094164 0.755 -0.022504034 1.5577799e-38 345 257
0.034417931 0.755 -0.022504034 1.3178901e-38 346 257
-0.044674929 0.72799999 -0.022975679 2.1843142e-38 285 258
-0.043398503 0.72799999 -0.022975679 2.1475448e-38 286 258
-0.042122077 0.72799999 -0.022975679 2.1106666e-38 287 258
-0.040845651 0.72799999 -0.022975679 2.0373439e-38 288 258
-0.039569225 0.72799999 -0.022975679 2.0373439e-38 289 258
-0.038292799 0.72799999 -0.022975679 1.9638391e-38 290 258
-0.036965527 0.727 -0.022944121 1.9361805e-38 291 258
-0.035690852 0.727 -0.022944121 1.9637301e-38 292 258
-0.034463517 0.72799999 -0.022975679 1.9452908e-38 293 258
-0.033187091 0.72799999 -0.022975679 1.9358193e-38 294 258
-0.031910665 0.72799999 -0.022975679 1.9450388e-38 295 258
-0.030634239 0.72799999 -0.022975679 1.9725531e-38 296 258
-0.029438468 0.73000002 -0.023038799 1.9725531e-38 297 258
-0.028158534 0.73000002 -0.023038799 1.9816647e-38 298 258
-0.02702588 0.73400003 -0.023165042 1.9816647e-38 299 258
-0.025914267 0.73900002 -0.023322839 1.9908483e-38 300 258
-0.024685178 0.741 -0.023385961 1.9908483e-38 301 258
-0.023385961 0.741 -0.023385961 1.990848e-38 302 258
-0.02208674 0.741 -0.023385961 1.9816283e-38 303 258
-0.020787518 0.741 -0.023385961 2.0092148e-38 304 258
-0.0188308 0.71600002 -0.022596961 2.0737517e-38 305 258
-0.017575413 0.71600002 -0.022596961 2.1749869e-38 306 258
-0.016320027 0.71600002 -0.022596961 2.1565476e-38 307 258
-0.01506464 0.71600002 -0.022596961 2.082936e-38 308 258
-0.01377068 0.71399999 -0.022533838 2.0737164e-38 309 258
-0.012518799 0.71399999 -0.022533838 2.0003562e-38 310 258
-0.011266919 0.71399999 -0.022533838 2.0003562e-38 311 258
-0.01001504 0.71399999 -0.022533838 2.037055e-38 312 258
-0.0087631596 0.71399999 -0.022533838 2.037055e-38 313 258
-0.0075112795 0.71399999 -0.022533838 2.0462373e-38 314 258
-0.0062593995 0.71399999 -0.022533838 2.009359e-38 315 258
-0.0050075199 0.71399999 -0.022533838 2.0277609e-38 316 258
-0.0037556398 0.71399999 -0.022533838 1.9909186e-38 317 258
-0.0025142799 0.71700001 -0.02262852 2.0183614e-38 318 258
-0.00125714 0.71700001 -0.02262852 1.9999583e-38 319 258
0 0.71899998 -0.022691639 1.9999583e-38 320 258
0.0012624001 0.72000003 -0.022723202 1.9999583e-38 321 258
0.0025248001 0.72000003 -0.022723202 1.9907028e-38 322 258
0.0037872 0.72000003 -0.022723202 1.9722637e-38 323 258
0.0050496003 0.72000003 -0.022723202 1.9262378e-38 324 258
0.0063558333 0.72500002 -0.022880999 1.9170182e-38 325 258
0.0076480396 0.727 -0.022944121 1.8802478e-38 326 258
0.0089349858 0.72799999 -0.022975679 1.8894674e-38 327 258
0.010239467 0.73000002 -0.023038799 1.8709207e-38 328 258
0.01169298 0.741 -0.023385961 1.8617011e-38 329 258
0.0129922 0.741 -0.023385961 1.8709563e-38 330 258
0.014310705 0.74199998 -0.023417519 1.8709563e-38 331 258
0.015653761 0.74400002 -0.023480639 1.8431898e-38 332 258
0.016958239 0.74400002 -0.023480639 1.8247505e-38 333 258
0.018311813 0.74599999 -0.023543758 1.8063471e-38 334 258
0.019619798 0.74599999 -0.023543758 1.7786885e-38 335 258
0.020927785 0.74599999 -0.023543758 1.769433e-38 336 258
0.022265578 0.74699998 -0.023575317 1.7786885e-38 337 258
0.023575317 0.74699998 -0.023575317 1.7236242e-38 338 258
0.024951685 0.74900001 -0.02363844 1.5761472e-38 339 258
0.026264934 0.74900001 -0.02363844 1.3926562e-38 340 258
0.027615 0.75 -0.023669999 1.4571932e-38 341 258
0.029007144 0.75199997 -0.023733119 1.5581046e-38 342 258
0.030406307 0.75400001 -0.02379624 1.5673242e-38 343 258
0.03172832 0.75400001 -0.02379624 1.6498309e-38 344 258
0.033050332 0.75400001 -0.02379624 1.5576713e-38 345 258
0.034372345 0.75400001 -0.02379624 1.308309e-38 346 258
-0.044674929 0.72799999 -0.024252106 2.1934259e-38 285 259
-0.043398503 0.72799999 -0.024252106 2.1474373e-38 286 259
-0.042122077 0.72799999 -0.024252106 2.1382178e-38 287 259
-0.040845651 0.72799999 -0.024252106 2.0005731e-38 288 259
-0.039569225 0.72799999 -0.024252106 2.0097928e-38 289 259
-0.038292799 0.72799999 -0.024252106 1.9913533e-38 290 259
-0.037016369 0.72799999 -0.024252106 1.9636947e-38 291 259
-0.035739943 0.72799999 -0.024252106 1.9911362e-38 292 259
-0.034463517 0.72799999 -0.024252106 1.954294e-38 293 259
-0.033187091 0.72799999 -0.024252106 1.9725531e-38 294 259
-0.031998333 0.73000002 -0.024318734 1.990992e-38 295 259
-0.030718399 0.73000002 -0.024318734 1.9725887e-38 296 259
-0.029559445 0.73299998 -0.024418673 1.9633691e-38 297 259
-0.028467119 0.73799998 -0.024585238 1.9816647e-38 298 259
-0.027173158 0.73799998 -0.024585238 1.972445e-38 299 259
-0.025914267 0.73900002 -0.024618553 1.972445e-38 300 259
-0.024618553 0.73900002 -0.024618553 1.972445e-38 301 259
-0.023322839 0.73900002 -0.024618553 1.9817003e-38 302 259
-0.02208674 0.741 -0.024685178 1.9724806e-38 303 259
-0.020787518 0.741 -0.024685178 2.0553122e-38 304 259
-0.0195146 0.74199998 -0.024718491 2.1290687e-38 305 259
-0.017575413 0.71600002 -0.023852346 2.1843136e-38 306 259
-0.016320027 0.71600002 -0.023852346 2.1750941e-38 307 259
-0.01506464 0.71600002 -0.023852346 2.1382534e-38 308 259
-0.01377068 0.71399999 -0.02378572 2.0921556e-38 309 259
-0.012518799 0.71399999 -0.02378572 1.9727701e-38 310 259
-0.011251139 0.713 -0.023752406 1.9819897e-38 311 259
-0.010001013 0.713 -0.023752406 1.9728417e-38 312 259
-0.0087508867 0.713 -0.023752406 1.9728417e-38 313 259
-0.0075112795 0.71399999 -0.02378572 2.0186505e-38 314 259
-0.0062593995 0.71399999 -0.02378572 2.0002113e-38 315 259
-0.0050075199 0.71399999 -0.02378572 2.0185413e-38 316 259
-0.0037556398 0.71399999 -0.02378572 1.9909186e-38 317 259
-0.0025107733 0.71600002 -0.023852346 1.9908103e-38 318 259
-0.00125714 0.71700001 -0.02388566 1.9815907e-38 319 259
0 0.71700001 -0.02388566 1.9538969e-38 320 259
0.0012606466 0.71899998 -0.023952285 1.9631523e-38 321 259
0.0025212932 0.71899998 -0.023952285 1.9724438e-38 322 259
0.0037872 0.72000003 -0.0239856 1.9447492e-38 323 259
0.0050496003 0.72000003 -0.0239856 1.9354213e-38 324 259
0.0063558333 0.72500002 -0.024152167 1.9077267e-38 325 259
0.0076480396 0.727 -0.024218792 1.870993e-38 326 259
0.0089349858 0.72799999 -0.024252106 1.8525897e-38 327 259
0.010253493 0.73100001 -0.024352046 1.8708491e-38 328 259
0.01166142 0.73900002 -0.024618553 1.8616295e-38 329 259
0.012957133 0.73900002 -0.024618553 1.870956e-38 330 259
0.014310705 0.74199998 -0.024718491 1.8893952e-38 331 259
0.015611678 0.74199998 -0.024718491 1.8248583e-38 332 259
0.016958239 0.74400002 -0.02478512 1.806419e-38 333 259
0.01826272 0.74400002 -0.02478512 1.7786531e-38 334 259
0.019619798 0.74599999 -0.024851745 1.7694336e-38 335 259
0.020927785 0.74599999 -0.024851745 1.7418824e-38 336 259
0.022235774 0.74599999 -0.024851745 1.7326269e-38 337 259
0.023575317 0.74699998 -0.024885058 1.7143323e-38 338 259
0.024951685 0.74900001 -0.024951685 1.6405758e-38 339 259
0.026264934 0.74900001 -0.024951685 1.5304455e-38 340 259
0.027615 0.75 -0.024984999 1.5581043e-38 341 259
0.029007144 0.75199997 -0.025051624 1.6222813e-38 342 259
0.030406307 0.75400001 -0.025118252 1.603878e-38 343 259
0.03172832 0.75400001 -0.025118252 1.6497941e-38 344 259
0.033050332 0.75400001 -0.025118252 1.5852571e-38 345 259
0.034372345 0.75400001 -0.025118252 1.5111388e-38 346 259
0.035741698 0.755 -0.025151566 1.5203943e-38 347 259
-0.044674929 0.72799999 -0.025528532 2.175059e-38 285 260
-0.043398503 0.72799999 -0.025528532 2.1107389e-38 286 260
-0.042122077 0.72799999 -0.025528532 2.1015192e-38 287 260
-0.040845651 0.72799999 -0.025528532 2.0189041e-38 288 260
-0.039569225 0.72799999 -0.025528532 2.0281238e-38 289 260
-0.038292799 0.72799999 -0.025528532 2.0095405e-38 290 260
-0.037016369 0.72799999 -0.025528532 1.9911013e-38 291 260
-0.035739943 0.72799999 -0.025528532 1.9910644e-38 292 260
-0.034463517 0.72799999 -0.025528532 1.9726252e-38 293 260
-0.033187091 0.72799999 -0.025528532 1.9726605e-38 294 260
-0.031998333 0.73000002 -0.025598666 1.963441e-38 295 260
-0.030844638 0.73299998 -0.025703866 1.9725884e-38 296 260
-0.029599773 0.73400003 -0.025738932 1.9633688e-38 297 260
-0.028467119 0.73799998 -0.025879199 1.9724087e-38 298 260
-0.027173158 0.73799998 -0.025879199 1.9447142e-38 299 260
-0.025914267 0.73900002 -0.025914267 1.9263832e-38 300 260
-0.024618553 0.73900002 -0.025914267 1.972445e-38 301 260
-0.023322839 0.73900002 -0.025914267 1.9541135e-38 302 260
-0.02208674 0.741 -0.025984399 1.9633691e-38 303 260
-0.020815572 0.74199998 -0.026019465 2.082971e-38 304 260
-0.0195146 0.74199998 -0.026019465 2.1382884e-38 305 260
-0.017379038 0.708 -0.024827199 2.1657673e-38 306 260
-0.01613768 0.708 -0.024827199 2.2026454e-38 307 260
-0.01489632 0.708 -0.024827199 2.1382531e-38 308 260
-0.01371282 0.71100003 -0.024932399 2.0644965e-38 309 260
-0.0124662 0.71100003 -0.024932399 1.9358914e-38 310 260
-0.01121958 0.71100003 -0.024932399 1.9727697e-38 311 260
-0.0099729598 0.71100003 -0.024932399 1.9728417e-38 312 260
-0.0087263398 0.71100003 -0.024932399 1.9728417e-38 313 260
-0.0075112795 0.71399999 -0.025037598 2.018651e-38 314 260
-0.0062593995 0.71399999 -0.025037598 2.000176e-38 315 260
-0.0050075199 0.71399999 -0.025037598 2.0001392e-38 316 260
-0.0037556398 0.71399999 -0.025037598 1.9724803e-38 317 260
-0.0025037599 0.71399999 -0.025037598 1.9815554e-38 318 260
-0.0012553866 0.71600002 -0.025107734 1.9446773e-38 319 260
0 0.71700001 -0.0251428 1.9446773e-38 320 260
0.00125714 0.71700001 -0.0251428 1.9446773e-38 321 260
0.0025142799 0.71700001 -0.0251428 1.9538972e-38 322 260
0.0037872 0.72000003 -0.025248 1.9538972e-38 323 260
0.0050496003 0.72000003 -0.025248 1.9078712e-38 324 260
0.0063558333 0.72500002 -0.025423333 1.8802125e-38 325 260
0.0076480396 0.727 -0.025493465 1.8616292e-38 326 260
0.0089349858 0.72799999 -0.025528532 1.8708488e-38 327 260
0.010211413 0.72799999 -0.025528532 1.8616289e-38 328 260
0.01166142 0.73900002 -0.025914267 1.8892875e-38 329 260
0.012957133 0.73900002 -0.025914267 1.8986504e-38 330 260
0.014310705 0.74199998 -0.026019465 1.9262731e-38 331 260
0.015611678 0.74199998 -0.026019465 1.8340056e-38 332 260
0.016958239 0.74400002 -0.026089599 1.7879077e-38 333 260
0.01826272 0.74400002 -0.026089599 1.7325906e-38 334 260
0.019567199 0.74400002 -0.026089599 1.7418102e-38 335 260
0.020927785 0.74599999 -0.026159734 1.7418105e-38 336 260
0.022235774 0.74599999 -0.026159734 1.7325551e-38 337 260
0.023575317 0.74699998 -0.026194798 1.7234074e-38 338 260
0.024885058 0.74699998 -0.026194798 1.7050043e-38 339 260
0.026264934 0.74900001 -0.026264934 1.7417752e-38 340 260
0.027578179 0.74900001 -0.026264934 1.7417752e-38 341 260
0.029007144 0.75199997 -0.02637013 1.6683068e-38 342 260
0.030406307 0.75400001 -0.026440267 1.6590872e-38 343 260
0.03172832 0.75400001 -0.026440267 1.6958563e-38 344 260
0.033050332 0.75400001 -0.026440267 1.6774172e-38 345 260
0.034417931 0.755 -0.026475333 1.6954234e-38 346 260
0.035741698 0.755 -0.026475333 1.704643e-38 347 260
-0.044674929 0.72799999 -0.026804959 2.165732e-38 285 261
-0.043398503 0.72799999 -0.026804959 2.1382181e-38 286 261
-0.042122077 0.72799999 -0.026804959 2.1566572e-38 287 261
-0.040845651 0.72799999 -0.026804959 2.06493e-38 288 261
-0.039569225 0.72799999 -0.026804959 2.0280518e-38 289 261
-0.038292799 0.72799999 -0.026804959 1.9912811e-38 290 261
-0.037016369 0.72799999 -0.026804959 1.9820616e-38 291 261
-0.035739943 0.72799999 -0.026804959 2.000176e-38 292 261
-0.034463517 0.72799999 -0.026804959 1.9909565e-38 293 261
-0.033278264 0.73000002 -0.026878599 1.9725887e-38 294 261
-0.032129832 0.73299998 -0.026989058 1.9633691e-38 295 261
-0.030886721 0.73400003 -0.02702588 1.9542211e-38 296 261
-0.029599773 0.73400003 -0.02702588 1.9265624e-38 297 261
-0.028467119 0.73799998 -0.027173158 1.9632252e-38 298 261
-0.027173158 0.73799998 -0.027173158 1.9817003e-38 299 261
-0.025914267 0.73900002 -0.027209979 1.9909918e-38 300 261
-0.024618553 0.73900002 -0.027209979 2.0371256e-38 301 261
-0.023322839 0.73900002 -0.027209979 2.0922628e-38 302 261
-0.021162732 0.70999998 -0.026142199 2.0922628e-38 303 261
-0.01986176 0.708 -0.026068559 2.1107019e-38 304 261
-0.018594101 0.70700002 -0.02603174 2.1475801e-38 305 261
-0.017354494 0.70700002 -0.02603174 2.1934982e-38 306 261
-0.016114887 0.70700002 -0.02603174 2.1842786e-38 307 261
-0.01487528 0.70700002 -0.02603174 2.0646761e-38 308 261
-0.013693533 0.70999998 -0.026142199 1.9909196e-38 309 261
-0.012448666 0.70999998 -0.026142199 1.9173078e-38 310 261
-0.01121958 0.71100003 -0.026179021 1.9634057e-38 311 261
-0.0099729598 0.71100003 -0.026179021 2.0003562e-38 312 261
-0.0087263398 0.71100003 -0.026179021 2.0003562e-38 313 261
-0.0074797203 0.71100003 -0.026179021 1.9910999e-38 314 261
-0.0062330998 0.71100003 -0.026179021 1.9818445e-38 315 261
-0.0050005065 0.713 -0.026252659 1.9909196e-38 316 261
-0.0037503797 0.713 -0.026252659 1.9724803e-38 317 261
-0.0025037599 0.71399999 -0.026289478 1.9815551e-38 318 261
-0.0012553866 0.71600002 -0.026363119 1.9447129e-38 319 261
0 0.71700001 -0.02639994 1.926238e-38 320 261
0.00125714 0.71700001 -0.02639994 1.926238e-38 321 261
0.0025142799 0.71700001 -0.02639994 1.9079434e-38 322 261
0.0037872 0.72000003 -0.026510401 1.9079434e-38 323 261
0.0050496003 0.72000003 -0.026510401 1.926238e-38 324 261
0.0063558333 0.72500002 -0.026694499 1.8801404e-38 325 261
0.0076480396 0.727 -0.026768139 1.8617011e-38 326 261
0.0089349858 0.72799999 -0.026804959 1.8524815e-38 327 261
0.010211413 0.72799999 -0.026804959 1.8433696e-38 328 261
0.011582521 0.73400003 -0.02702588 1.8710283e-38 329 261
0.012957133 0.73900002 -0.027209979 1.8802473e-38 330 261
0.014310705 0.74199998 -0.027320439 1.8710277e-38 331 261
0.015611678 0.74199998 -0.027320439 1.7511368e-38 332 261
0.016958239 0.74400002 -0.027394081 1.7511368e-38 333 261
0.01826272 0.74400002 -0.027394081 1.7418455e-38 334 261
0.019567199 0.74400002 -0.027394081 1.7233705e-38 335 261
0.020927785 0.74599999 -0.027467718 1.7050045e-38 336 261
0.022235774 0.74599999 -0.027467718 1.7050045e-38 337 261
0.023575317 0.74699998 -0.027504537 1.6958569e-38 338 261
0.024885058 0.74699998 -0.027504537 1.6958569e-38 339 261
0.026264934 0.74900001 -0.027578179 1.7050764e-38 340 261
0.027578179 0.74900001 -0.027578179 1.6866014e-38 341 261
0.029007144 0.75199997 -0.027688639 1.5763991e-38 342 261
0.030406307 0.75400001 -0.027762281 1.5856188e-38 343 261
0.031770397 0.755 -0.027799098 1.6683068e-38 344 261
0.033094164 0.755 -0.027799098 1.6683068e-38 345 261
0.034509107 0.75700003 -0.027872739 1.6311029e-38 346 261
0.03583638 0.75700003 -0.027872739 1.6218833e-38 347 261
0.037360024 0.76099998 -0.028020019 1.6402133e-38 348 261
-0.043398503 0.72799999 -0.028081384 2.1014836e-38 286 262
-0.042122077 0.72799999 -0.028081384 2.2490326e-38 287 262
-0.040845651 0.72799999 -0.028081384 2.0835856e-38 288 262
-0.039569225 0.72799999 -0.028081384 1.9637672e-38 289 262
-0.038292799 0.72799999 -0.028081384 1.9544752e-38 290 262
-0.037016369 0.72799999 -0.028081384 1.9452556e-38 291 262
-0.035739943 0.72799999 -0.028081384 1.9725536e-38 292 262
-0.034463517 0.72799999 -0.028081384 1.9725536e-38 293 262
-0.033278264 0.73000002 -0.028158534 1.9725531e-38 294 262
-0.032129832 0.73299998 -0.028274251 1.9633335e-38 295 262
-0.030886721 0.73400003 -0.028312827 1.9449658e-38 296 262
-0.029599773 0.73400003 -0.028312827 1.9449658e-38 297 262
-0.028467119 0.73799998 -0.028467119 1.9910644e-38 298 262
-0.027173158 0.73799998 -0.028467119 2.1109187e-38 299 262
-0.025914267 0.73900002 -0.028505694 2.1570518e-38 300 262
-0.023585839 0.708 -0.027309919 2.1570518e-38 301 262
-0.022344479 0.708 -0.027309919 2.2121521e-38 302 262
-0.021162732 0.70999998 -0.027387066 2.2121521e-38 303 262
-0.01986176 0.708 -0.027309919 2.1937856e-38 304 262
-0.018594101 0.70700002 -0.027271347 2.2306278e-38 305 262
-0.017354494 0.70700002 -0.027271347 2.2582869e-38 306 262
-0.016092092 0.70599997 -0.027232772 2.2030054e-38 307 262
-0.014854239 0.70599997 -0.027232772 2.0462726e-38 308 262
-0.013616386 0.70599997 -0.027232772 1.9817356e-38 309 262
-0.012396066 0.70700002 -0.027271347 1.9631536e-38 310 262
-0.01117224 0.708 -0.027309919 1.9908483e-38 311 262
-0.0099589331 0.70999998 -0.027387066 1.9818814e-38 312 262
-0.0087140659 0.70999998 -0.027387066 2.0003565e-38 313 262
-0.0074797203 0.71100003 -0.027425639 1.981917e-38 314 262
-0.0062330998 0.71100003 -0.027425639 1.9542584e-38 315 262
-0.0049864799 0.71100003 -0.027425639 1.9816647e-38 316 262
-0.0037503797 0.713 -0.027502786 1.9632255e-38 317 262
-0.0025037599 0.71399999 -0.02754136 1.9631167e-38 318 262
-0.0012553866 0.71600002 -0.027618507 1.9354579e-38 319 262
0 0.71600002 -0.027618507 1.9353857e-38 320 262
0.00125714 0.71700001 -0.027657079 1.9261662e-38 321 262
0.0025142799 0.71700001 -0.027657079 1.8986517e-38 322 262
0.0037872 0.72000003 -0.027772799 1.9078712e-38 323 262
0.0050636264 0.722 -0.027849946 1.8894318e-38 324 262
0.0063558333 0.72500002 -0.027965667 1.8709927e-38 325 262
0.0076480396 0.727 -0.028042812 1.8617008e-38 326 262
0.0089349858 0.72799999 -0.028081384 1.8617008e-38 327 262
0.010253493 0.73100001 -0.028197108 1.8525169e-38 328 262
0.011582521 0.73400003 -0.028312827 1.8525169e-38 329 262
0.012957133 0.73900002 -0.028505694 1.8341853e-38 330 262
0.014310705 0.74199998 -0.028621411 1.8064908e-38 331 262
0.015611678 0.74199998 -0.028621411 1.7049314e-38 332 262
0.016958239 0.74400002 -0.02869856 1.7049314e-38 333 262
0.01826272 0.74400002 -0.02869856 1.7049317e-38 334 262
0.019619798 0.74599999 -0.028775707 1.7141512e-38 335 262
0.020927785 0.74599999 -0.028775707 1.695785e-38 336 262
0.022235774 0.74599999 -0.028775707 1.695785e-38 337 262
0.023575317 0.74699998 -0.028814279 1.6866017e-38 338 262
0.024951685 0.74900001 -0.028891427 1.6866017e-38 339 262
0.026264934 0.74900001 -0.028891427 1.6406841e-38 340 262
0.027578179 0.74900001 -0.028891427 1.5669276e-38 341 262
0.029007144 0.75199997 -0.029007144 1.4476489e-38 342 262
0.030406307 0.75400001 -0.029084291 1.5029663e-38 343 262
0.031770397 0.755 -0.029122867 1.6407563e-38 344 262
0.033094164 0.755 -0.029122867 1.6315008e-38 345 262
0.034509107 0.75700003 -0.029200014 1.5481994e-38 346 262
0.035931058 0.759 -0.029277159 1.5297603e-38 347 262
0.037360024 0.76099998 -0.029354304 1.5388348e-38 348 262
-0.043517731 0.73000002 -0.029438468 2.1107036e-38 286 263
-0.0422378 0.73000002 -0.029438468 2.3227535e-38 287 263
-0.040845651 0.72799999 -0.029357811 2.1023125e-38 288 263
-0.039569225 0.72799999 -0.029357811 1.8994821e-38 289 263
-0.038292799 0.72799999 -0.029357811 1.9818816e-38 290 263
-0.037016369 0.72799999 -0.029357811 1.9726621e-38 291 263
-0.035739943 0.72799999 -0.029357811 2.0001041e-38 292 263
-0.034463517 0.72799999 -0.029357811 1.981665e-38 293 263
-0.033278264 0.73000002 -0.029438468 1.972445e-38 294 263
-0.032173667 0.73400003 -0.029599773 1.9816647e-38 295 263
-0.030970879 0.736 -0.029680425 2.0187228e-38 296 263
-0.029680425 0.736 -0.029680425 2.07404e-38 297 263
-0.028505694 0.73900002 -0.029801406 2.1109187e-38 298 263
-0.026142199 0.70999998 -0.028631933 2.1754556e-38 299 263
-0.024897331 0.70999998 -0.028631933 2.1847827e-38 300 263
-0.023585839 0.708 -0.02855128 2.1755272e-38 301 263
-0.022344479 0.708 -0.02855128 2.1847102e-38 302 263
-0.021103119 0.708 -0.02855128 2.1939656e-38 303 263
-0.01986176 0.708 -0.02855128 2.2123336e-38 304 263
-0.018594101 0.70700002 -0.028510952 2.2123336e-38 305 263
-0.017329946 0.70599997 -0.028470624 2.2397761e-38 306 263
-0.016092092 0.70599997 -0.028470624 2.2397761e-38 307 263
-0.014854239 0.70599997 -0.028470624 2.2025733e-38 308 263
-0.013616386 0.70599997 -0.028470624 2.1288168e-38 309 263
-0.012396066 0.70700002 -0.028510952 2.0367656e-38 310 263
-0.011156459 0.70700002 -0.028510952 2.0183263e-38 311 263
-0.0099308798 0.708 -0.02855128 1.9909565e-38 312 263
-0.0087140659 0.70999998 -0.028631933 2.0093956e-38 313 263
-0.0074691991 0.70999998 -0.028631933 1.9726971e-38 314 263
-0.0062330998 0.71100003 -0.028672259 1.935819e-38 315 263
-0.0049864799 0.71100003 -0.028672259 1.9724806e-38 316 263
-0.0037503797 0.713 -0.028752912 1.9356025e-38 317 263
-0.0025002533 0.713 -0.028752912 1.9538969e-38 318 263
-0.00125188 0.71399999 -0.028793238 1.926238e-38 319 263
0 0.71600002 -0.028873893 1.9170182e-38 320 263
0.0012553866 0.71600002 -0.028873893 1.8986151e-38 321 263
0.0025142799 0.71700001 -0.028914221 1.8894318e-38 322 263
0.0037819401 0.71899998 -0.028994869 1.8894318e-38 323 263
0.0050636264 0.722 -0.029115854 1.8802123e-38 324 263
0.0063733663 0.727 -0.029317487 1.8525894e-38 325 263
0.0076585598 0.72799999 -0.029357811 1.8617008e-38 326 263
0.0089349858 0.72799999 -0.029357811 1.8524813e-38 327 263
0.010253493 0.73100001 -0.029478792 1.8248583e-38 328 263
0.01161408 0.736 -0.029680425 1.7879799e-38 329 263
0.012957133 0.73900002 -0.029801406 1.7603932e-38 330 263
0.014310705 0.74199998 -0.029922385 1.7235509e-38 331 263
0.015611678 0.74199998 -0.029922385 1.668089e-38 332 263
0.016958239 0.74400002 -0.030003037 1.668089e-38 333 263
0.01826272 0.74400002 -0.030003037 1.695712e-38 334 263
0.019619798 0.74599999 -0.03008369 1.695712e-38 335 263
0.020927785 0.74599999 -0.03008369 1.6773819e-38 336 263
0.022235774 0.74599999 -0.03008369 1.6589786e-38 337 263
0.023575317 0.74699998 -0.030124018 1.6497958e-38 338 263
0.024885058 0.74699998 -0.030124018 1.6497958e-38 339 263
0.026264934 0.74900001 -0.030204674 1.5212257e-38 340 263
0.027578179 0.74900001 -0.030204674 1.4013713e-38 341 263
0.028929999 0.75 -0.030244999 1.3648171e-38 342 263
0.030325651 0.75199997 -0.030325651 1.4570487e-38 343 263
0.031770397 0.755 -0.030446632 1.6682355e-38 344 263
0.033181835 0.75700003 -0.030527288 1.6405407e-38 345 263
0.034600276 0.759 -0.030607941 1.465223e-38 346 263
0.035931058 0.759 -0.030607941 1.4283088e-38 347 263
0.03726184 0.759 -0.030607941 1.3731701e-38 348 263
0.038592618 0.759 -0.030607941 1.437707e-38 349 263
-0.043517731 0.73000002 -0.030718399 2.0833323e-38 286 264
-0.0422378 0.73000002 -0.030718399 2.2953462e-38 287 264
-0.040845651 0.72799999 -0.030634239 2.1113871e-38 288 264
-0.039569225 0.72799999 -0.030634239 1.926996e-38 289 264
-0.038292799 0.72799999 -0.030634239 2.0278351e-38 290 264
-0.037016369 0.72799999 -0.030634239 2.0278351e-38 291 264
-0.035739943 0.72799999 -0.030634239 2.0093593e-38 292 264
-0.034463517 0.72799999 -0.030634239 1.9816647e-38 293 264
-0.033187091 0.72799999 -0.030634239 1.9724453e-38 294 264
-0.032173667 0.73400003 -0.030886721 2.0462019e-38 295 264
-0.029918881 0.71100003 -0.029918881 2.1109552e-38 296 264
-0.028631933 0.70999998 -0.029876797 2.1478695e-38 297 264
-0.027387066 0.70999998 -0.029876797 2.1479411e-38 298 264
-0.026142199 0.70999998 -0.029876797 2.1479411e-38 299 264
-0.024827199 0.708 -0.02979264 2.1571607e-38 300 264
-0.023585839 0.708 -0.02979264 2.1571607e-38 301 264
-0.022344479 0.708 -0.02979264 2.1573056e-38 302 264
-0.021103119 0.708 -0.02979264 2.1941837e-38 303 264
-0.01986176 0.708 -0.02979264 2.2125149e-38 304 264
-0.018594101 0.70700002 -0.029750559 2.1664172e-38 305 264
-0.017329946 0.70599997 -0.029708479 2.1753111e-38 306 264
-0.016092092 0.70599997 -0.029708479 2.1753111e-38 307 264
-0.014854239 0.70599997 -0.029708479 2.2303761e-38 308 264
-0.013616386 0.70599997 -0.029708479 2.1658392e-38 309 264
-0.012378532 0.70599997 -0.029708479 2.0920827e-38 310 264
-0.011140679 0.70599997 -0.029708479 2.0367653e-38 311 264
-0.0099168532 0.70700002 -0.029750559 1.9632255e-38 312 264
-0.008689519 0.708 -0.02979264 1.9816647e-38 313 264
-0.0074481601 0.708 -0.02979264 1.9908846e-38 314 264
-0.0062243328 0.70999998 -0.029876797 1.9724453e-38 315 264
-0.0049864799 0.71100003 -0.029918881 1.9448939e-38 316 264
-0.0037503797 0.713 -0.030003037 1.9080517e-38 317 264
-0.0025002533 0.713 -0.030003037 1.9355296e-38 318 264
-0.00125188 0.71399999 -0.030045118 1.8986873e-38 319 264
0 0.71600002 -0.03012928 1.8986151e-38 320 264
0.0012553866 0.71600002 -0.03012928 1.8986151e-38 321 264
0.0025142799 0.71700001 -0.030171359 1.8893958e-38 322 264
0.0037819401 0.71899998 -0.030255521 1.8893958e-38 323 264
0.0050636264 0.722 -0.030381758 1.8801404e-38 324 264
0.0063558333 0.72500002 -0.030508002 1.8617011e-38 325 264
0.0076270006 0.72500002 -0.030508002 1.8617008e-38 326 264
0.0089227129 0.727 -0.030592158 1.8340781e-38 327 264
0.010351679 0.73799998 -0.031055039 1.8156034e-38 328 264
0.011645639 0.73799998 -0.031055039 1.7510665e-38 329 264
0.0129922 0.741 -0.03118128 1.7050764e-38 330 264
0.014310705 0.74199998 -0.031223357 1.6589786e-38 331 264
0.015611678 0.74199998 -0.031223357 1.6220282e-38 332 264
0.016958239 0.74400002 -0.031307522 1.6496509e-38 333 264
0.01826272 0.74400002 -0.031307522 1.6405392e-38 334 264
0.019619798 0.74599999 -0.031391677 1.6497588e-38 335 264
0.020927785 0.74599999 -0.031391677 1.6589789e-38 336 264
0.022235774 0.74599999 -0.031391677 1.6497235e-38 337 264
0.023575317 0.74699998 -0.031433757 1.6589434e-38 338 264
0.024885058 0.74699998 -0.031433757 1.6312846e-38 339 264
0.026264934 0.74900001 -0.031517919 1.4200981e-38 340 264
0.027578179 0.74900001 -0.031517919 1.3094634e-38 341 264
0.028929999 0.75 -0.03156 1.328082e-38 342 264
0.030325651 0.75199997 -0.031644158 1.4294974e-38 343 264
0.03172832 0.75400001 -0.03172832 1.613025e-38 344 264
0.033181835 0.75700003 -0.031854562 1.5484881e-38 345 264
0.034600276 0.759 -0.031938717 1.3730267e-38 346 264
0.035931058 0.759 -0.031938717 1.3361845e-38 347 264
0.03863645 0.787 -0.033116959 1.3177083e-38 348 264
-0.043517731 0.73000002 -0.031998333 2.101771e-38 286 265
-0.0422378 0.73000002 -0.031998333 2.2769787e-38 287 265
