# .PCD v.7 - Point Cloud Data file format
FIELDS x y z rgb imX imY
SIZE 4 4 4 4 4 4
TYPE F F F F F F
COUNT 1 1 1 1 1 1
WIDTH 819
HEIGHT 1
VIEWPOINT 0 0 0 1 0 0 0
POINTS 819
DATA ascii
-0.020268533 0.68000001 -0.038152531 1.3736427e-38 303 272
-0.019132372 0.68199998 -0.038264744 1.3736427e-38 304 272
-0.017936599 0.68199998 -0.038264744 1.3920817e-38 305 272
-0.016740825 0.68199998 -0.038264744 1.4013366e-38 306 272
-0.015545053 0.68199998 -0.038264744 1.4013366e-38 307 272
-0.014370319 0.68300003 -0.038320854 1.447182e-38 308 272
-0.013172794 0.68300003 -0.038320854 1.447182e-38 309 272
-0.011975267 0.68300003 -0.038320854 1.4656211e-38 310 272
-0.01077774 0.68300003 -0.038320854 1.4564016e-38 311 272
-0.0095942402 0.68400002 -0.038376961 1.4655849e-38 312 272
-0.0088367993 0.72000003 -0.040396802 1.4655849e-38 313 272
-0.0075743999 0.72000003 -0.040396802 1.4839161e-38 314 272
-0.0063120001 0.72000003 -0.040396802 1.4746965e-38 315 272
-0.0050636264 0.722 -0.040509012 1.4471099e-38 316 272
-0.0037977197 0.722 -0.040509012 1.4378903e-38 317 272
-0.0025318132 0.722 -0.040509012 1.4378903e-38 318 272
-0.0012676599 0.72299999 -0.040565118 1.4378903e-38 319 272
0 0.72299999 -0.040565118 1.3550221e-38 320 272
0.0012676599 0.72299999 -0.040565118 1.2535709e-38 321 272
0.0025353199 0.72299999 -0.040565118 1.1702699e-38 322 272
-0.060139328 0.69999999 -0.040502001 1.5025717e-38 271 273
-0.058743682 0.69800001 -0.040386278 1.5118271e-38 272 273
-0.057519849 0.69800001 -0.040386278 1.5118271e-38 273 273
-0.056215372 0.69700003 -0.040328421 1.5026073e-38 274 273
-0.054914396 0.69599998 -0.040270556 1.5026073e-38 275 273
-0.053539783 0.69400001 -0.040154841 1.4933875e-38 276 273
-0.05224758 0.69300002 -0.04009698 1.4749483e-38 277 273
-0.050885238 0.69099998 -0.039981257 1.438142e-38 278 273
-0.049601797 0.69 -0.0399234 1.4105193e-38 279 273
-0.048251733 0.68800002 -0.039807681 1.4012997e-38 280 273
-0.046977058 0.68699998 -0.039749816 1.4012997e-38 281 273
-0.045705888 0.68599999 -0.039691959 1.3921165e-38 282 273
-0.044503104 0.68599999 -0.039691959 1.3921165e-38 283 273
-0.043300316 0.68599999 -0.039691959 1.3921167e-38 284 273
-0.042097531 0.68599999 -0.039691959 1.3737136e-38 285 273
-0.040775519 0.68400002 -0.03957624 1.3829695e-38 286 273
-0.039460517 0.68199998 -0.039460517 1.456726e-38 287 273
-0.038264744 0.68199998 -0.039460517 1.5304845e-38 288 273
-0.037068974 0.68199998 -0.039460517 1.5489594e-38 289 273
-0.035873197 0.68199998 -0.039460517 1.4014825e-38 290 273
-0.034677424 0.68199998 -0.039460517 1.3369455e-38 291 273
-0.03348165 0.68199998 -0.039460517 1.3921893e-38 292 273
-0.032191198 0.68000001 -0.039344799 1.4198121e-38 293 273
-0.030998932 0.68000001 -0.039344799 1.3922612e-38 294 273
-0.029806666 0.68000001 -0.039344799 1.3830416e-38 295 273
-0.028614398 0.68000001 -0.039344799 1.3554909e-38 296 273
-0.027422134 0.68000001 -0.039344799 1.3554909e-38 297 273
-0.026229866 0.68000001 -0.039344799 1.3553834e-38 298 273
-0.025037598 0.68000001 -0.039344799 1.3461638e-38 299 273
-0.023810266 0.67900002 -0.039286941 1.3553834e-38 300 273
-0.022619752 0.67900002 -0.039286941 1.3369443e-38 301 273
-0.021429239 0.67900002 -0.039286941 1.3369087e-38 302 273
-0.020268533 0.68000001 -0.039344799 1.3461641e-38 303 273
-0.019132372 0.68199998 -0.039460517 1.3461285e-38 304 273
-0.017936599 0.68199998 -0.039460517 1.3553481e-38 305 273
-0.016740825 0.68199998 -0.039460517 1.3920461e-38 306 273
-0.015545053 0.68199998 -0.039460517 1.3920461e-38 307 273
-0.014370319 0.68300003 -0.039518382 1.4012647e-38 308 273
-0.013172794 0.68300003 -0.039518382 1.4012647e-38 309 273
-0.011975267 0.68300003 -0.039518382 1.4380704e-38 310 273
-0.01077774 0.68300003 -0.039518382 1.4472899e-38 311 273
-0.0095942402 0.68400002 -0.03957624 1.4748044e-38 312 273
-0.0084195063 0.68599999 -0.039691959 1.4655849e-38 313 273
-0.0075743999 0.72000003 -0.041659199 1.4839161e-38 314 273
-0.0063120001 0.72000003 -0.041659199 1.4746965e-38 315 273
-0.0050636264 0.722 -0.041774917 1.4654411e-38 316 273
-0.0037977197 0.722 -0.041774917 1.447038e-38 317 273
-0.0025318132 0.722 -0.041774917 1.4654764e-38 318 273
-0.0012676599 0.72299999 -0.041832779 1.4470733e-38 319 273
0 0.72299999 -0.041832779 1.3365823e-38 320 273
0.0012676599 0.72299999 -0.041832779 1.2536062e-38 321 273
0.0025353199 0.72299999 -0.041832779 1.1612298e-38 322 273
-0.060139328 0.69999999 -0.041729331 1.5026792e-38 271 274
-0.058743682 0.69800001 -0.041610107 1.5118271e-38 272 274
-0.057519849 0.69800001 -0.041610107 1.5118271e-38 273 274
-0.056215372 0.69700003 -0.041550495 1.5026436e-38 274 274
-0.054914396 0.69599998 -0.041490879 1.493424e-38 275 274
-0.053539783 0.69400001 -0.041371655 1.4750206e-38 276 274
-0.05224758 0.69300002 -0.041312039 1.4473619e-38 277 274
-0.050885238 0.69099998 -0.041192811 1.4289221e-38 278 274
-0.049601797 0.69 -0.041133199 1.4012994e-38 279 274
-0.048251733 0.68800002 -0.041013971 1.4104464e-38 280 274
-0.046977058 0.68699998 -0.040954359 1.4104464e-38 281 274
-0.045705888 0.68599999 -0.040894743 1.38286e-38 282 274
-0.044503104 0.68599999 -0.040894743 1.3920796e-38 283 274
-0.043300316 0.68599999 -0.040894743 1.3828247e-38 284 274
-0.042097531 0.68599999 -0.040894743 1.3828247e-38 285 274
-0.040775519 0.68400002 -0.040775519 1.3645304e-38 286 274
-0.039460517 0.68199998 -0.040656291 1.3829695e-38 287 274
-0.038264744 0.68199998 -0.040656291 1.401266e-38 288 274
-0.037068974 0.68199998 -0.040656291 1.401266e-38 289 274
-0.035873197 0.68199998 -0.040656291 1.3922263e-38 290 274
-0.034677424 0.68199998 -0.040656291 1.4014459e-38 291 274
-0.03348165 0.68199998 -0.040656291 1.3924414e-38 292 274
-0.032191198 0.68000001 -0.040537067 1.3832219e-38 293 274
-0.030998932 0.68000001 -0.040537067 1.3832219e-38 294 274
-0.029806666 0.68000001 -0.040537067 1.3647467e-38 295 274
-0.028614398 0.68000001 -0.040537067 1.3646754e-38 296 274
-0.027422134 0.68000001 -0.040537067 1.35542e-38 297 274
-0.026229866 0.68000001 -0.040537067 1.3462004e-38 298 274
-0.025037598 0.68000001 -0.040537067 1.3462004e-38 299 274
-0.023845334 0.68000001 -0.040537067 1.3461285e-38 300 274
-0.022653066 0.68000001 -0.040537067 1.3461285e-38 301 274
-0.0214608 0.68000001 -0.040537067 1.3185774e-38 302 274
-0.020268533 0.68000001 -0.040537067 1.3185774e-38 303 274
-0.019132372 0.68199998 -0.040656291 1.364495e-38 304 274
-0.017936599 0.68199998 -0.040656291 1.364495e-38 305 274
-0.016740825 0.68199998 -0.040656291 1.4103408e-38 306 274
-0.015545053 0.68199998 -0.040656291 1.4103408e-38 307 274
-0.014370319 0.68300003 -0.040715907 1.4195238e-38 308 274
-0.013172794 0.68300003 -0.040715907 1.4195238e-38 309 274
-0.011975267 0.68300003 -0.040715907 1.4564013e-38 310 274
-0.01079352 0.68400002 -0.040775519 1.4656567e-38 311 274
-0.0096222926 0.68599999 -0.040894743 1.4748044e-38 312 274
-0.0084195063 0.68599999 -0.040894743 1.4748044e-38 313 274
-0.0075743999 0.72000003 -0.042921603 1.4746965e-38 314 274
-0.0063120001 0.72000003 -0.042921603 1.4746965e-38 315 274
-0.0050636264 0.722 -0.043040827 1.4654767e-38 316 274
-0.0037977197 0.722 -0.043040827 1.4470736e-38 317 274
-0.0025318132 0.722 -0.043040827 1.447038e-38 318 274
-0.0012676599 0.72299999 -0.043100435 1.4654411e-38 319 274
0 0.72299999 -0.043100435 1.3180716e-38 320 274
0.0012676599 0.72299999 -0.043100435 1.2443151e-38 321 274
0.0025353199 0.72299999 -0.043100435 1.197856e-38 322 274
-0.060139328 0.69999999 -0.042956665 1.539485e-38 271 275
-0.058743682 0.69800001 -0.042833932 1.5118986e-38 272 275
-0.057519849 0.69800001 -0.042833932 1.5118986e-38 273 275
-0.056215372 0.69700003 -0.042772565 1.5118986e-38 274 275
-0.054914396 0.69599998 -0.042711195 1.4934593e-38 275 275
-0.053539783 0.69400001 -0.042588469 1.4934228e-38 276 275
-0.05224758 0.69300002 -0.042527102 1.4749836e-38 277 275
-0.050885238 0.69099998 -0.042404365 1.438177e-38 278 275
-0.049673684 0.69099998 -0.042404365 1.4105543e-38 279 275
-0.048251733 0.68800002 -0.042220265 1.3921152e-38 280 275
-0.046977058 0.68699998 -0.042158898 1.3828956e-38 281 275
-0.045705888 0.68599999 -0.042097531 1.3552735e-38 282 275
-0.044503104 0.68599999 -0.042097531 1.3552735e-38 283 275
-0.043300316 0.68599999 -0.042097531 1.3734978e-38 284 275
-0.042097531 0.68599999 -0.042097531 1.3734978e-38 285 275
-0.040775519 0.68400002 -0.041974798 1.3644587e-38 286 275
-0.039460517 0.68199998 -0.041852064 1.3920814e-38 287 275
-0.038264744 0.68199998 -0.041852064 1.3920817e-38 288 275
-0.037068974 0.68199998 -0.041852064 1.3920817e-38 289 275
-0.035873197 0.68199998 -0.041852064 1.3922612e-38 290 275
-0.034677424 0.68199998 -0.041852064 1.4107005e-38 291 275
-0.03348165 0.68199998 -0.041852064 1.4292471e-38 292 275
-0.032191198 0.68000001 -0.041729335 1.410808e-38 293 275
-0.030998932 0.68000001 -0.041729335 1.4014809e-38 294 275
-0.029806666 0.68000001 -0.041729335 1.4014809e-38 295 275
-0.028614398 0.68000001 -0.041729335 1.3738947e-38 296 275
-0.027422134 0.68000001 -0.041729335 1.3554555e-38 297 275
-0.026229866 0.68000001 -0.041729335 1.3737868e-38 298 275
-0.025037598 0.68000001 -0.041729335 1.3553837e-38 299 275
-0.023845334 0.68000001 -0.041729335 1.364495e-38 300 275
-0.022619752 0.67900002 -0.041667968 1.364495e-38 301 275
-0.021429239 0.67900002 -0.041667968 1.3461641e-38 302 275
-0.020268533 0.68000001 -0.041729335 1.3369087e-38 303 275
-0.019076265 0.68000001 -0.041729335 1.3552758e-38 304 275
-0.017936599 0.68199998 -0.041852064 1.3644953e-38 305 275
-0.016740825 0.68199998 -0.041852064 1.3644232e-38 306 275
-0.015545053 0.68199998 -0.041852064 1.3644232e-38 307 275
-0.014370319 0.68300003 -0.041913435 1.4103764e-38 308 275
-0.013172794 0.68300003 -0.041913435 1.4103764e-38 309 275
-0.011975267 0.68300003 -0.041913435 1.4288508e-38 310 275
-0.01079352 0.68400002 -0.041974798 1.4472899e-38 311 275
-0.0095942402 0.68400002 -0.041974798 1.4748041e-38 312 275
-0.0084195063 0.68599999 -0.042097531 1.456365e-38 313 275
-0.0072167199 0.68599999 -0.042097531 1.4654767e-38 314 275
-0.0063295332 0.722 -0.044306733 1.4654767e-38 315 275
-0.0050636264 0.722 -0.044306733 1.4470736e-38 316 275
-0.0037977197 0.722 -0.044306733 1.437854e-38 317 275
-0.0025318132 0.722 -0.044306733 1.4285984e-38 318 275
-0.0012676599 0.72299999 -0.044368099 1.4470736e-38 319 275
0 0.72299999 -0.044368099 1.3270746e-38 320 275
0.0012676599 0.72299999 -0.044368099 1.2625377e-38 321 275
0.0025353199 0.72299999 -0.044368099 1.262248e-38 322 275
-0.058743682 0.69800001 -0.04405776 1.5211903e-38 272 276
-0.057519849 0.69800001 -0.04405776 1.5027872e-38 273 276
-0.056215372 0.69700003 -0.043994639 1.5118986e-38 274 276
-0.054914396 0.69599998 -0.043931518 1.5118986e-38 275 276
-0.053539783 0.69400001 -0.043805279 1.4934228e-38 276 276
-0.05224758 0.69300002 -0.043742158 1.4749836e-38 277 276
-0.050885238 0.69099998 -0.043615919 1.447397e-38 278 276
-0.049601797 0.69 -0.043552797 1.4105546e-38 279 276
-0.048251733 0.68800002 -0.043426562 1.3737487e-38 280 276
-0.046977058 0.68699998 -0.043363437 1.3552735e-38 281 276
-0.045705888 0.68599999 -0.043300316 1.3643136e-38 282 276
-0.044503104 0.68599999 -0.043300316 1.355094e-38 283 276
-0.043300316 0.68599999 -0.043300316 1.355094e-38 284 276
-0.042097531 0.68599999 -0.043300316 1.3735331e-38 285 276
-0.040775519 0.68400002 -0.043174081 1.3644938e-38 286 276
-0.039518382 0.68300003 -0.043110959 1.3737133e-38 287 276
-0.038320854 0.68300003 -0.043110959 1.3829695e-38 288 276
-0.037123326 0.68300003 -0.043110959 1.3922249e-38 289 276
-0.035873197 0.68199998 -0.043047838 1.4014092e-38 290 276
-0.034677424 0.68199998 -0.043047838 1.429032e-38 291 276
-0.03348165 0.68199998 -0.043047838 1.4199206e-38 292 276
-0.032191198 0.68000001 -0.042921599 1.4014456e-38 293 276
-0.030998932 0.68000001 -0.042921599 1.4197771e-38 294 276
-0.029806666 0.68000001 -0.042921599 1.401374e-38 295 276
-0.028614398 0.68000001 -0.042921599 1.3738951e-38 296 276
-0.027422134 0.68000001 -0.042921599 1.35542e-38 297 276
-0.026229866 0.68000001 -0.042921599 1.3553481e-38 298 276
-0.025037598 0.68000001 -0.042921599 1.3553481e-38 299 276
-0.023845334 0.68000001 -0.042921599 1.3644953e-38 300 276
-0.022619752 0.67900002 -0.042858478 1.3644953e-38 301 276
-0.021429239 0.67900002 -0.042858478 1.3644597e-38 302 276
-0.020268533 0.68000001 -0.042921599 1.3644597e-38 303 276
-0.019076265 0.68000001 -0.042921599 1.3644953e-38 304 276
-0.017936599 0.68199998 -0.043047838 1.3552758e-38 305 276
-0.016740825 0.68199998 -0.043047838 1.3644232e-38 306 276
-0.015545053 0.68199998 -0.043047838 1.3644232e-38 307 276
-0.014370319 0.68300003 -0.043110959 1.4103045e-38 308 276
-0.013172794 0.68300003 -0.043110959 1.419524e-38 309 276
-0.011975267 0.68300003 -0.043110959 1.4471817e-38 310 276
-0.01079352 0.68400002 -0.043174081 1.4656567e-38 311 276
-0.0095942402 0.68400002 -0.043174081 1.4839158e-38 312 276
-0.0084195063 0.68599999 -0.043300316 1.4654767e-38 313 276
-0.0072167199 0.68599999 -0.043300316 1.4654048e-38 314 276
-0.0063295332 0.722 -0.045572639 1.4654048e-38 315 276
-0.0050636264 0.722 -0.045572639 1.4470736e-38 316 276
-0.0037977197 0.722 -0.045572639 1.4285984e-38 317 276
-0.0025353199 0.72299999 -0.04563576 1.4285984e-38 318 276
-0.0012676599 0.72299999 -0.04563576 1.4285984e-38 319 276
0 0.72299999 -0.04563576 1.3085277e-38 320 276
0.0012676599 0.72299999 -0.04563576 1.2808689e-38 321 276
0.0025353199 0.72299999 -0.04563576 1.2531358e-38 322 276
-0.058743682 0.69800001 -0.045281585 1.548813e-38 272 277
-0.057519849 0.69800001 -0.045281585 1.5395576e-38 273 277
-0.056215372 0.69700003 -0.045216713 1.5578528e-38 274 277
-0.054914396 0.69599998 -0.045151837 1.5393778e-38 275 277
-0.053462639 0.69300002 -0.044957221 1.5301934e-38 276 277
-0.05224758 0.69300002 -0.044957221 1.5117543e-38 277 277
-0.050885238 0.69099998 -0.044827472 1.4749836e-38 278 277
-0.049601797 0.69 -0.0447626 1.4288858e-38 279 277
-0.048251733 0.68800002 -0.044632856 1.3274711e-38 280 277
-0.046977058 0.68699998 -0.044567976 1.3458742e-38 281 277
-0.045705888 0.68599999 -0.044503104 1.3641338e-38 282 277
-0.044503104 0.68599999 -0.044503104 1.3733533e-38 283 277
-0.043300316 0.68599999 -0.044503104 1.3275432e-38 284 277
-0.042097531 0.68599999 -0.044503104 1.3643855e-38 285 277
-0.040775519 0.68400002 -0.04437336 1.3553458e-38 286 277
-0.03957624 0.68400002 -0.04437336 1.3645654e-38 287 277
-0.038320854 0.68300003 -0.044308487 1.3830051e-38 288 277
-0.037123326 0.68300003 -0.044308487 1.3830051e-38 289 277
-0.035925802 0.68300003 -0.044308487 1.4105205e-38 290 277
-0.034677424 0.68199998 -0.044243611 1.4197401e-38 291 277
-0.03348165 0.68199998 -0.044243611 1.401374e-38 292 277
-0.032285877 0.68199998 -0.044243611 1.401374e-38 293 277
-0.030998932 0.68000001 -0.044113863 1.4013743e-38 294 277
-0.029806666 0.68000001 -0.044113863 1.4197774e-38 295 277
-0.028614398 0.68000001 -0.044113863 1.3922263e-38 296 277
-0.027422134 0.68000001 -0.044113863 1.3830066e-38 297 277
-0.026229866 0.68000001 -0.044113863 1.35542e-38 298 277
-0.025037598 0.68000001 -0.044113863 1.35542e-38 299 277
-0.023845334 0.68000001 -0.044113863 1.3644597e-38 300 277
-0.022619752 0.67900002 -0.044048995 1.3644597e-38 301 277
-0.021429239 0.67900002 -0.044048995 1.3461641e-38 302 277
-0.020268533 0.68000001 -0.044113863 1.3461641e-38 303 277
-0.019076265 0.68000001 -0.044113863 1.364495e-38 304 277
-0.017936599 0.68199998 -0.044243611 1.3552755e-38 305 277
-0.016740825 0.68199998 -0.044243611 1.38279e-38 306 277
-0.015545053 0.68199998 -0.044243611 1.3735703e-38 307 277
-0.014370319 0.68300003 -0.044308487 1.4103761e-38 308 277
-0.013172794 0.68300003 -0.044308487 1.4103761e-38 309 277
-0.011975267 0.68300003 -0.044308487 1.4471817e-38 310 277
-0.01079352 0.68400002 -0.04437336 1.4471817e-38 311 277
-0.0096222926 0.68599999 -0.044503104 1.4746243e-38 312 277
-0.0084195063 0.68599999 -0.044503104 1.4654048e-38 313 277
-0.0072167199 0.68599999 -0.044503104 1.4653326e-38 314 277
-0.0063382997 0.72299999 -0.046903417 1.4561129e-38 315 277
-0.0050706398 0.72299999 -0.046903417 1.428634e-38 316 277
-0.0038029798 0.72299999 -0.046903417 1.410159e-38 317 277
-0.0025353199 0.72299999 -0.046903417 1.3825363e-38 318 277
-0.0012676599 0.72299999 -0.046903417 1.3640971e-38 319 277
0 0.72299999 -0.046903417 1.2809042e-38 320 277
0.0012676599 0.72299999 -0.046903417 1.2440261e-38 321 277
-0.057519849 0.69800001 -0.046505414 1.5947303e-38 273 278
-0.056215372 0.69700003 -0.046438783 1.5855108e-38 274 278
-0.054756597 0.69400001 -0.046238903 1.5486327e-38 275 278
-0.053462639 0.69300002 -0.04617228 1.5669273e-38 276 278
-0.05224758 0.69300002 -0.04617228 1.5392685e-38 277 278
-0.050885238 0.69099998 -0.046039023 1.484131e-38 278 278
-0.049673684 0.69099998 -0.046039023 1.4288137e-38 279 278
-0.048391998 0.69 -0.045972396 1.3549494e-38 280 278
-0.047045439 0.68800002 -0.045839146 1.3641691e-38 281 278
-0.045772515 0.68699998 -0.045772515 1.3641688e-38 282 278
-0.044503104 0.68599999 -0.045705888 1.3918634e-38 283 278
-0.043300316 0.68599999 -0.045705888 1.3735682e-38 284 278
-0.042097531 0.68599999 -0.045705888 1.3920433e-38 285 278
-0.040894743 0.68599999 -0.045705888 1.3921515e-38 286 278
-0.03957624 0.68400002 -0.045572639 1.3921515e-38 287 278
-0.038320854 0.68300003 -0.045506012 1.3830048e-38 288 278
-0.037123326 0.68300003 -0.045506012 1.3737852e-38 289 278
-0.035925802 0.68300003 -0.045506012 1.38297e-38 290 278
-0.034677424 0.68199998 -0.045439381 1.3921896e-38 291 278
-0.03348165 0.68199998 -0.045439381 1.4197771e-38 292 278
-0.032191198 0.68000001 -0.045306131 1.4197771e-38 293 278
-0.030998932 0.68000001 -0.045306131 1.4289248e-38 294 278
-0.029806666 0.68000001 -0.045306131 1.4289248e-38 295 278
-0.028614398 0.68000001 -0.045306131 1.4014456e-38 296 278
-0.027422134 0.68000001 -0.045306131 1.3922259e-38 297 278
-0.026229866 0.68000001 -0.045306131 1.3830066e-38 298 278
-0.025037598 0.68000001 -0.045306131 1.3737871e-38 299 278
-0.023845334 0.68000001 -0.045306131 1.3553837e-38 300 278
-0.022653066 0.68000001 -0.045306131 1.3553837e-38 301 278
-0.0214608 0.68000001 -0.045306131 1.3553834e-38 302 278
-0.020328145 0.68199998 -0.045439381 1.3461638e-38 303 278
-0.019132372 0.68199998 -0.045439381 1.3644587e-38 304 278
-0.017936599 0.68199998 -0.045439381 1.3552032e-38 305 278
-0.016740825 0.68199998 -0.045439381 1.3827897e-38 306 278
-0.015567848 0.68300003 -0.045506012 1.3827897e-38 307 278
-0.014370319 0.68300003 -0.045506012 1.4103758e-38 308 278
-0.013172794 0.68300003 -0.045506012 1.4103758e-38 309 278
-0.011975267 0.68300003 -0.045506012 1.4563294e-38 310 278
-0.01079352 0.68400002 -0.045572639 1.4471099e-38 311 278
-0.0096222926 0.68599999 -0.045705888 1.4654045e-38 312 278
-0.0084195063 0.68599999 -0.045705888 1.4561849e-38 313 278
-0.0072272392 0.68699998 -0.045772515 1.4377457e-38 314 278
-0.0063382997 0.72299999 -0.048171077 1.4193426e-38 315 278
-0.0050706398 0.72299999 -0.048171077 1.410159e-38 316 278
-0.0038029798 0.72299999 -0.048171077 1.3825363e-38 317 278
-0.0025353199 0.72299999 -0.048171077 1.345693e-38 318 278
-0.0012676599 0.72299999 -0.048171077 1.3180344e-38 319 278
0 0.72299999 -0.048171077 1.2624643e-38 320 278
-0.056215372 0.69700003 -0.047660861 1.5855835e-38 274 279
-0.054677699 0.69300002 -0.047387339 1.5579247e-38 275 279
-0.053462639 0.69300002 -0.047387339 1.5394131e-38 276 279
-0.05224758 0.69300002 -0.047387339 1.5301934e-38 277 279
-0.050885238 0.69099998 -0.047250576 1.4749831e-38 278 279
-0.049673684 0.69099998 -0.047250576 1.4381407e-38 279 279
-0.048391998 0.69 -0.047182199 1.3366179e-38 280 279
-0.047045439 0.68800002 -0.047045439 1.3642767e-38 281 279
-0.045772515 0.68699998 -0.046977058 1.3643852e-38 282 279
-0.044503104 0.68599999 -0.046908677 1.4289221e-38 283 279
-0.043300316 0.68599999 -0.046908677 1.4381773e-38 284 279
-0.042097531 0.68599999 -0.046908677 1.4105546e-38 285 279
-0.040775519 0.68400002 -0.046771921 1.4014066e-38 286 279
-0.039518382 0.68300003 -0.04670354 1.3921871e-38 287 279
-0.038320854 0.68300003 -0.04670354 1.392152e-38 288 279
-0.037068974 0.68199998 -0.046635158 1.392152e-38 289 279
-0.035873197 0.68199998 -0.046635158 1.4013363e-38 290 279
-0.034677424 0.68199998 -0.046635158 1.4105559e-38 291 279
-0.03348165 0.68199998 -0.046635158 1.4014089e-38 292 279
-0.032191198 0.68000001 -0.046498399 1.4290676e-38 293 279
-0.030998932 0.68000001 -0.046498399 1.4107008e-38 294 279
-0.029806666 0.68000001 -0.046498399 1.4199203e-38 295 279
-0.028614398 0.68000001 -0.046498399 1.3924414e-38 296 279
-0.027422134 0.68000001 -0.046498399 1.3739664e-38 297 279
-0.026229866 0.68000001 -0.046498399 1.364747e-38 298 279
-0.025000781 0.67900002 -0.046430022 1.3555274e-38 299 279
-0.023810266 0.67900002 -0.046430022 1.3554555e-38 300 279
-0.022653066 0.68000001 -0.046498399 1.3554555e-38 301 279
-0.0214608 0.68000001 -0.046498399 1.3553834e-38 302 279
-0.020328145 0.68199998 -0.046635158 1.3553834e-38 303 279
-0.019132372 0.68199998 -0.046635158 1.3644232e-38 304 279
-0.017936599 0.68199998 -0.046635158 1.3736427e-38 305 279
-0.016765373 0.68300003 -0.04670354 1.3827897e-38 306 279
-0.015567848 0.68300003 -0.04670354 1.3920093e-38 307 279
-0.014370319 0.68300003 -0.04670354 1.4103761e-38 308 279
-0.013172794 0.68300003 -0.04670354 1.4195956e-38 309 279
-0.011975267 0.68300003 -0.04670354 1.4287786e-38 310 279
-0.01079352 0.68400002 -0.046771921 1.4287786e-38 311 279
-0.0095942402 0.68400002 -0.046771921 1.4469652e-38 312 279
-0.0084195063 0.68599999 -0.046908677 1.4377457e-38 313 279
-0.0072167199 0.68599999 -0.046908677 1.4376372e-38 314 279
-0.0063382997 0.72299999 -0.049438741 1.4283818e-38 315 279
-0.0050706398 0.72299999 -0.049438741 1.3733521e-38 316 279
-0.0038029798 0.72299999 -0.049438741 1.3456574e-38 317 279
-0.0025353199 0.72299999 -0.049438741 1.2994507e-38 318 279
-0.056215372 0.69700003 -0.048882935 1.6315364e-38 274 280
-0.054677699 0.69300002 -0.048602402 1.6223169e-38 275 280
-0.053462639 0.69300002 -0.048602402 1.5946582e-38 276 280
-0.05224758 0.69300002 -0.048602402 1.5669995e-38 277 280
-0.050885238 0.69099998 -0.04846213 1.5210086e-38 278 280
-0.049673684 0.69099998 -0.04846213 1.4749466e-38 279 280
-0.048391998 0.69 -0.048391998 1.4287407e-38 280 280
-0.047045439 0.68800002 -0.048251733 1.4379604e-38 281 280
-0.045772515 0.68699998 -0.048181597 1.4289211e-38 282 280
-0.044503104 0.68599999 -0.048111461 1.45658e-38 283 280
-0.043300316 0.68599999 -0.048111461 1.438177e-38 284 280
-0.042097531 0.68599999 -0.048111461 1.4289574e-38 285 280
-0.040775519 0.68400002 -0.0479712 1.4472171e-38 286 280
-0.039518382 0.68300003 -0.047901068 1.4288139e-38 287 280
-0.038320854 0.68300003 -0.047901068 1.4012641e-38 288 280
-0.037068974 0.68199998 -0.047830928 1.4012641e-38 289 280
-0.035873197 0.68199998 -0.047830928 1.4013366e-38 290 280
-0.034677424 0.68199998 -0.047830928 1.4197757e-38 291 280
-0.03348165 0.68199998 -0.047830928 1.4198124e-38 292 280
-0.032285877 0.68199998 -0.047830928 1.429032e-38 293 280
-0.030998932 0.68000001 -0.047690667 1.4382515e-38 294 280
-0.029806666 0.68000001 -0.047690667 1.4382515e-38 295 280
-0.028614398 0.68000001 -0.047690667 1.4199559e-38 296 280
-0.027422134 0.68000001 -0.047690667 1.4199559e-38 297 280
-0.026229866 0.68000001 -0.047690667 1.4290676e-38 298 280
-0.025000781 0.67900002 -0.047620531 1.3921893e-38 299 280
-0.023810266 0.67900002 -0.047620531 1.3922615e-38 300 280
-0.022653066 0.68000001 -0.047690667 1.3737865e-38 301 280
-0.0214608 0.68000001 -0.047690667 1.3737865e-38 302 280
-0.020328145 0.68199998 -0.047830928 1.3553834e-38 303 280
-0.019132372 0.68199998 -0.047830928 1.3736783e-38 304 280
-0.017936599 0.68199998 -0.047830928 1.3736783e-38 305 280
-0.016765373 0.68300003 -0.047901068 1.373678e-38 306 280
-0.015567848 0.68300003 -0.047901068 1.373678e-38 307 280
-0.014370319 0.68300003 -0.047901068 1.4103761e-38 308 280
-0.013172794 0.68300003 -0.047901068 1.4103761e-38 309 280
-0.0119928 0.68400002 -0.0479712 1.4563294e-38 310 280
-0.01079352 0.68400002 -0.0479712 1.4378903e-38 311 280
-0.0095942402 0.68400002 -0.0479712 1.3918631e-38 312 280
-0.0084195063 0.68599999 -0.048111461 1.3273262e-38 313 280
-0.0072167199 0.68599999 -0.048111461 1.3364375e-38 314 280
-0.0063382997 0.72299999 -0.050706398 1.345693e-38 315 280
-0.0050706398 0.72299999 -0.050706398 1.3180344e-38 316 280
-0.0038029798 0.72299999 -0.050706398 1.2995952e-38 317 280
-0.054677699 0.69300002 -0.049817458 1.6040222e-38 275 281
-0.053462639 0.69300002 -0.049817458 1.60395e-38 276 281
-0.05224758 0.69300002 -0.049817458 1.5855108e-38 277 281
-0.050885238 0.69099998 -0.049673684 1.5762188e-38 278 281
-0.049673684 0.69099998 -0.049673684 1.5393764e-38 279 281
-0.048391998 0.69 -0.049601797 1.5116818e-38 280 281
-0.047045439 0.68800002 -0.049458027 1.5116818e-38 281 281
-0.045772515 0.68699998 -0.049386136 1.4565447e-38 282 281
-0.044503104 0.68599999 -0.049314249 1.447325e-38 283 281
-0.043300316 0.68599999 -0.049314249 1.4381776e-38 284 281
-0.042097531 0.68599999 -0.049314249 1.4289221e-38 285 281
-0.040775519 0.68400002 -0.049170479 1.4288502e-38 286 281
-0.03957624 0.68400002 -0.049170479 1.4288502e-38 287 281
-0.038320854 0.68300003 -0.049098592 1.4013716e-38 288 281
-0.037068974 0.68199998 -0.049026705 1.4013716e-38 289 281
-0.035873197 0.68199998 -0.049026705 1.3922244e-38 290 281
-0.034677424 0.68199998 -0.049026705 1.419883e-38 291 281
-0.03348165 0.68199998 -0.049026705 1.4107005e-38 292 281
-0.032285877 0.68199998 -0.049026705 1.4199559e-38 293 281
-0.030998932 0.68000001 -0.048882935 1.4382515e-38 294 281
-0.029806666 0.68000001 -0.048882935 1.447507e-38 295 281
-0.028614398 0.68000001 -0.048882935 1.438359e-38 296 281
-0.027422134 0.68000001 -0.048882935 1.4199559e-38 297 281
-0.026229866 0.68000001 -0.048882935 1.4014812e-38 298 281
-0.025000781 0.67900002 -0.048811045 1.3922615e-38 299 281
-0.023810266 0.67900002 -0.048811045 1.3830419e-38 300 281
-0.022653066 0.68000001 -0.048882935 1.3737865e-38 301 281
-0.0214608 0.68000001 -0.048882935 1.3737865e-38 302 281
-0.020328145 0.68199998 -0.049026705 1.3737865e-38 303 281
-0.019132372 0.68199998 -0.049026705 1.3553834e-38 304 281
-0.017936599 0.68199998 -0.049026705 1.3461638e-38 305 281
-0.016765373 0.68300003 -0.049098592 1.373678e-38 306 281
-0.015567848 0.68300003 -0.049098592 1.3920811e-38 307 281
-0.014370319 0.68300003 -0.049098592 1.4196312e-38 308 281
-0.013172794 0.68300003 -0.049098592 1.4288508e-38 309 281
-0.0119928 0.68400002 -0.049170479 1.4748044e-38 310 281
-0.01079352 0.68400002 -0.049170479 1.4010479e-38 311 281
-0.0095942402 0.68400002 -0.049170479 1.2905202e-38 312 281
-0.0083949603 0.68400002 -0.049170479 1.1522268e-38 313 281
-0.0072272392 0.68699998 -0.049386136 1.1706659e-38 314 281
-0.0060226996 0.68699998 -0.049386136 1.2167637e-38 315 281
-0.053462639 0.69300002 -0.051032521 1.6132052e-38 276 282
-0.05224758 0.69300002 -0.051032521 1.6039856e-38 277 282
-0.051032521 0.69300002 -0.051032521 1.5854386e-38 278 282
-0.049673684 0.69099998 -0.050885238 1.5669995e-38 279 282
-0.04846213 0.69099998 -0.050885238 1.5210816e-38 280 282
-0.047182199 0.69 -0.050811596 1.5026423e-38 281 282
-0.045839146 0.68800002 -0.050664321 1.4749834e-38 282 282
-0.044567976 0.68699998 -0.050590675 1.4565802e-38 283 282
-0.043300316 0.68599999 -0.050517038 1.4473605e-38 284 282
-0.042097531 0.68599999 -0.050517038 1.4381051e-38 285 282
-0.040894743 0.68599999 -0.050517038 1.4381051e-38 286 282
-0.03957624 0.68400002 -0.050369758 1.4288855e-38 287 282
-0.038320854 0.68300003 -0.05029612 1.4289221e-38 288 282
-0.037123326 0.68300003 -0.05029612 1.4289221e-38 289 282
-0.035873197 0.68199998 -0.050222475 1.4015162e-38 290 282
-0.034677424 0.68199998 -0.050222475 1.4107358e-38 291 282
-0.03348165 0.68199998 -0.050222475 1.4382869e-38 292 282
-0.032285877 0.68199998 -0.050222475 1.4382869e-38 293 282
-0.030998932 0.68000001 -0.050075196 1.4475067e-38 294 282
-0.029806666 0.68000001 -0.050075196 1.4475067e-38 295 282
-0.028614398 0.68000001 -0.050075196 1.4382871e-38 296 282
-0.027422134 0.68000001 -0.050075196 1.4290676e-38 297 282
-0.026191294 0.67900002 -0.050001562 1.4382153e-38 298 282
-0.025000781 0.67900002 -0.050001562 1.4197401e-38 299 282
-0.023810266 0.67900002 -0.050001562 1.4197401e-38 300 282
-0.022653066 0.68000001 -0.050075196 1.4105205e-38 301 282
-0.0214608 0.68000001 -0.050075196 1.3921893e-38 302 282
-0.020328145 0.68199998 -0.050222475 1.3829698e-38 303 282
-0.019132372 0.68199998 -0.050222475 1.3829695e-38 304 282
-0.017936599 0.68199998 -0.050222475 1.3737499e-38 305 282
-0.016765373 0.68300003 -0.05029612 1.4013363e-38 306 282
-0.015567848 0.68300003 -0.05029612 1.3921167e-38 307 282
-0.014370319 0.68300003 -0.05029612 1.419631e-38 308 282
-0.013172794 0.68300003 -0.05029612 1.4288505e-38 309 282
-0.0119928 0.68400002 -0.050369758 1.4656562e-38 310 282
-0.01079352 0.68400002 -0.050369758 1.3458379e-38 311 282
-0.0095942402 0.68400002 -0.050369758 1.1708453e-38 312 282
-0.0083949603 0.68400002 -0.050369758 1.1155279e-38 313 282
-0.0071956799 0.68400002 -0.050369758 1.1982523e-38 314 282
-0.054914396 0.69599998 -0.052473757 1.6223892e-38 275 283
-0.053539783 0.69400001 -0.052322973 1.6040219e-38 276 283
-0.05224758 0.69300002 -0.05224758 1.5856188e-38 277 283
-0.051032521 0.69300002 -0.05224758 1.6039133e-38 278 283
-0.049817458 0.69300002 -0.05224758 1.5762188e-38 279 283
-0.04846213 0.69099998 -0.052096792 1.5486677e-38 280 283
-0.047182199 0.69 -0.052021399 1.5117893e-38 281 283
-0.045839146 0.68800002 -0.051870614 1.5024979e-38 282 283
-0.044567976 0.68699998 -0.051795214 1.4932783e-38 283 283
-0.043363437 0.68699998 -0.051795214 1.4564719e-38 284 283
-0.042097531 0.68599999 -0.051719822 1.4564719e-38 285 283
-0.040894743 0.68599999 -0.051719822 1.4564366e-38 286 283
-0.03957624 0.68400002 -0.051569041 1.4564366e-38 287 283
-0.038376961 0.68400002 -0.051569041 1.4473252e-38 288 283
-0.037123326 0.68300003 -0.051493648 1.4565449e-38 289 283
-0.035925802 0.68300003 -0.051493648 1.456689e-38 290 283
-0.034677424 0.68199998 -0.051418249 1.456689e-38 291 283
-0.03348165 0.68199998 -0.051418249 1.4658732e-38 292 283
-0.032285877 0.68199998 -0.051418249 1.4658732e-38 293 283
-0.030998932 0.68000001 -0.051267464 1.4475067e-38 294 283
-0.029806666 0.68000001 -0.051267464 1.4382871e-38 295 283
-0.028614398 0.68000001 -0.051267464 1.4566184e-38 296 283
-0.027422134 0.68000001 -0.051267464 1.4382153e-38 297 283
-0.026191294 0.67900002 -0.051192071 1.4473269e-38 298 283
-0.025000781 0.67900002 -0.051192071 1.4473269e-38 299 283
-0.023810266 0.67900002 -0.051192071 1.4197401e-38 300 283
-0.022653066 0.68000001 -0.051267464 1.4105205e-38 301 283
-0.0214608 0.68000001 -0.051267464 1.4288518e-38 302 283
-0.020328145 0.68199998 -0.051418249 1.4288518e-38 303 283
-0.019132372 0.68199998 -0.051418249 1.4105561e-38 304 283
-0.017962901 0.68300003 -0.051493648 1.4105561e-38 305 283
-0.016765373 0.68300003 -0.051493648 1.4105912e-38 306 283
-0.015567848 0.68300003 -0.051493648 1.4013716e-38 307 283
-0.014370319 0.68300003 -0.051493648 1.4288502e-38 308 283
-0.01319208 0.68400002 -0.051569041 1.4288502e-38 309 283
-0.0119928 0.68400002 -0.051569041 1.4381776e-38 310 283
-0.01079352 0.68400002 -0.051569041 1.2814451e-38 311 283
-0.0095942402 0.68400002 -0.051569041 1.1431517e-38 312 283
-0.0083949603 0.68400002 -0.051569041 1.1431517e-38 313 283
-0.054914396 0.69599998 -0.053694077 1.6407207e-38 275 284
-0.053694077 0.69599998 -0.053694077 1.6224611e-38 276 284
-0.052322973 0.69400001 -0.053539783 1.6132415e-38 277 284
-0.051106159 0.69400001 -0.053539783 1.6132049e-38 278 284
-0.049817458 0.69300002 -0.053462639 1.5947657e-38 279 284
-0.048602402 0.69300002 -0.053462639 1.6038052e-38 280 284
-0.047250576 0.69099998 -0.053308345 1.5669628e-38 281 284
-0.045972396 0.69 -0.053231198 1.557671e-38 282 284
-0.044632856 0.68800002 -0.053076908 1.5392319e-38 283 284
-0.043363437 0.68699998 -0.052999757 1.5024623e-38 284 284
-0.042158898 0.68699998 -0.052999757 1.5024623e-38 285 284
-0.040954359 0.68699998 -0.052999757 1.4748762e-38 286 284
-0.039691959 0.68599999 -0.05292261 1.4748762e-38 287 284
-0.038376961 0.68400002 -0.05276832 1.502427e-38 288 284
-0.037177678 0.68400002 -0.05276832 1.5116824e-38 289 284
-0.035925802 0.68300003 -0.052691177 1.4751281e-38 290 284
-0.034728274 0.68300003 -0.052691177 1.4751281e-38 291 284
-0.033530746 0.68300003 -0.052691177 1.4750928e-38 292 284
-0.032285877 0.68199998 -0.052614026 1.4750928e-38 293 284
-0.031090107 0.68199998 -0.052614026 1.4475064e-38 294 284
-0.029894331 0.68199998 -0.052614026 1.4475064e-38 295 284
-0.028614398 0.68000001 -0.052459732 1.4658379e-38 296 284
-0.027422134 0.68000001 -0.052459732 1.4382153e-38 297 284
-0.026229866 0.68000001 -0.052459732 1.4381799e-38 298 284
-0.025037598 0.68000001 -0.052459732 1.4381799e-38 299 284
-0.023845334 0.68000001 -0.052459732 1.4289601e-38 300 284
-0.022653066 0.68000001 -0.052459732 1.4289601e-38 301 284
-0.0214608 0.68000001 -0.052459732 1.4289957e-38 302 284
-0.020328145 0.68199998 -0.052614026 1.4289957e-38 303 284
-0.019160427 0.68300003 -0.052691177 1.4289951e-38 304 284
-0.017962901 0.68300003 -0.052691177 1.4289951e-38 305 284
-0.016765373 0.68300003 -0.052691177 1.4198107e-38 306 284
-0.015567848 0.68300003 -0.052691177 1.4013716e-38 307 284
-0.014370319 0.68300003 -0.052691177 1.4288502e-38 308 284
-0.01319208 0.68400002 -0.05276832 1.4288502e-38 309 284
-0.0119928 0.68400002 -0.05276832 1.4104467e-38 310 284
-0.01079352 0.68400002 -0.05276832 1.2629338e-38 311 284
-0.0095942402 0.68400002 -0.05276832 1.1890696e-38 312 284
-0.054993302 0.69700003 -0.054993302 1.6499402e-38 275 285
-0.053694077 0.69599998 -0.054914396 1.6224611e-38 276 285
-0.052473757 0.69599998 -0.054914396 1.6132415e-38 277 285
-0.051253434 0.69599998 -0.054914396 1.6132768e-38 278 285
-0.049817458 0.69300002 -0.054677699 1.6040572e-38 279 285
-0.048602402 0.69300002 -0.054677699 1.6223871e-38 280 285
-0.047250576 0.69099998 -0.054519895 1.5947285e-38 281 285
-0.045972396 0.69 -0.054440998 1.5946206e-38 282 285
-0.0447626 0.69 -0.054440998 1.5762175e-38 283 285
-0.043426562 0.68800002 -0.054283202 1.5577429e-38 284 285
-0.042220265 0.68800002 -0.054283202 1.5577429e-38 285 285
-0.040954359 0.68699998 -0.054204296 1.5209723e-38 286 285
-0.039691959 0.68599999 -0.054125395 1.5301919e-38 287 285
-0.03848917 0.68599999 -0.054125395 1.5577429e-38 288 285
-0.037177678 0.68400002 -0.053967599 1.5577429e-38 289 285
-0.035978399 0.68400002 -0.053967599 1.5394487e-38 290 285
-0.034728274 0.68300003 -0.053888701 1.5486683e-38 291 285
-0.033530746 0.68300003 -0.053888701 1.5118986e-38 292 285
-0.032285877 0.68199998 -0.053809796 1.5118986e-38 293 285
-0.031090107 0.68199998 -0.053809796 1.4934596e-38 294 285
-0.029894331 0.68199998 -0.053809796 1.4934596e-38 295 285
-0.02869856 0.68199998 -0.053809796 1.4658735e-38 296 285
-0.027422134 0.68000001 -0.053652 1.4566181e-38 297 285
-0.026229866 0.68000001 -0.053652 1.4566186e-38 298 285
-0.025037598 0.68000001 -0.053652 1.4566186e-38 299 285
-0.023845334 0.68000001 -0.053652 1.465766e-38 300 285
-0.022653066 0.68000001 -0.053652 1.465766e-38 301 285
-0.0214608 0.68000001 -0.053652 1.4658014e-38 302 285
-0.020328145 0.68199998 -0.053809796 1.4750209e-38 303 285
-0.019160427 0.68300003 -0.053888701 1.4658367e-38 304 285
-0.017962901 0.68300003 -0.053888701 1.4658367e-38 305 285
-0.016765373 0.68300003 -0.053888701 1.4565452e-38 306 285
-0.015567848 0.68300003 -0.053888701 1.4380701e-38 307 285
-0.014370319 0.68300003 -0.053888701 1.4655843e-38 308 285
-0.01319208 0.68400002 -0.053967599 1.4379256e-38 309 285
-0.012027865 0.68599999 -0.054125395 1.3550927e-38 310 285
-0.010825079 0.68599999 -0.054125395 1.2352384e-38 311 285
-0.0096222926 0.68599999 -0.054125395 1.1707378e-38 312 285
-0.054993302 0.69700003 -0.056215372 1.6500121e-38 275 286
-0.053694077 0.69599998 -0.056134716 1.6224613e-38 276 286
-0.052473757 0.69599998 -0.056134716 1.6224613e-38 277 286
-0.051253434 0.69599998 -0.056134716 1.6041298e-38 278 286
-0.050033119 0.69599998 -0.056134716 1.6041298e-38 279 286
-0.048602402 0.69300002 -0.055892758 1.59491e-38 280 286
-0.047250576 0.69099998 -0.055731449 1.5856904e-38 281 286
-0.045972396 0.69 -0.055650797 1.6040572e-38 282 286
-0.0447626 0.69 -0.055650797 1.585654e-38 283 286
-0.043426562 0.68800002 -0.055489492 1.5855461e-38 284 286
-0.042220265 0.68800002 -0.055489492 1.5762907e-38 285 286
-0.041013971 0.68800002 -0.055489492 1.5762907e-38 286 286
-0.039749816 0.68699998 -0.055408835 1.5855461e-38 287 286
-0.03848917 0.68599999 -0.055328183 1.5946582e-38 288 286
-0.037286382 0.68599999 -0.055328183 1.5946582e-38 289 286
-0.035978399 0.68400002 -0.055166878 1.5303736e-38 290 286
-0.03477912 0.68400002 -0.055166878 1.5303736e-38 291 286
-0.033530746 0.68300003 -0.055086225 1.5027875e-38 292 286
-0.032333218 0.68300003 -0.055086225 1.4935321e-38 293 286
-0.031090107 0.68199998 -0.055005573 1.4843847e-38 294 286
-0.029894331 0.68199998 -0.055005573 1.4659814e-38 295 286
-0.02869856 0.68199998 -0.055005573 1.4567979e-38 296 286
-0.027422134 0.68000001 -0.054844268 1.4475783e-38 297 286
-0.026229866 0.68000001 -0.054844268 1.4567265e-38 298 286
-0.025037598 0.68000001 -0.054844268 1.447507e-38 299 286
-0.023845334 0.68000001 -0.054844268 1.4567265e-38 300 286
-0.022653066 0.68000001 -0.054844268 1.4567265e-38 301 286
-0.0214608 0.68000001 -0.054844268 1.456726e-38 302 286
-0.020328145 0.68199998 -0.055005573 1.456726e-38 303 286
-0.019160427 0.68300003 -0.055086225 1.4658732e-38 304 286
-0.017962901 0.68300003 -0.055086225 1.4382506e-38 305 286
-0.016765373 0.68300003 -0.055086225 1.4473619e-38 306 286
-0.015567848 0.68300003 -0.055086225 1.4289227e-38 307 286
-0.014370319 0.68300003 -0.055086225 1.4748764e-38 308 286
-0.01319208 0.68400002 -0.055166878 1.4011198e-38 309 286
-0.0119928 0.68400002 -0.055166878 1.2260554e-38 310 286
-0.01079352 0.68400002 -0.055166878 1.1891772e-38 311 286
-0.054993302 0.69700003 -0.05743745 1.6499756e-38 275 287
-0.053771228 0.69700003 -0.05743745 1.6500121e-38 276 287
-0.052473757 0.69599998 -0.057355035 1.6407926e-38 277 287
-0.051253434 0.69599998 -0.057355035 1.6317165e-38 278 287
-0.050033119 0.69599998 -0.057355035 1.6224611e-38 279 287
-0.048602402 0.69300002 -0.057107817 1.6500474e-38 280 287
-0.047387339 0.69300002 -0.057107817 1.6408279e-38 281 287
-0.046039023 0.69099998 -0.056942999 1.6499756e-38 282 287
-0.0447626 0.69 -0.0568606 1.6591951e-38 283 287
-0.043552797 0.69 -0.0568606 1.6592307e-38 284 287
-0.042342998 0.69 -0.0568606 1.6407557e-38 285 287
-0.041013971 0.68800002 -0.056695789 1.6223892e-38 286 287
-0.039749816 0.68699998 -0.056613375 1.6223892e-38 287 287
-0.038545277 0.68699998 -0.056613375 1.6039503e-38 288 287
-0.037286382 0.68599999 -0.056530971 1.5947306e-38 289 287
-0.035978399 0.68400002 -0.056366164 1.5671793e-38 290 287
-0.03477912 0.68400002 -0.056366164 1.5671793e-38 291 287
-0.033530746 0.68300003 -0.056283753 1.5855108e-38 292 287
-0.032333218 0.68300003 -0.056283753 1.5578522e-38 293 287
-0.031090107 0.68199998 -0.056201346 1.5487048e-38 294 287
-0.029894331 0.68199998 -0.056201346 1.5487048e-38 295 287
-0.02869856 0.68199998 -0.056201346 1.5394497e-38 296 287
-0.027502786 0.68199998 -0.056201346 1.5210466e-38 297 287
-0.026229866 0.68000001 -0.056036532 1.5211187e-38 298 287
-0.025037598 0.68000001 -0.056036532 1.5211187e-38 299 287
-0.023845334 0.68000001 -0.056036532 1.4935321e-38 300 287
-0.022653066 0.68000001 -0.056036532 1.4935321e-38 301 287
-0.021523919 0.68199998 -0.056201346 1.484348e-38 302 287
-0.020357953 0.68300003 -0.056283753 1.4935677e-38 303 287
-0.019160427 0.68300003 -0.056283753 1.5209385e-38 304 287
-0.017962901 0.68300003 -0.056283753 1.4933158e-38 305 287
-0.016765373 0.68300003 -0.056283753 1.4748764e-38 306 287
-0.015567848 0.68300003 -0.056283753 1.4656567e-38 307 287
-0.014370319 0.68300003 -0.056283753 1.4472896e-38 308 287
-0.013172794 0.68300003 -0.056283753 1.355094e-38 309 287
-0.011975267 0.68300003 -0.056283753 1.143152e-38 310 287
-0.054993302 0.69700003 -0.05865952 1.6775266e-38 275 288
-0.053771228 0.69700003 -0.05865952 1.6500121e-38 276 288
-0.052549154 0.69700003 -0.05865952 1.6407926e-38 277 288
-0.051327083 0.69700003 -0.05865952 1.6224613e-38 278 288
-0.050105009 0.69700003 -0.05865952 1.6316809e-38 279 288
-0.048812799 0.69599998 -0.058575355 1.6316812e-38 280 288
-0.047387339 0.69300002 -0.058322877 1.6316812e-38 281 288
-0.046039023 0.69099998 -0.058154557 1.6499405e-38 282 288
-0.044827472 0.69099998 -0.058154557 1.6499405e-38 283 288
-0.043552797 0.69 -0.058070395 1.6407926e-38 284 288
-0.042342998 0.69 -0.058070395 1.6407926e-38 285 288
-0.041013971 0.68800002 -0.057902083 1.6224611e-38 286 288
-0.039807681 0.68800002 -0.057902083 1.6132415e-38 287 288
-0.038545277 0.68699998 -0.057817914 1.6132062e-38 288 288
-0.037340738 0.68699998 -0.057817914 1.6039866e-38 289 288
-0.036083598 0.68599999 -0.057733759 1.5764358e-38 290 288
-0.034880809 0.68599999 -0.057733759 1.5764358e-38 291 288
-0.033579841 0.68400002 -0.057565439 1.5764358e-38 292 288
-0.032333218 0.68300003 -0.057481278 1.5672161e-38 293 288
-0.031135695 0.68300003 -0.057481278 1.5763641e-38 294 288
-0.029894331 0.68199998 -0.05739712 1.5671086e-38 295 288
-0.02869856 0.68199998 -0.05739712 1.5395579e-38 296 288
-0.027502786 0.68199998 -0.05739712 1.5395579e-38 297 288
-0.026229866 0.68000001 -0.057228796 1.5304102e-38 298 288
-0.025037598 0.68000001 -0.057228796 1.5304102e-38 299 288
-0.023845334 0.68000001 -0.057228796 1.5211906e-38 300 288
-0.022653066 0.68000001 -0.057228796 1.5027875e-38 301 288
-0.021523919 0.68199998 -0.05739712 1.5118992e-38 302 288
-0.020357953 0.68300003 -0.057481278 1.5118992e-38 303 288
-0.01918848 0.68400002 -0.057565439 1.5026436e-38 304 288
-0.0179892 0.68400002 -0.057565439 1.4658014e-38 305 288
-0.016789921 0.68400002 -0.057565439 1.4565096e-38 306 288
-0.015567848 0.68300003 -0.057481278 1.4380704e-38 307 288
-0.014370319 0.68300003 -0.057481278 1.3735331e-38 308 288
-0.013172794 0.68300003 -0.057481278 1.2905571e-38 309 288
-0.054993302 0.69700003 -0.05988159 1.6591957e-38 275 289
-0.053771228 0.69700003 -0.05988159 1.6500121e-38 276 289
-0.052549154 0.69700003 -0.05988159 1.6500121e-38 277 289
-0.051327083 0.69700003 -0.05988159 1.6316809e-38 278 289
-0.050105009 0.69700003 -0.05988159 1.6316809e-38 279 289
-0.048812799 0.69599998 -0.059795678 1.6500124e-38 280 289
-0.047387339 0.69300002 -0.05953794 1.6500124e-38 281 289
-0.04617228 0.69300002 -0.05953794 1.6774913e-38 282 289
-0.044827472 0.69099998 -0.059366114 1.6774913e-38 283 289
-0.043552797 0.69 -0.059280202 1.6591954e-38 284 289
-0.042342998 0.69 -0.059280202 1.6591954e-38 285 289
-0.041013971 0.68800002 -0.059108373 1.6500474e-38 286 289
-0.039807681 0.68800002 -0.059108373 1.6408279e-38 287 289
-0.038601387 0.68800002 -0.059108373 1.6224613e-38 288 289
-0.037340738 0.68699998 -0.059022456 1.6132418e-38 289 289
-0.036136195 0.68699998 -0.059022456 1.6040222e-38 290 289
-0.034880809 0.68599999 -0.058936544 1.6132418e-38 291 289
-0.033678025 0.68599999 -0.058936544 1.5949105e-38 292 289
-0.032380559 0.68400002 -0.058764715 1.585691e-38 293 289
-0.031135695 0.68300003 -0.05867881 1.5764358e-38 294 289
-0.029894331 0.68199998 -0.058592889 1.5672161e-38 295 289
-0.02869856 0.68199998 -0.058592889 1.5671805e-38 296 289
-0.027502786 0.68199998 -0.058592889 1.5671805e-38 297 289
-0.026307013 0.68199998 -0.058592889 1.5487774e-38 298 289
-0.025111238 0.68199998 -0.058592889 1.5487774e-38 299 289
-0.023915464 0.68199998 -0.058592889 1.5579247e-38 300 289
-0.022719691 0.68199998 -0.058592889 1.5486692e-38 301 289
-0.02155548 0.68300003 -0.05867881 1.5394497e-38 302 289
-0.020387759 0.68400002 -0.058764715 1.5210466e-38 303 289
-0.019244585 0.68599999 -0.058936544 1.5026073e-38 304 289
-0.018041799 0.68599999 -0.058936544 1.4749127e-38 305 289
-0.016789921 0.68400002 -0.058764715 1.4656211e-38 306 289
-0.01559064 0.68400002 -0.058764715 1.4287789e-38 307 289
-0.01439136 0.68400002 -0.058764715 1.3089965e-38 308 289
-0.0550722 0.69800001 -0.061191335 1.6500121e-38 275 290
-0.053848371 0.69800001 -0.061191335 1.6408282e-38 276 290
-0.052624546 0.69800001 -0.061191335 1.6408282e-38 277 290
-0.051400717 0.69800001 -0.061191335 1.6224611e-38 278 290
-0.050105009 0.69700003 -0.061103668 1.6224611e-38 279 290
-0.048812799 0.69599998 -0.061015997 1.6500124e-38 280 290
-0.047455717 0.69400001 -0.060840666 1.6407928e-38 281 290
-0.04617228 0.69300002 -0.060752999 1.6500121e-38 282 290
-0.044827472 0.69099998 -0.060577665 1.6592676e-38 283 290
-0.043552797 0.69 -0.060489997 1.6592673e-38 284 290
-0.042342998 0.69 -0.060489997 1.6500477e-38 285 290
-0.041133199 0.69 -0.060489997 1.6408282e-38 286 290
-0.039807681 0.68800002 -0.060314666 1.6408282e-38 287 290
-0.038601387 0.68800002 -0.060314666 1.6407926e-38 288 290
-0.037340738 0.68699998 -0.060226995 1.6223895e-38 289 290
-0.036136195 0.68699998 -0.060226995 1.6132418e-38 290 290
-0.034931656 0.68699998 -0.060226995 1.6132418e-38 291 290
-0.033678025 0.68599999 -0.060139328 1.5949105e-38 292 290
-0.032380559 0.68400002 -0.059964001 1.5949105e-38 293 290
-0.031135695 0.68300003 -0.059876334 1.5856554e-38 294 290
-0.029894331 0.68199998 -0.059788663 1.5764358e-38 295 290
-0.02869856 0.68199998 -0.059788663 1.5671805e-38 296 290
-0.027502786 0.68199998 -0.059788663 1.5671805e-38 297 290
-0.026307013 0.68199998 -0.059788663 1.5671086e-38 298 290
-0.025111238 0.68199998 -0.059788663 1.5671086e-38 299 290
-0.023915464 0.68199998 -0.059788663 1.5762559e-38 300 290
-0.022719691 0.68199998 -0.059788663 1.5762559e-38 301 290
-0.02155548 0.68300003 -0.059876334 1.5578528e-38 302 290
-0.020447372 0.68599999 -0.060139328 1.5393778e-38 303 290
-0.019244585 0.68599999 -0.060139328 1.4933158e-38 304 290
-0.018041799 0.68599999 -0.060139328 1.4656211e-38 305 290
-0.016839013 0.68599999 -0.060139328 1.4471464e-38 306 290
-0.015636226 0.68599999 -0.060139328 1.4010845e-38 307 290
-0.053848371 0.69800001 -0.062415157 1.6499402e-38 276 291
-0.052624546 0.69800001 -0.062415157 1.6499402e-38 277 291
-0.051400717 0.69800001 -0.062415157 1.6407926e-38 278 291
-0.050105009 0.69700003 -0.062325738 1.6407926e-38 279 291
-0.048812799 0.69599998 -0.062236317 1.6500121e-38 280 291
-0.047455717 0.69400001 -0.06205748 1.6500121e-38 281 291
-0.04617228 0.69300002 -0.061968062 1.6500477e-38 282 291
-0.044827472 0.69099998 -0.061789215 1.6592673e-38 283 291
-0.043615919 0.69099998 -0.061789215 1.6409361e-38 284 291
-0.042404365 0.69099998 -0.061789215 1.6409361e-38 285 291
-0.041133199 0.69 -0.061699796 1.6500474e-38 286 291
-0.0399234 0.69 -0.061699796 1.6500474e-38 287 291
-0.038713597 0.69 -0.061699796 1.6408282e-38 288 291
-0.037395094 0.68800002 -0.06152096 1.6408282e-38 289 291
-0.036136195 0.68699998 -0.061431535 1.6224613e-38 290 291
-0.034931656 0.68699998 -0.061431535 1.6224613e-38 291 291
-0.033678025 0.68599999 -0.061342116 1.5949824e-38 292 291
-0.032380559 0.68400002 -0.061163284 1.585727e-38 293 291
-0.031135695 0.68300003 -0.061073858 1.594875e-38 294 291
-0.029938167 0.68300003 -0.061073858 1.5856554e-38 295 291
-0.028740639 0.68300003 -0.061073858 1.5764361e-38 296 291
-0.027543113 0.68300003 -0.061073858 1.5671805e-38 297 291
-0.026307013 0.68199998 -0.060984433 1.5671442e-38 298 291
-0.025111238 0.68199998 -0.060984433 1.5763638e-38 299 291
-0.023915464 0.68199998 -0.060984433 1.567144e-38 300 291
-0.022719691 0.68199998 -0.060984433 1.5579244e-38 301 291
-0.02155548 0.68300003 -0.061073858 1.5394497e-38 302 291
-0.020447372 0.68599999 -0.061342116 1.5394497e-38 303 291
-0.019244585 0.68599999 -0.061342116 1.4748411e-38 304 291
-0.018041799 0.68599999 -0.061342116 1.4287433e-38 305 291
-0.016839013 0.68599999 -0.061342116 1.3642064e-38 306 291
-0.053848371 0.69800001 -0.063638985 1.6223897e-38 276 292
-0.052624546 0.69800001 -0.063638985 1.6223897e-38 277 292
-0.051400717 0.69800001 -0.063638985 1.6132065e-38 278 292
-0.050105009 0.69700003 -0.06354782 1.6132065e-38 279 292
