# .PCD v.7 - Point Cloud Data file format
FIELDS x y z rgb imX imY
SIZE 4 4 4 4 4 4
TYPE F F F F F F
COUNT 1 1 1 1 1 1
WIDTH 831
HEIGHT 1
VIEWPOINT 0 0 0 1 0 0 0
POINTS 831
DATA ascii
-0.0669633 0.68199998 -0.043047838 1.2538255e-38 264 276
-0.065574668 0.68000001 -0.042921599 1.327582e-38 265 276
-0.064287722 0.67900002 -0.042858478 1.5765824e-38 266 276
-0.063004278 0.67799997 -0.042795356 1.6503389e-38 267 276
-0.061815511 0.67799997 -0.042795356 1.5211929e-38 268 276
-0.06044792 0.676 -0.042669121 1.5580711e-38 269 276
-0.059262663 0.676 -0.042669121 1.6781792e-38 270 276
-0.057991501 0.67500001 -0.042606 1.8533508e-38 271 276
-0.056808002 0.67500001 -0.042606 2.101308e-38 272 276
-0.0556245 0.67500001 -0.042606 1.9261722e-38 273 276
-0.054441001 0.67500001 -0.042606 1.7699766e-38 274 276
-0.053178601 0.67400002 -0.042542879 1.7791962e-38 275 276
-0.051996857 0.67400002 -0.042542879 1.8435882e-38 276 276
-0.050664317 0.67199999 -0.042416636 1.8528078e-38 277 276
-0.049486078 0.67199999 -0.042416636 1.8528075e-38 278 276
-0.048235953 0.671 -0.042353518 1.8435879e-38 279 276
-0.047059465 0.671 -0.042353518 1.8435882e-38 280 276
-0.045882981 0.671 -0.042353518 1.8435882e-38 281 276
-0.044706494 0.671 -0.042353518 1.8527356e-38 282 276
-0.043530006 0.671 -0.042353518 1.843516e-38 283 276
-0.042353518 0.671 -0.042353518 1.8434797e-38 284 276
-0.041177034 0.671 -0.042353518 1.8434797e-38 285 276
-0.040000543 0.671 -0.042353518 1.8434795e-38 286 276
-0.038824059 0.671 -0.042353518 1.8434795e-38 287 276
-0.037647571 0.671 -0.042353518 1.8434795e-38 288 276
-0.036525436 0.67199999 -0.042416636 1.8434795e-38 289 276
-0.035347197 0.67199999 -0.042416636 1.8434797e-38 290 276
-0.034168959 0.67199999 -0.042416636 1.8434797e-38 291 276
-0.03299072 0.67199999 -0.042416636 1.8342243e-38 292 276
-0.03190716 0.67400002 -0.042542879 1.8342243e-38 293 276
-0.030725412 0.67400002 -0.042542879 1.8342596e-38 294 276
-0.029543666 0.67400002 -0.042542879 1.8342596e-38 295 276
-0.028404001 0.67500001 -0.042606 1.8342596e-38 296 276
-0.027220501 0.67500001 -0.042606 1.8342596e-38 297 276
-0.026037 0.67500001 -0.042606 1.8341519e-38 298 276
-0.024890319 0.676 -0.042669121 1.8157487e-38 299 276
-0.023775198 0.67799997 -0.042795356 1.8065289e-38 300 276
-0.022653066 0.68000001 -0.042921599 1.8065289e-38 301 276
-0.0214608 0.68000001 -0.042921599 1.8341866e-38 302 276
-0.020328145 0.68199998 -0.043047838 1.8434062e-38 303 276
-0.019160427 0.68300003 -0.043110959 1.8619166e-38 304 276
-0.0179892 0.68400002 -0.043174081 1.8803557e-38 305 276
-0.016839013 0.68599999 -0.043300316 1.9170538e-38 306 276
-0.015681813 0.68800002 -0.043426562 1.9170538e-38 307 276
-0.014475521 0.68800002 -0.043426562 1.8801404e-38 308 276
-0.013269227 0.68800002 -0.043426562 1.8801404e-38 309 276
-0.012062933 0.68800002 -0.043426562 1.8526262e-38 310 276
-0.011203799 0.70999998 -0.044815198 1.8526262e-38 311 276
-0.0099589331 0.70999998 -0.044815198 1.8525897e-38 312 276
-0.0087140659 0.70999998 -0.044815198 1.8433343e-38 313 276
-0.0074797203 0.71100003 -0.044878319 1.8431545e-38 314 276
-0.0062593995 0.71399999 -0.045067675 1.8247152e-38 315 276
-0.0050215465 0.71600002 -0.045193922 1.7786176e-38 316 276
-0.0037714199 0.71700001 -0.045257039 1.7601783e-38 317 276
-0.0025212932 0.71899998 -0.045383278 1.6958216e-38 318 276
-0.0012659066 0.722 -0.045572639 1.6589434e-38 319 276
0 0.72299999 -0.04563576 1.6222448e-38 320 276
0.0012711667 0.72500002 -0.045761999 1.6037698e-38 321 276
0.0025493465 0.727 -0.045888241 1.5577076e-38 322 276
0.0038240198 0.727 -0.045888241 1.5023904e-38 323 276
0.0051057064 0.72799999 -0.045951359 1.5757505e-38 324 276
0.0063996664 0.73000002 -0.046077598 1.6310678e-38 325 276
0.00769012 0.73100001 -0.046140719 1.6403591e-38 326 276
0.0089963535 0.73299998 -0.046266954 1.6403591e-38 327 276
0.010281546 0.73299998 -0.046266954 1.6678739e-38 328 276
0.01153518 0.73100001 -0.046140719 1.6586542e-38 329 276
0.012816866 0.73100001 -0.046140719 1.713936e-38 330 276
-0.075116299 0.69099998 -0.044827472 2.1382884e-38 258 277
-0.073904753 0.69099998 -0.044827472 2.0553122e-38 259 277
-0.072167195 0.68599999 -0.044503104 1.8252201e-38 260 277
-0.070964411 0.68599999 -0.044503104 1.5301581e-38 261 277
-0.06955824 0.68400002 -0.04437336 1.5117562e-38 262 277
-0.068259016 0.68300003 -0.044308487 1.4379997e-38 263 277
-0.0669633 0.68199998 -0.044243611 1.3181824e-38 264 277
-0.065574668 0.68000001 -0.044113863 1.3181824e-38 265 277
-0.064287722 0.67900002 -0.044048995 1.5947696e-38 266 277
-0.063004278 0.67799997 -0.043984115 1.6685261e-38 267 277
-0.061815511 0.67799997 -0.043984115 1.5211203e-38 268 277
-0.06044792 0.676 -0.043854371 1.548779e-38 269 277
-0.059262663 0.676 -0.043854371 1.6963292e-38 270 277
-0.057991501 0.67500001 -0.043789499 1.7793053e-38 271 277
-0.056808002 0.67500001 -0.043789499 1.9080192e-38 272 277
-0.0556245 0.67500001 -0.043789499 1.8158596e-38 273 277
-0.054360349 0.67400002 -0.043724626 1.7792675e-38 274 277
-0.053178601 0.67400002 -0.043724626 1.806962e-38 275 277
-0.051996857 0.67400002 -0.043724626 1.8344765e-38 276 277
-0.050664317 0.67199999 -0.043594878 1.8344765e-38 277 277
-0.049486078 0.67199999 -0.043594878 1.8252564e-38 278 277
-0.048235953 0.671 -0.043530006 1.8252564e-38 279 277
-0.047059465 0.671 -0.043530006 1.8342965e-38 280 277
-0.045882981 0.671 -0.043530006 1.8342965e-38 281 277
-0.044706494 0.671 -0.043530006 1.8342965e-38 282 277
-0.043530006 0.671 -0.043530006 1.8342965e-38 283 277
-0.042353518 0.671 -0.043530006 1.8342243e-38 284 277
-0.041177034 0.671 -0.043530006 1.8434797e-38 285 277
-0.040000543 0.671 -0.043530006 1.8343318e-38 286 277
-0.038824059 0.671 -0.043530006 1.8343318e-38 287 277
-0.037647571 0.671 -0.043530006 1.8343315e-38 288 277
-0.036525436 0.67199999 -0.043594878 1.8343315e-38 289 277
-0.035347197 0.67199999 -0.043594878 1.8434795e-38 290 277
-0.034168959 0.67199999 -0.043594878 1.8434795e-38 291 277
-0.03299072 0.67199999 -0.043594878 1.8342599e-38 292 277
-0.03190716 0.67400002 -0.043724626 1.8250403e-38 293 277
-0.030725412 0.67400002 -0.043724626 1.8342596e-38 294 277
-0.029543666 0.67400002 -0.043724626 1.8250399e-38 295 277
-0.028404001 0.67500001 -0.043789499 1.8433711e-38 296 277
-0.027220501 0.67500001 -0.043789499 1.8341516e-38 297 277
-0.026037 0.67500001 -0.043789499 1.8157485e-38 298 277
-0.024890319 0.676 -0.043854371 1.8157485e-38 299 277
-0.023775198 0.67799997 -0.043984115 1.8157482e-38 300 277
-0.022653066 0.68000001 -0.044113863 1.8157482e-38 301 277
-0.0214608 0.68000001 -0.044113863 1.8341869e-38 302 277
-0.020328145 0.68199998 -0.044243611 1.8618457e-38 303 277
-0.019160427 0.68300003 -0.044308487 1.8894318e-38 304 277
-0.0179892 0.68400002 -0.04437336 1.8894318e-38 305 277
-0.016839013 0.68599999 -0.044503104 1.9170185e-38 306 277
-0.015681813 0.68800002 -0.044632856 1.8801404e-38 307 277
-0.014475521 0.68800002 -0.044632856 1.8156756e-38 308 277
-0.013269227 0.68800002 -0.044632856 1.8433343e-38 309 277
-0.012062933 0.68800002 -0.044632856 1.8433343e-38 310 277
-0.011203799 0.70999998 -0.046060063 1.8525897e-38 311 277
-0.0099589331 0.70999998 -0.046060063 1.8525897e-38 312 277
-0.0087263398 0.71100003 -0.046124939 1.8341147e-38 313 277
-0.0075007593 0.713 -0.046254687 1.8248233e-38 314 277
-0.0062593995 0.71399999 -0.046319555 1.7971644e-38 315 277
-0.0050215465 0.71600002 -0.046449307 1.7602863e-38 316 277
-0.0037714199 0.71700001 -0.046514176 1.7326275e-38 317 277
-0.0025212932 0.71899998 -0.046643924 1.6958216e-38 318 277
-0.0012659066 0.722 -0.046838548 1.6589434e-38 319 277
0 0.72500002 -0.047033165 1.6405761e-38 320 277
0.0012711667 0.72500002 -0.047033165 1.6129534e-38 321 277
0.0025493465 0.727 -0.047162913 1.5574562e-38 322 277
0.0038292799 0.72799999 -0.047227785 1.5389811e-38 323 277
0.0051057064 0.72799999 -0.047227785 1.5940817e-38 324 277
0.0063996664 0.73000002 -0.047357533 1.6217764e-38 325 277
0.00769012 0.73100001 -0.047422405 1.6311745e-38 326 277
0.0089963535 0.73299998 -0.04755215 1.6035518e-38 327 277
0.010281546 0.73299998 -0.04755215 1.6494341e-38 328 277
0.01153518 0.73100001 -0.047422405 1.6494341e-38 329 277
-0.073369987 0.68599999 -0.045705888 2.0828627e-38 259 278
-0.072167195 0.68599999 -0.045705888 1.8803923e-38 260 278
-0.070964411 0.68599999 -0.045705888 1.5023904e-38 261 278
-0.06955824 0.68400002 -0.045572639 1.437855e-38 262 278
-0.068259016 0.68300003 -0.045506012 1.5208669e-38 263 278
-0.0669633 0.68199998 -0.045439381 1.4748061e-38 264 278
-0.065574668 0.68000001 -0.045306131 1.4655864e-38 265 278
-0.064287722 0.67900002 -0.045239504 1.5394149e-38 266 278
-0.063004278 0.67799997 -0.045172878 1.5486345e-38 267 278
-0.061815511 0.67799997 -0.045172878 1.4197407e-38 268 278
-0.06044792 0.676 -0.045039624 1.4934973e-38 269 278
-0.059262663 0.676 -0.045039624 1.7239151e-38 270 278
-0.057991501 0.67500001 -0.044972997 1.7608293e-38 271 278
-0.056808002 0.67500001 -0.044972997 1.7976e-38 272 278
-0.0556245 0.67500001 -0.044972997 1.7883804e-38 273 278
-0.054360349 0.67400002 -0.044906374 1.7977072e-38 274 278
-0.053178601 0.67400002 -0.044906374 1.7977072e-38 275 278
-0.051996857 0.67400002 -0.044906374 1.7977422e-38 276 278
-0.050664317 0.67199999 -0.044773117 1.8069618e-38 277 278
-0.049486078 0.67199999 -0.044773117 1.8252564e-38 278 278
-0.04830784 0.67199999 -0.044773117 1.8160368e-38 279 278
-0.047059465 0.671 -0.044706494 1.8067457e-38 280 278
-0.045882981 0.671 -0.044706494 1.8159652e-38 281 278
-0.044706494 0.671 -0.044706494 1.8250413e-38 282 278
-0.043530006 0.671 -0.044706494 1.8342967e-38 283 278
-0.042353518 0.671 -0.044706494 1.8342962e-38 284 278
-0.041177034 0.671 -0.044706494 1.8250766e-38 285 278
-0.040000543 0.671 -0.044706494 1.8251122e-38 286 278
-0.038824059 0.671 -0.044706494 1.8251122e-38 287 278
-0.037647571 0.671 -0.044706494 1.8067807e-38 288 278
-0.036525436 0.67199999 -0.044773117 1.8067807e-38 289 278
-0.035347197 0.67199999 -0.044773117 1.8434795e-38 290 278
-0.034168959 0.67199999 -0.044773117 1.8434795e-38 291 278
-0.03299072 0.67199999 -0.044773117 1.8342599e-38 292 278
-0.03190716 0.67400002 -0.044906374 1.8342599e-38 293 278
-0.030725412 0.67400002 -0.044906374 1.8157848e-38 294 278
-0.029543666 0.67400002 -0.044906374 1.8157848e-38 295 278
-0.028404001 0.67500001 -0.044972997 1.8158201e-38 296 278
-0.027220501 0.67500001 -0.044972997 1.8066005e-38 297 278
-0.026075572 0.676 -0.045039624 1.8066361e-38 298 278
-0.024890319 0.676 -0.045039624 1.8158557e-38 299 278
-0.023775198 0.67799997 -0.045172878 1.8066361e-38 300 278
-0.022653066 0.68000001 -0.045306131 1.8158557e-38 301 278
-0.0214608 0.68000001 -0.045306131 1.8342949e-38 302 278
-0.020357953 0.68300003 -0.045506012 1.8619176e-38 303 278
-0.01918848 0.68400002 -0.045572639 1.8986873e-38 304 278
-0.0179892 0.68400002 -0.045572639 1.8986873e-38 305 278
-0.01686356 0.68699998 -0.045772515 1.8894318e-38 306 278
-0.015681813 0.68800002 -0.045839146 1.8525894e-38 307 278
-0.014475521 0.68800002 -0.045839146 1.8248235e-38 308 278
-0.013269227 0.68800002 -0.045839146 1.8524462e-38 309 278
-0.012448666 0.70999998 -0.047304932 1.8341866e-38 310 278
-0.011203799 0.70999998 -0.047304932 1.8341866e-38 311 278
-0.0099589331 0.70999998 -0.047304932 1.8617014e-38 312 278
-0.0087263398 0.71100003 -0.047371563 1.8340428e-38 313 278
-0.0075112795 0.71399999 -0.047571439 1.8339349e-38 314 278
-0.0062593995 0.71399999 -0.047571439 1.8063121e-38 315 278
-0.0050285598 0.71700001 -0.04777132 1.751067e-38 316 278
-0.0037714199 0.71700001 -0.04777132 1.7325919e-38 317 278
-0.0025248001 0.72000003 -0.0479712 1.6774547e-38 318 278
-0.0012676599 0.72299999 -0.048171077 1.649796e-38 319 278
0 0.72500002 -0.048304334 1.649724e-38 320 278
0.0012746733 0.727 -0.048437584 1.6220295e-38 321 278
0.0025528532 0.72799999 -0.048504211 1.492919e-38 322 278
0.0038292799 0.72799999 -0.048504211 1.5205417e-38 323 278
0.0051057064 0.72799999 -0.048504211 1.5481268e-38 324 278
0.0063996664 0.73000002 -0.048637468 1.5850052e-38 325 278
0.00769012 0.73100001 -0.048704091 1.6311016e-38 326 278
0.0089718066 0.73100001 -0.048704091 1.603407e-38 327 278
-0.073369987 0.68599999 -0.046908677 2.1288889e-38 259 279
-0.072167195 0.68599999 -0.046908677 1.9632605e-38 260 279
-0.070964411 0.68599999 -0.046908677 1.6037335e-38 261 279
-0.06955824 0.68400002 -0.046771921 1.474589e-38 262 279
-0.068358958 0.68400002 -0.046771921 1.5114671e-38 263 279
-0.067061491 0.68300003 -0.04670354 1.5671811e-38 264 279
-0.065767527 0.68199998 -0.046635158 1.5671811e-38 265 279
-0.064287722 0.67900002 -0.046430022 1.4655864e-38 266 279
-0.063004278 0.67799997 -0.046361636 1.4010495e-38 267 279
-0.061815511 0.67799997 -0.046361636 1.2816634e-38 268 279
-0.06044792 0.676 -0.046224877 1.4292123e-38 269 279
-0.059262663 0.676 -0.046224877 1.7331702e-38 270 279
-0.057991501 0.67500001 -0.0461565 1.779268e-38 271 279
-0.056808002 0.67500001 -0.0461565 1.7791606e-38 272 279
-0.0556245 0.67500001 -0.0461565 1.7791606e-38 273 279
-0.054360349 0.67400002 -0.046088122 1.8067467e-38 274 279
-0.053178601 0.67400002 -0.046088122 1.8160021e-38 275 279
-0.051996857 0.67400002 -0.046088122 1.8068902e-38 276 279
-0.050664317 0.67199999 -0.045951359 1.8252933e-38 277 279
-0.049486078 0.67199999 -0.045951359 1.8068899e-38 278 279
-0.04830784 0.67199999 -0.045951359 1.7884507e-38 279 279
-0.047059465 0.671 -0.045882981 1.8068176e-38 280 279
-0.045882981 0.671 -0.045882981 1.7975621e-38 281 279
-0.044706494 0.671 -0.045882981 1.8250769e-38 282 279
-0.043530006 0.671 -0.045882981 1.8250769e-38 283 279
-0.042353518 0.671 -0.045882981 1.8250766e-38 284 279
-0.041177034 0.671 -0.045882981 1.8158571e-38 285 279
-0.040000543 0.671 -0.045882981 1.8067807e-38 286 279
-0.038824059 0.671 -0.045882981 1.8067807e-38 287 279
-0.037703678 0.67199999 -0.045951359 1.8251117e-38 288 279
-0.036525436 0.67199999 -0.045951359 1.8251117e-38 289 279
-0.035347197 0.67199999 -0.045951359 1.8434792e-38 290 279
-0.034168959 0.67199999 -0.045951359 1.8342596e-38 291 279
-0.03299072 0.67199999 -0.045951359 1.8250403e-38 292 279
-0.03190716 0.67400002 -0.046088122 1.8157848e-38 293 279
-0.030725412 0.67400002 -0.046088122 1.8157485e-38 294 279
-0.029543666 0.67400002 -0.046088122 1.8157485e-38 295 279
-0.028404001 0.67500001 -0.0461565 1.8157838e-38 296 279
-0.027220501 0.67500001 -0.0461565 1.8157838e-38 297 279
-0.026075572 0.676 -0.046224877 1.8341513e-38 298 279
-0.024890319 0.676 -0.046224877 1.8157482e-38 299 279
-0.023775198 0.67799997 -0.046361636 1.8250752e-38 300 279
-0.022653066 0.68000001 -0.046498399 1.8250752e-38 301 279
-0.021523919 0.68199998 -0.046635158 1.8618813e-38 302 279
-0.020357953 0.68300003 -0.04670354 1.8803204e-38 303 279
-0.01918848 0.68400002 -0.046771921 1.9169829e-38 304 279
-0.018041799 0.68599999 -0.046908677 1.9169829e-38 305 279
-0.01686356 0.68699998 -0.046977058 1.8802123e-38 306 279
-0.015681813 0.68800002 -0.047045439 1.8341503e-38 307 279
-0.014517599 0.69 -0.047182199 1.8339349e-38 308 279
-0.013423519 0.69599998 -0.047592476 1.8339349e-38 309 279
-0.0122032 0.69599998 -0.047592476 1.8341147e-38 310 279
-0.011203799 0.70999998 -0.048549797 1.8433343e-38 311 279
-0.0099589331 0.70999998 -0.048549797 1.8523741e-38 312 279
-0.0087263398 0.71100003 -0.048618179 1.8431545e-38 313 279
-0.0075007593 0.713 -0.048754938 1.8246433e-38 314 279
-0.0062593995 0.71399999 -0.048823316 1.7969847e-38 315 279
-0.0050215465 0.71600002 -0.048960082 1.7326275e-38 316 279
-0.0037714199 0.71700001 -0.04902846 1.7049689e-38 317 279
-0.0025248001 0.72000003 -0.0492336 1.6866017e-38 318 279
-0.0012711667 0.72500002 -0.0495755 1.6497235e-38 319 279
0 0.727 -0.049712259 1.6497958e-38 320 279
0.0012746733 0.727 -0.049712259 1.5484164e-38 321 279
0.0025528532 0.72799999 -0.049780637 1.4099781e-38 322 279
0.0038292799 0.72799999 -0.049780637 1.4191978e-38 323 279
0.0051057064 0.72799999 -0.049780637 1.4100131e-38 324 279
-0.073369987 0.68599999 -0.048111461 2.1288886e-38 259 280
-0.072167195 0.68599999 -0.048111461 2.0369451e-38 260 280
-0.070964411 0.68599999 -0.048111461 1.7511387e-38 261 280
-0.06955824 0.68400002 -0.0479712 1.5393414e-38 262 280
-0.068358958 0.68400002 -0.0479712 1.4563294e-38 263 280
-0.067061491 0.68300003 -0.047901068 1.4933168e-38 264 280
-0.065767527 0.68199998 -0.047830928 1.5763288e-38 265 280
-0.064382397 0.68000001 -0.047690667 1.5578541e-38 266 280
-0.063004278 0.67799997 -0.047550395 1.5117562e-38 267 280
-0.061815511 0.67799997 -0.047550395 1.4195959e-38 268 280
-0.06044792 0.676 -0.047410134 1.5394502e-38 269 280
-0.059262663 0.676 -0.047410134 1.7423529e-38 270 280
-0.057991501 0.67500001 -0.047339998 1.7792312e-38 271 280
-0.056808002 0.67500001 -0.047339998 1.7699763e-38 272 280
-0.0556245 0.67500001 -0.047339998 1.7791959e-38 273 280
-0.054360349 0.67400002 -0.047269866 1.7975274e-38 274 280
-0.053178601 0.67400002 -0.047269866 1.8067469e-38 275 280
-0.051996857 0.67400002 -0.047269866 1.8068548e-38 276 280
-0.050664317 0.67199999 -0.047129598 1.825258e-38 277 280
-0.049486078 0.67199999 -0.047129598 1.806962e-38 278 280
-0.04830784 0.67199999 -0.047129598 1.7885229e-38 279 280
-0.047059465 0.671 -0.047059465 1.8068173e-38 280 280
-0.045882981 0.671 -0.047059465 1.7975977e-38 281 280
-0.044706494 0.671 -0.047059465 1.8067457e-38 282 280
-0.043530006 0.671 -0.047059465 1.8067457e-38 283 280
-0.042353518 0.671 -0.047059465 1.8158573e-38 284 280
-0.041177034 0.671 -0.047059465 1.7974541e-38 285 280
-0.040000543 0.671 -0.047059465 1.8158568e-38 286 280
-0.038824059 0.671 -0.047059465 1.8158568e-38 287 280
-0.037703678 0.67199999 -0.047129598 1.797561e-38 288 280
-0.036525436 0.67199999 -0.047129598 1.8067807e-38 289 280
-0.035347197 0.67199999 -0.047129598 1.8342599e-38 290 280
-0.034168959 0.67199999 -0.047129598 1.8342599e-38 291 280
-0.03299072 0.67199999 -0.047129598 1.8341163e-38 292 280
-0.03190716 0.67400002 -0.047269866 1.8157131e-38 293 280
-0.030725412 0.67400002 -0.047269866 1.8064933e-38 294 280
-0.0295875 0.67500001 -0.047339998 1.8157487e-38 295 280
-0.028404001 0.67500001 -0.047339998 1.8157838e-38 296 280
-0.027220501 0.67500001 -0.047339998 1.8341869e-38 297 280
-0.026075572 0.676 -0.047410134 1.8433343e-38 298 280
-0.024963958 0.67799997 -0.047550395 1.8525897e-38 299 280
-0.023775198 0.67799997 -0.047550395 1.8526617e-38 300 280
-0.022653066 0.68000001 -0.047690667 1.8618813e-38 301 280
-0.021523919 0.68199998 -0.047830928 1.8435145e-38 302 280
-0.020357953 0.68300003 -0.047901068 1.8619176e-38 303 280
-0.019244585 0.68599999 -0.048111461 1.8711012e-38 304 280
-0.018068098 0.68699998 -0.048181597 1.8711012e-38 305 280
-0.016888106 0.68800002 -0.048251733 1.8525897e-38 306 280
-0.015727401 0.69 -0.048391998 1.8248952e-38 307 280
-0.014517599 0.69 -0.048391998 1.8247155e-38 308 280
-0.013423519 0.69599998 -0.048812799 1.8431548e-38 309 280
-0.0122032 0.69599998 -0.048812799 1.7973807e-38 310 280
-0.011203799 0.70999998 -0.049794663 1.7973807e-38 311 280
-0.0099589331 0.70999998 -0.049794663 1.824788e-38 312 280
-0.0087263398 0.71100003 -0.049864799 1.7971291e-38 313 280
-0.0075007593 0.713 -0.050005067 1.8062042e-38 314 280
-0.0062506334 0.713 -0.050005067 1.769326e-38 315 280
-0.0050215465 0.71600002 -0.050215468 1.7050408e-38 316 280
-0.0037714199 0.71700001 -0.0502856 1.6866017e-38 317 280
-0.0025318132 0.722 -0.050636265 1.6589434e-38 318 280
-0.0012746733 0.727 -0.050986931 1.6312846e-38 319 280
0 0.727 -0.050986931 1.6034817e-38 320 280
0.0012746733 0.727 -0.050986931 1.5020307e-38 321 280
0.0025493465 0.727 -0.050986931 1.2901239e-38 322 280
0.0038976599 0.741 -0.051968798 1.3269662e-38 323 280
-0.073369987 0.68599999 -0.049314249 2.1013379e-38 259 281
-0.072167195 0.68599999 -0.049314249 2.0829708e-38 260 281
-0.070964411 0.68599999 -0.049314249 1.8524815e-38 261 281
-0.06955824 0.68400002 -0.049170479 1.6131696e-38 262 281
-0.068358958 0.68400002 -0.049170479 1.5209738e-38 263 281
-0.067061491 0.68300003 -0.049098592 1.4565099e-38 264 281
-0.065767527 0.68199998 -0.049026705 1.4565099e-38 265 281
-0.064382397 0.68000001 -0.048882935 1.5486342e-38 266 281
-0.063097201 0.67900002 -0.048811045 1.5210115e-38 267 281
-0.061815511 0.67799997 -0.048739154 1.5299435e-38 268 281
-0.06044792 0.676 -0.048595384 1.6589816e-38 269 281
-0.059262663 0.676 -0.048595384 1.769976e-38 270 281
-0.058077414 0.676 -0.048595384 1.769976e-38 271 281
-0.056808002 0.67500001 -0.048523501 1.7791596e-38 272 281
-0.0556245 0.67500001 -0.048523501 1.7791596e-38 273 281
-0.054360349 0.67400002 -0.048451614 1.8067104e-38 274 281
-0.053178601 0.67400002 -0.048451614 1.8159299e-38 275 281
-0.051996857 0.67400002 -0.048451614 1.8067823e-38 276 281
-0.050664317 0.67199999 -0.04830784 1.8160018e-38 277 281
-0.049486078 0.67199999 -0.04830784 1.806782e-38 278 281
-0.04830784 0.67199999 -0.04830784 1.806782e-38 279 281
-0.047059465 0.671 -0.048235953 1.7975977e-38 280 281
-0.045882981 0.671 -0.048235953 1.7975977e-38 281 281
-0.044706494 0.671 -0.048235953 1.8158571e-38 282 281
-0.043530006 0.671 -0.048235953 1.8158571e-38 283 281
-0.042353518 0.671 -0.048235953 1.815785e-38 284 281
-0.041177034 0.671 -0.048235953 1.815785e-38 285 281
-0.040000543 0.671 -0.048235953 1.7974535e-38 286 281
-0.038824059 0.671 -0.048235953 1.8158568e-38 287 281
-0.037703678 0.67199999 -0.04830784 1.8250399e-38 288 281
-0.036525436 0.67199999 -0.04830784 1.8342596e-38 289 281
-0.035347197 0.67199999 -0.04830784 1.8433711e-38 290 281
-0.034270655 0.67400002 -0.048451614 1.8341516e-38 291 281
-0.033088908 0.67400002 -0.048451614 1.8158203e-38 292 281
-0.03190716 0.67400002 -0.048451614 1.7973812e-38 293 281
-0.030771 0.67500001 -0.048523501 1.8065289e-38 294 281
-0.0295875 0.67500001 -0.048523501 1.8065289e-38 295 281
-0.028404001 0.67500001 -0.048523501 1.8340794e-38 296 281
-0.027260827 0.676 -0.048595384 1.8525544e-38 297 281
-0.026075572 0.676 -0.048595384 1.8709574e-38 298 281
-0.024963958 0.67799997 -0.048739154 1.8709574e-38 299 281
-0.023810266 0.67900002 -0.048811045 1.8526262e-38 300 281
-0.022653066 0.68000001 -0.048882935 1.8618457e-38 301 281
-0.021523919 0.68199998 -0.049026705 1.8618457e-38 302 281
-0.020387759 0.68400002 -0.049170479 1.8711012e-38 303 281
-0.019244585 0.68599999 -0.049314249 1.8894324e-38 304 281
-0.018068098 0.68699998 -0.049386136 1.8986519e-38 305 281
-0.016888106 0.68800002 -0.049458027 1.8525541e-38 306 281
-0.015727401 0.69 -0.049601797 1.8156759e-38 307 281
-0.014538639 0.69099998 -0.049673684 1.7879093e-38 308 281
-0.013384946 0.69400001 -0.049889345 1.815604e-38 309 281
-0.012168133 0.69400001 -0.049889345 1.806456e-38 310 281
-0.01095132 0.69400001 -0.049889345 1.7880528e-38 311 281
-0.0099729598 0.71100003 -0.051111419 1.7971644e-38 312 281
-0.0087263398 0.71100003 -0.051111419 1.7510668e-38 313 281
-0.0075007593 0.713 -0.051255193 1.7142604e-38 314 281
-0.0062506334 0.713 -0.051255193 1.6773821e-38 315 281
-0.0050215465 0.71600002 -0.051470853 1.6498309e-38 316 281
-0.00376616 0.71600002 -0.051470853 1.6222083e-38 317 281
-0.0025493465 0.727 -0.052261602 1.5944065e-38 318 281
-0.0012746733 0.727 -0.052261602 1.5206499e-38 319 281
0 0.727 -0.052261602 1.4002911e-38 320 281
0.0012764266 0.72799999 -0.052333489 1.2158998e-38 321 281
-0.072167195 0.68599999 -0.050517038 2.0830426e-38 260 282
-0.070964411 0.68599999 -0.050517038 1.9079068e-38 261 282
-0.06955824 0.68400002 -0.050369758 1.7880528e-38 262 282
-0.068358958 0.68400002 -0.050369758 1.6773821e-38 263 282
-0.067061491 0.68300003 -0.05029612 1.5577443e-38 264 282
-0.065767527 0.68199998 -0.050222475 1.4748041e-38 265 282
-0.064382397 0.68000001 -0.050075196 1.474913e-38 266 282
-0.063097201 0.67900002 -0.050001562 1.4565099e-38 267 282
-0.061815511 0.67799997 -0.049927916 1.5853332e-38 268 282
-0.060626756 0.67799997 -0.049927916 1.695968e-38 269 282
-0.059262663 0.676 -0.049780637 1.7699043e-38 270 282
-0.058077414 0.676 -0.049780637 1.7699043e-38 271 282
-0.056808002 0.67500001 -0.049706999 1.7699043e-38 272 282
-0.0556245 0.67500001 -0.049706999 1.779124e-38 273 282
-0.054360349 0.67400002 -0.049633358 1.779124e-38 274 282
-0.053178601 0.67400002 -0.049633358 1.779124e-38 275 282
-0.051996857 0.67400002 -0.049633358 1.7975271e-38 276 282
-0.050815105 0.67400002 -0.049633358 1.779124e-38 277 282
-0.049633358 0.67400002 -0.049633358 1.8067104e-38 278 282
-0.04830784 0.67199999 -0.049486078 1.7974908e-38 279 282
-0.047129598 0.67199999 -0.049486078 1.7975261e-38 280 282
-0.045951359 0.67199999 -0.049486078 1.7975261e-38 281 282
-0.044773117 0.67199999 -0.049486078 1.7975258e-38 282 282
-0.043594878 0.67199999 -0.049486078 1.7883061e-38 283 282
-0.042416636 0.67199999 -0.049486078 1.7974538e-38 284 282
-0.041177034 0.671 -0.049412437 1.7974538e-38 285 282
-0.040000543 0.671 -0.049412437 1.7883059e-38 286 282
-0.03888192 0.67199999 -0.049486078 1.7883059e-38 287 282
-0.037703678 0.67199999 -0.049486078 1.7974535e-38 288 282
-0.036525436 0.67199999 -0.049486078 1.8158568e-38 289 282
-0.035452399 0.67400002 -0.049633358 1.8157848e-38 290 282
-0.034270655 0.67400002 -0.049633358 1.8157848e-38 291 282
-0.033088908 0.67400002 -0.049633358 1.8065652e-38 292 282
-0.031954501 0.67500001 -0.049706999 1.7973456e-38 293 282
-0.030771 0.67500001 -0.049706999 1.8248601e-38 294 282
-0.0295875 0.67500001 -0.049706999 1.8340797e-38 295 282
-0.028404001 0.67500001 -0.049706999 1.8617014e-38 296 282
-0.027260827 0.676 -0.049780637 1.8801406e-38 297 282
-0.026075572 0.676 -0.049780637 1.870993e-38 298 282
-0.024963958 0.67799997 -0.049927916 1.8802125e-38 299 282
-0.023845334 0.68000001 -0.050075196 1.8618457e-38 300 282
-0.022653066 0.68000001 -0.050075196 1.8618457e-38 301 282
-0.021523919 0.68199998 -0.050222475 1.861846e-38 302 282
-0.020387759 0.68400002 -0.050369758 1.8710656e-38 303 282
-0.019244585 0.68599999 -0.050517038 1.8711012e-38 304 282
-0.018068098 0.68699998 -0.050590675 1.8803207e-38 305 282
-0.0169372 0.69 -0.050811596 1.8248952e-38 306 282
-0.015727401 0.69 -0.050811596 1.7880528e-38 307 282
-0.014538639 0.69099998 -0.050885238 1.8063121e-38 308 282
-0.013384946 0.69400001 -0.051106159 1.8247152e-38 309 282
-0.012168133 0.69400001 -0.051106159 1.8063121e-38 310 282
-0.01095132 0.69400001 -0.051106159 1.7786176e-38 311 282
-0.0099729598 0.71100003 -0.052358042 1.7785457e-38 312 282
-0.0087263398 0.71100003 -0.052358042 1.7508868e-38 313 282
-0.0074797203 0.71100003 -0.052358042 1.6314641e-38 314 282
-0.0062330998 0.71100003 -0.052358042 1.5761469e-38 315 282
-0.0049864799 0.71100003 -0.052358042 1.5944421e-38 316 282
-0.072167195 0.68599999 -0.051719822 2.0830429e-38 260 283
-0.070964411 0.68599999 -0.051719822 1.9724082e-38 261 283
-0.06955824 0.68400002 -0.051569041 1.9261308e-38 262 283
-0.068358958 0.68400002 -0.051569041 1.7878374e-38 263 283
-0.067061491 0.68300003 -0.051493648 1.6683071e-38 264 283
-0.065767527 0.68199998 -0.051418249 1.5945506e-38 265 283
-0.064382397 0.68000001 -0.051267464 1.4564749e-38 266 283
-0.063190132 0.68000001 -0.051267464 1.4472193e-38 267 283
-0.061906695 0.67900002 -0.051192071 1.6683819e-38 268 283
-0.060626756 0.67799997 -0.051116679 1.751358e-38 269 283
-0.059262663 0.676 -0.050965894 1.7790157e-38 270 283
-0.058077414 0.676 -0.050965894 1.7790157e-38 271 283
-0.056892153 0.676 -0.050965894 1.769904e-38 272 283
-0.0556245 0.67500001 -0.050890498 1.769904e-38 273 283
-0.054441001 0.67500001 -0.050890498 1.769904e-38 274 283
-0.053257499 0.67500001 -0.050890498 1.7791596e-38 275 283
-0.052074 0.67500001 -0.050890498 1.7974908e-38 276 283
-0.050815105 0.67400002 -0.050815105 1.7882711e-38 277 283
-0.049633358 0.67400002 -0.050815105 1.7974185e-38 278 283
-0.048451614 0.67400002 -0.050815105 1.7974185e-38 279 283
-0.047269866 0.67400002 -0.050815105 1.7974541e-38 280 283
-0.045951359 0.67199999 -0.050664317 1.7974541e-38 281 283
-0.044773117 0.67199999 -0.050664317 1.815785e-38 282 283
-0.043594878 0.67199999 -0.050664317 1.815785e-38 283 283
-0.042416636 0.67199999 -0.050664317 1.8065655e-38 284 283
-0.041238401 0.67199999 -0.050664317 1.815785e-38 285 283
-0.040060159 0.67199999 -0.050664317 1.7974535e-38 286 283
-0.03888192 0.67199999 -0.050664317 1.7974535e-38 287 283
-0.037703678 0.67199999 -0.050664317 1.8158203e-38 288 283
-0.036525436 0.67199999 -0.050664317 1.8250399e-38 289 283
-0.035452399 0.67400002 -0.050815105 1.8158203e-38 290 283
-0.034270655 0.67400002 -0.050815105 1.8066008e-38 291 283
-0.033088908 0.67400002 -0.050815105 1.8157485e-38 292 283
-0.031954501 0.67500001 -0.050890498 1.8065289e-38 293 283
-0.030771 0.67500001 -0.050890498 1.8433346e-38 294 283
-0.0295875 0.67500001 -0.050890498 1.8433346e-38 295 283
-0.028404001 0.67500001 -0.050890498 1.8525897e-38 296 283
-0.027260827 0.676 -0.050965894 1.870993e-38 297 283
-0.026075572 0.676 -0.050965894 1.8618457e-38 298 283
-0.024963958 0.67799997 -0.051116679 1.8618457e-38 299 283
-0.023845334 0.68000001 -0.051267464 1.861846e-38 300 283
-0.022653066 0.68000001 -0.051267464 1.861846e-38 301 283
-0.02155548 0.68300003 -0.051493648 1.8618457e-38 302 283
-0.020447372 0.68599999 -0.051719822 1.8711012e-38 303 283
-0.019272638 0.68699998 -0.051795214 1.8803207e-38 304 283
-0.0180944 0.68800002 -0.051870614 1.8987238e-38 305 283
-0.0169372 0.69 -0.052021399 1.7971288e-38 306 283
-0.015727401 0.69 -0.052021399 1.7695062e-38 307 283
-0.014538639 0.69099998 -0.052096792 1.787909e-38 308 283
-0.013384946 0.69400001 -0.052322973 1.7971644e-38 309 283
-0.012168133 0.69400001 -0.052322973 1.7695059e-38 310 283
-0.01095132 0.69400001 -0.052322973 1.6957494e-38 311 283
-0.0087263398 0.71100003 -0.053604662 1.6402525e-38 313 283
-0.0074797203 0.71100003 -0.053604662 1.5482364e-38 314 283
-0.0062330998 0.71100003 -0.053604662 1.5205417e-38 315 283
-0.072167195 0.68599999 -0.05292261 2.1198136e-38 260 284
-0.070964411 0.68599999 -0.05292261 2.0276539e-38 261 284
-0.069761619 0.68599999 -0.05292261 2.0182907e-38 262 284
-0.068358958 0.68400002 -0.05276832 1.907692e-38 263 284
-0.067061491 0.68300003 -0.052691177 1.7605753e-38 264 284
-0.065767527 0.68199998 -0.052614026 1.7052579e-38 265 284
-0.064382397 0.68000001 -0.052459732 1.6408301e-38 266 284
-0.063190132 0.68000001 -0.052459732 1.6869279e-38 267 284
-0.061997864 0.68000001 -0.052459732 1.7974552e-38 268 284
-0.060716182 0.67900002 -0.052382588 1.7974552e-38 269 284
-0.059437994 0.67799997 -0.052305438 1.8158217e-38 270 284
-0.058249239 0.67799997 -0.052305438 1.8158217e-38 271 284
-0.056892153 0.676 -0.052151144 1.7974908e-38 272 284
-0.0556245 0.67500001 -0.052074 1.7974908e-38 273 284
-0.054441001 0.67500001 -0.052074 1.7791596e-38 274 284
-0.053257499 0.67500001 -0.052074 1.7791596e-38 275 284
-0.052074 0.67500001 -0.052074 1.7791593e-38 276 284
-0.050815105 0.67400002 -0.051996857 1.7699396e-38 277 284
-0.049633358 0.67400002 -0.051996857 1.7882705e-38 278 284
-0.048451614 0.67400002 -0.051996857 1.7975261e-38 279 284
-0.047269866 0.67400002 -0.051996857 1.7975258e-38 280 284
-0.046088122 0.67400002 -0.051996857 1.7975258e-38 281 284
-0.044906374 0.67400002 -0.051996857 1.7974538e-38 282 284
-0.043724626 0.67400002 -0.051996857 1.7974538e-38 283 284
-0.042416636 0.67199999 -0.051842555 1.8157848e-38 284 284
-0.041238401 0.67199999 -0.051842555 1.8157848e-38 285 284
-0.040060159 0.67199999 -0.051842555 1.8250403e-38 286 284
-0.038997639 0.67400002 -0.051996857 1.8250403e-38 287 284
-0.037815895 0.67400002 -0.051996857 1.8433716e-38 288 284
-0.036634147 0.67400002 -0.051996857 1.8525911e-38 289 284
-0.035452399 0.67400002 -0.051996857 1.815892e-38 290 284
-0.034270655 0.67400002 -0.051996857 1.8251117e-38 291 284
-0.033137999 0.67500001 -0.052074 1.8434064e-38 292 284
-0.031954501 0.67500001 -0.052074 1.8526262e-38 293 284
-0.030771 0.67500001 -0.052074 1.8526262e-38 294 284
-0.0295875 0.67500001 -0.052074 1.8526262e-38 295 284
-0.028446076 0.676 -0.052151144 1.8618457e-38 296 284
-0.027260827 0.676 -0.052151144 1.8618457e-38 297 284
-0.026152719 0.67799997 -0.052305438 1.8618457e-38 298 284
-0.025000781 0.67900002 -0.052382588 1.8618457e-38 299 284
-0.023845334 0.68000001 -0.052459732 1.8618457e-38 300 284
-0.022653066 0.68000001 -0.052459732 1.8711012e-38 301 284
-0.02155548 0.68300003 -0.052691177 1.8619532e-38 302 284
-0.020447372 0.68599999 -0.05292261 1.8711728e-38 303 284
-0.019272638 0.68699998 -0.052999757 1.8711012e-38 304 284
-0.0180944 0.68800002 -0.053076908 1.8526262e-38 305 284
-0.0169372 0.69 -0.053231198 1.7603585e-38 306 284
-0.015727401 0.69 -0.053231198 1.7234802e-38 307 284
-0.014538639 0.69099998 -0.053308345 1.7416673e-38 308 284
-0.013327086 0.69099998 -0.053308345 1.7324477e-38 309 284
-0.070964411 0.68599999 -0.054125395 2.0369454e-38 261 285
-0.069761619 0.68599999 -0.054125395 2.0276189e-38 262 285
-0.068558842 0.68599999 -0.054125395 1.9907046e-38 263 285
-0.067159683 0.68400002 -0.053967599 1.8987615e-38 264 285
-0.065863967 0.68300003 -0.053888701 1.8711027e-38 265 285
-0.064571753 0.68199998 -0.053809796 1.8528075e-38 266 285
-0.063190132 0.68000001 -0.053652 1.8897217e-38 267 285
-0.061997864 0.68000001 -0.053652 1.880394e-38 268 285
-0.060716182 0.67900002 -0.053573098 1.8435516e-38 269 285
-0.059525665 0.67900002 -0.053573098 1.8434797e-38 270 285
-0.058249239 0.67799997 -0.053494196 1.8342243e-38 271 285
-0.056892153 0.676 -0.053336397 1.8250769e-38 272 285
-0.055706903 0.676 -0.053336397 1.8250769e-38 273 285
-0.054521654 0.676 -0.053336397 1.8158573e-38 274 285
-0.053257499 0.67500001 -0.053257499 1.8342965e-38 275 285
-0.052074 0.67500001 -0.053257499 1.8250766e-38 276 285
-0.050890498 0.67500001 -0.053257499 1.8250766e-38 277 285
-0.049633358 0.67400002 -0.053178601 1.8158568e-38 278 285
-0.048451614 0.67400002 -0.053178601 1.8158568e-38 279 285
-0.047269866 0.67400002 -0.053178601 1.8158922e-38 280 285
-0.046088122 0.67400002 -0.053178601 1.8158922e-38 281 285
-0.044906374 0.67400002 -0.053178601 1.8342596e-38 282 285
-0.043724626 0.67400002 -0.053178601 1.8342596e-38 283 285
-0.042542879 0.67400002 -0.053178601 1.8250399e-38 284 285
-0.041361131 0.67400002 -0.053178601 1.8250399e-38 285 285
-0.040179387 0.67400002 -0.053178601 1.8250399e-38 286 285
-0.038997639 0.67400002 -0.053178601 1.8342596e-38 287 285
-0.037815895 0.67400002 -0.053178601 1.8526264e-38 288 285
-0.036634147 0.67400002 -0.053178601 1.861846e-38 289 285
-0.035505001 0.67500001 -0.053257499 1.8711009e-38 290 285
-0.034321502 0.67500001 -0.053257499 1.8711009e-38 291 285
-0.033137999 0.67500001 -0.053257499 1.8711006e-38 292 285
-0.031954501 0.67500001 -0.053257499 1.8711006e-38 293 285
-0.030816587 0.676 -0.053336397 1.8618813e-38 294 285
-0.029631332 0.676 -0.053336397 1.8618813e-38 295 285
-0.028446076 0.676 -0.053336397 1.8618457e-38 296 285
-0.027341479 0.67799997 -0.053494196 1.8618457e-38 297 285
-0.026191294 0.67900002 -0.053573098 1.8618457e-38 298 285
-0.025000781 0.67900002 -0.053573098 1.8618457e-38 299 285
-0.023845334 0.68000001 -0.053652 1.8618813e-38 300 285
-0.022719691 0.68199998 -0.053809796 1.8711009e-38 301 285
-0.02155548 0.68300003 -0.053888701 1.8619529e-38 302 285
-0.020447372 0.68599999 -0.054125395 1.8711725e-38 303 285
-0.019272638 0.68699998 -0.054204296 1.8709574e-38 304 285
-0.0180944 0.68800002 -0.054283202 1.834115e-38 305 285
-0.0169372 0.69 -0.054440998 1.751067e-38 306 285
-0.015750192 0.69099998 -0.054519895 1.7233723e-38 307 285
-0.014538639 0.69099998 -0.054519895 1.7048611e-38 308 285
-0.069863312 0.68699998 -0.055408835 2.0275833e-38 262 286
-0.068558842 0.68599999 -0.055328183 1.9999245e-38 263 286
-0.067159683 0.68400002 -0.055166878 1.9448589e-38 264 286
-0.065863967 0.68300003 -0.055086225 1.9080167e-38 265 286
-0.064571753 0.68199998 -0.055005573 1.8986169e-38 266 286
-0.063190132 0.68000001 -0.054844268 1.9354593e-38 267 286
-0.061997864 0.68000001 -0.054844268 1.880394e-38 268 286
-0.0608056 0.68000001 -0.054844268 1.8619907e-38 269 286
-0.059525665 0.67900002 -0.054763615 1.8435882e-38 270 286
-0.058249239 0.67799997 -0.054682959 1.8251851e-38 271 286
-0.057060476 0.67799997 -0.054682959 1.8251495e-38 272 286
-0.055706903 0.676 -0.054521654 1.8251495e-38 273 286
-0.054521654 0.676 -0.054521654 1.8251851e-38 274 286
-0.053257499 0.67500001 -0.054441001 1.8435882e-38 275 286
-0.052074 0.67500001 -0.054441001 1.8436235e-38 276 286
-0.050890498 0.67500001 -0.054441001 1.815965e-38 277 286
-0.049706999 0.67500001 -0.054441001 1.806817e-38 278 286
-0.048523501 0.67500001 -0.054441001 1.8160724e-38 279 286
-0.047269866 0.67400002 -0.054360349 1.7977053e-38 280 286
-0.046088122 0.67400002 -0.054360349 1.7977053e-38 281 286
-0.044906374 0.67400002 -0.054360349 1.8252201e-38 282 286
-0.043724626 0.67400002 -0.054360349 1.8160006e-38 283 286
-0.042542879 0.67400002 -0.054360349 1.8343318e-38 284 286
-0.041361131 0.67400002 -0.054360349 1.8343318e-38 285 286
-0.040179387 0.67400002 -0.054360349 1.8434792e-38 286 286
-0.039055496 0.67500001 -0.054441001 1.8434792e-38 287 286
-0.037871998 0.67500001 -0.054441001 1.861846e-38 288 286
-0.036688499 0.67500001 -0.054441001 1.861846e-38 289 286
-0.035505001 0.67500001 -0.054441001 1.8619176e-38 290 286
-0.034321502 0.67500001 -0.054441001 1.8711372e-38 291 286
-0.033137999 0.67500001 -0.054441001 1.8711372e-38 292 286
-0.032001842 0.676 -0.054521654 1.8619176e-38 293 286
-0.030816587 0.676 -0.054521654 1.8619179e-38 294 286
-0.029631332 0.676 -0.054521654 1.8435148e-38 295 286
-0.028530238 0.67799997 -0.054682959 1.861846e-38 296 286
-0.027341479 0.67799997 -0.054682959 1.861846e-38 297 286
-0.026191294 0.67900002 -0.054763615 1.861846e-38 298 286
-0.025037598 0.68000001 -0.054844268 1.861846e-38 299 286
-0.023845334 0.68000001 -0.054844268 1.8710656e-38 300 286
-0.022719691 0.68199998 -0.055005573 1.8710656e-38 301 286
-0.02158704 0.68400002 -0.055166878 1.8711372e-38 302 286
-0.020447372 0.68599999 -0.055328183 1.8896122e-38 303 286
-0.019272638 0.68699998 -0.055408835 1.8340794e-38 304 286
-0.0180944 0.68800002 -0.055489492 1.7695783e-38 305 286
-0.016961746 0.69099998 -0.055731449 1.6956418e-38 306 286
-0.015750192 0.69099998 -0.055731449 1.6587635e-38 307 286
-0.068558842 0.68599999 -0.056530971 2.0184709e-38 263 287
-0.067159683 0.68400002 -0.056366164 1.9724087e-38 264 287
-0.065863967 0.68300003 -0.056283753 1.9631533e-38 265 287
-0.064571753 0.68199998 -0.056201346 1.8988684e-38 266 287
-0.063375987 0.68199998 -0.056201346 1.8988684e-38 267 287
-0.061997864 0.68000001 -0.056036532 1.8713177e-38 268 287
-0.0608056 0.68000001 -0.056036532 1.8620979e-38 269 287
-0.059613332 0.68000001 -0.056036532 1.880394e-38 270 287
-0.058335152 0.67900002 -0.055954125 1.8619907e-38 271 287
-0.057060476 0.67799997 -0.055871718 1.8527359e-38 272 287
-0.055706903 0.676 -0.055706903 1.8527359e-38 273 287
-0.054521654 0.676 -0.055706903 1.8528075e-38 274 287
-0.053257499 0.67500001 -0.0556245 1.8528075e-38 275 287
-0.052074 0.67500001 -0.0556245 1.8619907e-38 276 287
-0.050890498 0.67500001 -0.0556245 1.8527712e-38 277 287
-0.049706999 0.67500001 -0.0556245 1.8436229e-38 278 287
-0.048523501 0.67500001 -0.0556245 1.8436229e-38 279 287
-0.047339998 0.67500001 -0.0556245 1.8253273e-38 280 287
-0.0461565 0.67500001 -0.0556245 1.8345469e-38 281 287
-0.044972997 0.67500001 -0.0556245 1.8436585e-38 282 287
-0.043789499 0.67500001 -0.0556245 1.8436585e-38 283 287
-0.042606 0.67500001 -0.0556245 1.8435867e-38 284 287
-0.041422497 0.67500001 -0.0556245 1.8435867e-38 285 287
-0.040238999 0.67500001 -0.0556245 1.8619179e-38 286 287
-0.039055496 0.67500001 -0.0556245 1.8619179e-38 287 287
-0.037871998 0.67500001 -0.0556245 1.8710656e-38 288 287
-0.036688499 0.67500001 -0.0556245 1.861846e-38 289 287
-0.035505001 0.67500001 -0.0556245 1.8894324e-38 290 287
-0.034321502 0.67500001 -0.0556245 1.8986519e-38 291 287
-0.033187091 0.676 -0.055706903 1.8711372e-38 292 287
-0.032001842 0.676 -0.055706903 1.8619176e-38 293 287
-0.030816587 0.676 -0.055706903 1.8619176e-38 294 287
-0.029718997 0.67799997 -0.055871718 1.8619176e-38 295 287
-0.028572321 0.67900002 -0.055954125 1.861846e-38 296 287
-0.027381808 0.67900002 -0.055954125 1.861846e-38 297 287
-0.026229866 0.68000001 -0.056036532 1.8893968e-38 298 287
-0.025111238 0.68199998 -0.056201346 1.8893968e-38 299 287
-0.023915464 0.68199998 -0.056201346 1.8619179e-38 300 287
-0.022719691 0.68199998 -0.056201346 1.8619179e-38 301 287
-0.02158704 0.68400002 -0.056366164 1.8893968e-38 302 287
-0.020447372 0.68599999 -0.056530971 1.8986163e-38 303 287
-0.019272638 0.68699998 -0.056613375 1.7605031e-38 304 287
-0.018146999 0.69 -0.0568606 1.6775269e-38 305 287
-0.0169372 0.69 -0.0568606 1.6496161e-38 306 287
-0.068558842 0.68599999 -0.057733759 2.0183991e-38 263 288
-0.067159683 0.68400002 -0.057565439 1.9723734e-38 264 288
-0.065863967 0.68300003 -0.057481278 1.9631538e-38 265 288
-0.064666435 0.68300003 -0.057481278 1.9081605e-38 266 288
-0.063375987 0.68199998 -0.05739712 1.8897215e-38 267 288
-0.062180214 0.68199998 -0.05739712 1.8713545e-38 268 288
-0.0608056 0.68000001 -0.057228796 1.8620991e-38 269 288
-0.059613332 0.68000001 -0.057228796 1.843696e-38 270 288
-0.058335152 0.67900002 -0.057144642 1.843696e-38 271 288
-0.057144642 0.67900002 -0.057144642 1.8528078e-38 272 288
-0.055871718 0.67799997 -0.057060476 1.8528078e-38 273 288
-0.054682959 0.67799997 -0.057060476 1.8619554e-38 274 288
-0.053336397 0.676 -0.056892153 1.8619554e-38 275 288
-0.052151144 0.676 -0.056892153 1.8435882e-38 276 288
-0.050890498 0.67500001 -0.056808002 1.8435882e-38 277 288
-0.049706999 0.67500001 -0.056808002 1.8344763e-38 278 288
-0.048523501 0.67500001 -0.056808002 1.8344763e-38 279 288
-0.047339998 0.67500001 -0.056808002 1.8252564e-38 280 288
-0.0461565 0.67500001 -0.056808002 1.8345118e-38 281 288
-0.044972997 0.67500001 -0.056808002 1.8436235e-38 282 288
-0.043789499 0.67500001 -0.056808002 1.8436235e-38 283 288
-0.042606 0.67500001 -0.056808002 1.8436229e-38 284 288
-0.041422497 0.67500001 -0.056808002 1.8436229e-38 285 288
-0.040238999 0.67500001 -0.056808002 1.8528062e-38 286 288
-0.039055496 0.67500001 -0.056808002 1.8435867e-38 287 288
-0.037871998 0.67500001 -0.056808002 1.8619179e-38 288 288
-0.036688499 0.67500001 -0.056808002 1.8619179e-38 289 288
-0.035505001 0.67500001 -0.056808002 1.8802851e-38 290 288
-0.034372345 0.676 -0.056892153 1.8710656e-38 291 288
-0.033187091 0.676 -0.056892153 1.8711012e-38 292 288
-0.03209652 0.67799997 -0.057060476 1.8711012e-38 293 288
-0.030907756 0.67799997 -0.057060476 1.8619176e-38 294 288
-0.029762832 0.67900002 -0.057144642 1.8619176e-38 295 288
-0.028572321 0.67900002 -0.057144642 1.8618457e-38 296 288
-0.027422134 0.68000001 -0.057228796 1.8711012e-38 297 288
-0.026229866 0.68000001 -0.057228796 1.8894324e-38 298 288
-0.025111238 0.68199998 -0.05739712 1.8802128e-38 299 288
-0.023915464 0.68199998 -0.05739712 1.8893968e-38 300 288
-0.022753006 0.68300003 -0.057481278 1.8893968e-38 301 288
-0.02158704 0.68400002 -0.057565439 1.9076564e-38 302 288
-0.020447372 0.68599999 -0.057733759 1.870814e-38 303 288
-0.019272638 0.68699998 -0.057817914 1.6959664e-38 304 288
-0.018068098 0.68699998 -0.057817914 1.5945152e-38 305 288
-0.067159683 0.68400002 -0.058764715 1.9815927e-38 264 289
-0.0659604 0.68400002 -0.058764715 1.9723731e-38 265 289
-0.064666435 0.68300003 -0.05867881 1.9173078e-38 266 289
-0.063375987 0.68199998 -0.058592889 1.9080883e-38 267 289
-0.062180214 0.68199998 -0.058592889 1.8713542e-38 268 289
-0.060984433 0.68199998 -0.058592889 1.8713542e-38 269 289
-0.059613332 0.68000001 -0.058421064 1.8620991e-38 270 289
-0.058421064 0.68000001 -0.058421064 1.8620991e-38 271 289
-0.057144642 0.67900002 -0.058335152 1.8620272e-38 272 289
-0.055954125 0.67900002 -0.058335152 1.8528075e-38 273 289
-0.054763615 0.67900002 -0.058335152 1.8528075e-38 274 289
-0.053494196 0.67799997 -0.058249239 1.8528075e-38 275 289
-0.052151144 0.676 -0.058077414 1.8435879e-38 276 289
-0.050965894 0.676 -0.058077414 1.8528075e-38 277 289
-0.049780637 0.676 -0.058077414 1.8345118e-38 278 289
-0.048595384 0.676 -0.058077414 1.8345118e-38 279 289
-0.047339998 0.67500001 -0.057991501 1.8528431e-38 280 289
-0.0461565 0.67500001 -0.057991501 1.8528431e-38 281 289
-0.044972997 0.67500001 -0.057991501 1.8436235e-38 282 289
-0.043789499 0.67500001 -0.057991501 1.8436235e-38 283 289
-0.042606 0.67500001 -0.057991501 1.8620261e-38 284 289
-0.041422497 0.67500001 -0.057991501 1.8620261e-38 285 289
-0.040238999 0.67500001 -0.057991501 1.8528059e-38 286 289
-0.039055496 0.67500001 -0.057991501 1.8528059e-38 287 289
-0.037928104 0.676 -0.058077414 1.8528059e-38 288 289
-0.036742851 0.676 -0.058077414 1.8528059e-38 289 289
-0.035557602 0.676 -0.058077414 1.8619176e-38 290 289
-0.034372345 0.676 -0.058077414 1.8619176e-38 291 289
-0.033187091 0.676 -0.058077414 1.8711372e-38 292 289
-0.032143861 0.67900002 -0.058335152 1.8619176e-38 293 289
-0.030953348 0.67900002 -0.058335152 1.8435148e-38 294 289
-0.029762832 0.67900002 -0.058335152 1.8435148e-38 295 289
-0.028614398 0.68000001 -0.058421064 1.8435148e-38 296 289
-0.027422134 0.68000001 -0.058421064 1.8435148e-38 297 289
-0.026307013 0.68199998 -0.058592889 1.8618457e-38 298 289
-0.025111238 0.68199998 -0.058592889 1.8711012e-38 299 289
-0.023950534 0.68300003 -0.05867881 1.8711012e-38 300 289
-0.022753006 0.68300003 -0.05867881 1.8618457e-38 301 289
-0.02158704 0.68400002 -0.058764715 1.8616305e-38 302 289
-0.020477179 0.68699998 -0.059022456 1.787874e-38 303 289
-0.019272638 0.68699998 -0.059022456 1.6222816e-38 304 289
-0.06735605 0.68599999 -0.060139328 1.9723731e-38 264 290
-0.066153266 0.68599999 -0.060139328 1.9723731e-38 265 290
-0.064761117 0.68400002 -0.059964001 1.9265274e-38 266 290
-0.063468911 0.68300003 -0.059876334 1.9173078e-38 267 290
-0.062180214 0.68199998 -0.059788663 1.8805022e-38 268 290
-0.060984433 0.68199998 -0.059788663 1.8805022e-38 269 290
-0.059788663 0.68199998 -0.059788663 1.8713545e-38 270 290
-0.058421064 0.68000001 -0.059613332 1.8620991e-38 271 290
-0.057228796 0.68000001 -0.059613332 1.8620272e-38 272 290
-0.055954125 0.67900002 -0.059525665 1.8620272e-38 273 290
-0.054763615 0.67900002 -0.059525665 1.8620275e-38 274 290
-0.053494196 0.67799997 -0.059437994 1.8528078e-38 275 290
-0.052305438 0.67799997 -0.059437994 1.8528075e-38 276 290
-0.051116679 0.67799997 -0.059437994 1.8620272e-38 277 290
-0.049780637 0.676 -0.059262663 1.8345118e-38 278 290
-0.048595384 0.676 -0.059262663 1.8345118e-38 279 290
-0.047410134 0.676 -0.059262663 1.8528431e-38 280 290
-0.046224877 0.676 -0.059262663 1.8528431e-38 281 290
-0.045039624 0.676 -0.059262663 1.8436232e-38 282 290
-0.043854371 0.676 -0.059262663 1.8436232e-38 283 290
-0.042669121 0.676 -0.059262663 1.8711377e-38 284 290
-0.041483864 0.676 -0.059262663 1.8711377e-38 285 290
-0.040298611 0.676 -0.059262663 1.8711374e-38 286 290
-0.039113361 0.676 -0.059262663 1.880357e-38 287 290
-0.037928104 0.676 -0.059262663 1.8710656e-38 288 290
-0.036851559 0.67799997 -0.059437994 1.8802851e-38 289 290
-0.0356628 0.67799997 -0.059437994 1.8711374e-38 290 290
-0.034474038 0.67799997 -0.059437994 1.8711374e-38 291 290
-0.033334374 0.67900002 -0.059525665 1.8619179e-38 292 290
-0.032143861 0.67900002 -0.059525665 1.8435148e-38 293 290
-0.030953348 0.67900002 -0.059525665 1.8618463e-38 294 290
-0.029806666 0.68000001 -0.059613332 1.8618463e-38 295 290
-0.028614398 0.68000001 -0.059613332 1.861846e-38 296 290
-0.027502786 0.68199998 -0.059788663 1.861846e-38 297 290
-0.026307013 0.68199998 -0.059788663 1.8618457e-38 298 290
-0.02514806 0.68300003 -0.059876334 1.8526262e-38 299 290
-0.023950534 0.68300003 -0.059876334 1.8709574e-38 300 290
-0.022753006 0.68300003 -0.059876334 1.8525541e-38 301 290
-0.02155548 0.68300003 -0.059876334 1.7787979e-38 302 290
-0.066249698 0.68699998 -0.061431535 1.9724087e-38 265 291
-0.064950474 0.68599999 -0.061342116 1.926563e-38 266 291
-0.063561834 0.68400002 -0.061163284 1.908088e-38 267 291
-0.06227139 0.68300003 -0.061073858 1.8805022e-38 268 291
-0.061073858 0.68300003 -0.061073858 1.8805022e-38 269 291
-0.059788663 0.68199998 -0.060984433 1.8804666e-38 270 291
