# .PCD v.7 - Point Cloud Data file format
FIELDS x y z rgb imX imY
SIZE 4 4 4 4 4 4
TYPE F F F F F F
COUNT 1 1 1 1 1 1
WIDTH 841
HEIGHT 1
VIEWPOINT 0 0 0 1 0 0 0
POINTS 841
DATA ascii
-0.011361601 0.72000003 -0.0088367993 8.1131201e-39 311 247
-0.010085173 0.71899998 -0.0088245263 8.0205714e-39 312 247
-0.0088245263 0.71899998 -0.0088245263 7.9283758e-39 313 247
-0.0075638802 0.71899998 -0.0088245263 7.9273024e-39 314 247
-0.0063032326 0.71899998 -0.0088245263 7.8351067e-39 315 247
-0.0050425865 0.71899998 -0.0088245263 7.743274e-39 316 247
-0.0037714199 0.71700001 -0.0087999795 7.743274e-39 317 247
-0.0025142799 0.71700001 -0.0087999795 7.5606834e-39 318 247
-0.00125714 0.71700001 -0.0087999795 7.3766523e-39 319 247
0 0.71700001 -0.0087999795 7.1919023e-39 320 247
0.00125714 0.71700001 -0.0087999795 7.0997067e-39 321 247
0.0025212932 0.71899998 -0.0088245263 6.731999e-39 322 247
0.0037819401 0.71899998 -0.0088245263 6.5476077e-39 323 247
0.0050425865 0.71899998 -0.0088245263 6.0880757e-39 324 247
0.0063295332 0.722 -0.0088613462 6.0880757e-39 325 247
0.0075954394 0.722 -0.0088613462 5.7214596e-39 326 247
0.0088613462 0.722 -0.0088613462 5.4448741e-39 327 247
0.01014128 0.72299999 -0.0088736191 5.5377942e-39 328 247
0.01140894 0.72299999 -0.0088736191 5.4452398e-39 329 247
0.012711667 0.72500002 -0.0088981669 5.8129518e-39 330 247
0.014021406 0.727 -0.0089227129 5.9973444e-39 331 247
0.01531712 0.72799999 -0.0089349858 6.0895429e-39 332 247
0.016593546 0.72799999 -0.0089349858 5.8125958e-39 333 247
0.017869972 0.72799999 -0.0089349858 3.3312522e-39 334 247
0.019199001 0.73000002 -0.0089595336 6.2811522e-39 335 247
0.020478934 0.73000002 -0.0089595336 1.38297e-38 336 247
0.021758866 0.73000002 -0.0089595336 1.5858004e-38 337 247
-0.034321502 0.72500002 -0.010169334 1.7602863e-38 293 248
-0.033050332 0.72500002 -0.010169334 1.4377085e-38 294 248
-0.03186683 0.727 -0.010197386 1.1242793e-38 295 248
-0.030592158 0.727 -0.010197386 8.3814856e-39 296 248
-0.029236834 0.72500002 -0.010169334 7.9201473e-39 297 248
-0.027965667 0.72500002 -0.010169334 5.996271e-39 298 248
-0.026694499 0.72500002 -0.010169334 5.7196841e-39 299 248
-0.025353199 0.72299999 -0.01014128 6.0859457e-39 300 248
-0.024052227 0.722 -0.010127253 5.9019146e-39 301 248
-0.022786319 0.722 -0.010127253 5.7185855e-39 302 248
-0.021460801 0.72000003 -0.010099201 5.8107826e-39 303 248
-0.020198401 0.72000003 -0.010099201 5.9969549e-39 304 248
-0.018935999 0.72000003 -0.010099201 6.3657388e-39 305 248
-0.017673599 0.72000003 -0.010099201 6.9181797e-39 306 248
-0.0164112 0.72000003 -0.010099201 7.379518e-39 307 248
-0.0151488 0.72000003 -0.010099201 7.8383311e-39 308 248
-0.0138864 0.72000003 -0.010099201 7.9305267e-39 309 248
-0.012606465 0.71899998 -0.010085173 8.113839e-39 310 248
-0.01134582 0.71899998 -0.010085173 8.113839e-39 311 248
-0.01005712 0.71700001 -0.01005712 8.1138418e-39 312 248
-0.0087999795 0.71700001 -0.01005712 8.1138418e-39 313 248
-0.0075428397 0.71700001 -0.01005712 8.0205714e-39 314 248
-0.0063032326 0.71899998 -0.010085173 7.9283758e-39 315 248
-0.0050285598 0.71700001 -0.01005712 7.8358228e-39 316 248
-0.0037714199 0.71700001 -0.01005712 7.8358228e-39 317 248
-0.0025142799 0.71700001 -0.01005712 7.3766467e-39 318 248
-0.00125714 0.71700001 -0.01005712 7.1922555e-39 319 248
0 0.71700001 -0.01005712 7.3755705e-39 320 248
0.00125714 0.71700001 -0.01005712 7.006788e-39 321 248
0.0025212932 0.71899998 -0.010085173 6.6387285e-39 322 248
0.0037819401 0.71899998 -0.010085173 6.4543373e-39 323 248
0.0050425865 0.71899998 -0.010085173 5.7200163e-39 324 248
0.0063120001 0.72000003 -0.010099201 5.6278206e-39 325 248
0.0075954394 0.722 -0.010127253 5.4448741e-39 326 248
0.0088613462 0.722 -0.010127253 5.4448741e-39 327 248
0.010127253 0.722 -0.010127253 5.4448769e-39 328 248
0.01140894 0.72299999 -0.01014128 5.4448769e-39 329 248
0.012676599 0.72299999 -0.01014128 5.7203848e-39 330 248
0.013982833 0.72500002 -0.010169334 5.7203848e-39 331 248
0.015296079 0.727 -0.010197386 5.9955424e-39 332 248
0.016593546 0.72799999 -0.010211413 6.1802924e-39 333 248
0.017869972 0.72799999 -0.010211413 3.9730189e-39 334 248
0.019199001 0.73000002 -0.010239467 4.8953339e-39 335 248
0.020478934 0.73000002 -0.010239467 1.0329858e-38 336 248
0.021758866 0.73000002 -0.010239467 1.4202074e-38 337 248
0.023038799 0.73000002 -0.010239467 1.7511033e-38 338 248
-0.035690852 0.727 -0.01147206 1.7049689e-38 292 249
-0.034321502 0.72500002 -0.0114405 1.6496156e-38 293 249
-0.033050332 0.72500002 -0.0114405 1.0507393e-38 294 249
-0.03186683 0.727 -0.01147206 8.5712845e-39 295 249
-0.030592158 0.727 -0.01147206 6.7309592e-39 296 249
-0.029236834 0.72500002 -0.0114405 6.7309592e-39 297 249
-0.027965667 0.72500002 -0.0114405 6.3632543e-39 298 249
-0.026620859 0.72299999 -0.01140894 5.9944732e-39 299 249
-0.025318133 0.722 -0.01139316 6.0852213e-39 300 249
-0.0239856 0.72000003 -0.011361601 5.9930242e-39 301 249
-0.022723202 0.72000003 -0.011361601 5.8111357e-39 302 249
-0.021460801 0.72000003 -0.011361601 5.9955269e-39 303 249
-0.020198401 0.72000003 -0.011361601 6.5486839e-39 304 249
-0.018909698 0.71899998 -0.01134582 7.0096621e-39 305 249
-0.017649053 0.71899998 -0.01134582 7.7450607e-39 306 249
-0.016388407 0.71899998 -0.01134582 7.9290918e-39 307 249
-0.01512776 0.71899998 -0.01134582 8.1131201e-39 308 249
-0.013867113 0.71899998 -0.01134582 8.2053158e-39 309 249
-0.012606465 0.71899998 -0.01134582 8.2060346e-39 310 249
-0.01134582 0.71899998 -0.01134582 8.2982303e-39 311 249
-0.01005712 0.71700001 -0.01131426 8.4815425e-39 312 249
-0.0087999795 0.71700001 -0.01131426 8.4815425e-39 313 249
-0.0075428397 0.71700001 -0.01131426 8.2053186e-39 314 249
-0.0062857 0.71700001 -0.01131426 8.0205686e-39 315 249
-0.0050285598 0.71700001 -0.01131426 7.7450635e-39 316 249
-0.0037714199 0.71700001 -0.01131426 7.5603121e-39 317 249
-0.0025142799 0.71700001 -0.01131426 7.4677661e-39 318 249
-0.00125714 0.71700001 -0.01131426 7.0993438e-39 319 249
0 0.71700001 -0.01131426 7.0075111e-39 320 249
0.00125714 0.71700001 -0.01131426 6.7312829e-39 321 249
0.0025142799 0.71700001 -0.01131426 6.1791923e-39 322 249
0.0037714199 0.71700001 -0.01131426 6.0869967e-39 323 249
0.0050285598 0.71700001 -0.01131426 5.4441496e-39 324 249
0.0063120001 0.72000003 -0.011361601 5.4441496e-39 325 249
0.0075743999 0.72000003 -0.011361601 5.4437937e-39 326 249
0.0088613462 0.722 -0.01139316 5.4437937e-39 327 249
0.010127253 0.722 -0.01139316 5.0768161e-39 328 249
0.01139316 0.722 -0.01139316 5.0768161e-39 329 249
0.012676599 0.72299999 -0.01140894 5.2601311e-39 330 249
0.01394426 0.72299999 -0.01140894 5.4445238e-39 331 249
0.015254001 0.72500002 -0.0114405 5.7196813e-39 332 249
0.016570752 0.727 -0.01147206 5.811877e-39 333 249
0.017845426 0.727 -0.01147206 5.3516275e-39 334 249
0.0191464 0.72799999 -0.01148784 4.6137037e-39 335 249
0.020478934 0.73000002 -0.011519399 5.5421494e-39 336 249
0.021758866 0.73000002 -0.011519399 1.1350474e-38 337 249
0.023038799 0.73000002 -0.011519399 1.7235888e-38 338 249
-0.038240198 0.727 -0.012746733 1.7786176e-38 290 250
-0.035690852 0.727 -0.012746733 1.5852591e-38 292 250
-0.03441618 0.727 -0.012746733 1.3731731e-38 293 250
-0.033141505 0.727 -0.012746733 6.72989e-39 294 250
-0.03186683 0.727 -0.012746733 6.0845206e-39 295 250
-0.030508002 0.72500002 -0.012711667 6.822436e-39 296 250
-0.029156178 0.72299999 -0.012676599 6.822436e-39 297 250
-0.02788852 0.72299999 -0.012676599 6.4540024e-39 298 250
-0.026584039 0.722 -0.012659066 6.1777756e-39 299 250
-0.025248 0.72000003 -0.012624 6.0859303e-39 300 250
-0.023952285 0.71899998 -0.012606465 6.0859303e-39 301 250
-0.022691639 0.71899998 -0.012606465 6.0866436e-39 302 250
-0.021430992 0.71899998 -0.012606465 6.2713936e-39 303 250
-0.020170346 0.71899998 -0.012606465 6.7323661e-39 304 250
-0.018857099 0.71700001 -0.0125714 6.9171161e-39 305 250
-0.017599959 0.71700001 -0.0125714 7.3773684e-39 306 250
-0.016342819 0.71700001 -0.0125714 7.3773684e-39 307 250
-0.015085679 0.71700001 -0.0125714 7.6532336e-39 308 250
-0.013828539 0.71700001 -0.0125714 7.7454292e-39 309 250
-0.0125714 0.71700001 -0.0125714 7.9308925e-39 310 250
-0.01131426 0.71700001 -0.0125714 8.0230881e-39 311 250
-0.010043093 0.71600002 -0.012553867 8.2067535e-39 312 250
-0.0087877065 0.71600002 -0.012553867 8.2989505e-39 313 250
-0.00753232 0.71600002 -0.012553867 8.2067507e-39 314 250
-0.0062769335 0.71600002 -0.012553867 7.9305239e-39 315 250
-0.0050215465 0.71600002 -0.012553867 7.7450579e-39 316 250
-0.00376616 0.71600002 -0.012553867 7.4684696e-39 317 250
-0.0025107733 0.71600002 -0.012553867 7.2833693e-39 318 250
-0.0012553866 0.71600002 -0.012553867 7.0993382e-39 319 250
0 0.71600002 -0.012553867 6.9153112e-39 320 250
0.0012553866 0.71600002 -0.012553867 6.6390845e-39 321 250
0.0025142799 0.71700001 -0.0125714 6.1795455e-39 322 250
0.0037714199 0.71700001 -0.0125714 6.0873498e-39 323 250
0.0050285598 0.71700001 -0.0125714 5.6267402e-39 324 250
0.0063032326 0.71899998 -0.012606465 5.6267402e-39 325 250
0.0075743999 0.72000003 -0.012624 5.1679299e-39 326 250
0.0088367993 0.72000003 -0.012624 5.1679299e-39 327 250
0.010127253 0.722 -0.012659066 4.9842645e-39 328 250
0.01139316 0.722 -0.012659066 4.9842645e-39 329 250
0.012659066 0.722 -0.012659066 5.1675796e-39 330 250
0.01394426 0.72299999 -0.012676599 5.2597752e-39 331 250
0.015211919 0.72299999 -0.012676599 5.5356432e-39 332 250
0.016525166 0.72500002 -0.012711667 5.6278388e-39 333 250
0.017796334 0.72500002 -0.012711667 5.6278416e-39 334 250
0.019120099 0.727 -0.012746733 4.5214941e-39 335 250
0.020422826 0.72799999 -0.012764266 2.224176e-39 336 250
0.021758866 0.73000002 -0.012799333 8.4016419e-39 337 250
0.023038799 0.73000002 -0.012799333 1.6131699e-38 338 250
-0.039514873 0.727 -0.014021406 1.7418105e-38 289 251
-0.038240198 0.727 -0.014021406 1.7510668e-38 290 251
-0.036965527 0.727 -0.014021406 1.7233721e-38 291 251
-0.035690852 0.727 -0.014021406 1.2442429e-38 292 251
-0.03441618 0.727 -0.014021406 8.5702125e-39 293 251
-0.033050332 0.72500002 -0.013982833 5.7175332e-39 294 251
-0.031779166 0.72500002 -0.013982833 6.3629026e-39 295 251
-0.030423839 0.72299999 -0.01394426 7.0061042e-39 296 251
-0.029115854 0.722 -0.013924973 6.6376804e-39 297 251
-0.027849946 0.722 -0.013924973 6.2710404e-39 298 251
-0.026510401 0.72000003 -0.0138864 6.0866492e-39 299 251
-0.0251428 0.71700001 -0.013828539 5.9026124e-39 300 251
-0.02388566 0.71700001 -0.013828539 5.9026124e-39 301 251
-0.02262852 0.71700001 -0.013828539 5.9029684e-39 302 251
-0.021371379 0.71700001 -0.013828539 6.1791951e-39 303 251
-0.020114239 0.71700001 -0.013828539 6.6387313e-39 304 251
-0.018857099 0.71700001 -0.013828539 7.0075139e-39 305 251
-0.017599959 0.71700001 -0.013828539 7.1000626e-39 306 251
-0.016342819 0.71700001 -0.013828539 7.2844539e-39 307 251
-0.015085679 0.71700001 -0.013828539 7.2855231e-39 308 251
-0.013809253 0.71600002 -0.013809253 7.4699157e-39 309 251
-0.012553867 0.71600002 -0.013809253 7.8379752e-39 310 251
-0.01129848 0.71600002 -0.013809253 7.8379752e-39 311 251
-0.010043093 0.71600002 -0.013809253 8.2060346e-39 312 251
-0.0087877065 0.71600002 -0.013809253 8.2982303e-39 313 251
-0.00753232 0.71600002 -0.013809253 8.2993023e-39 314 251
-0.0062769335 0.71600002 -0.013809253 8.0230755e-39 315 251
-0.0050215465 0.71600002 -0.013809253 7.7461327e-39 316 251
-0.00376616 0.71600002 -0.013809253 7.3773502e-39 317 251
-0.0025107733 0.71600002 -0.013809253 7.1004129e-39 318 251
-0.0012553866 0.71600002 -0.013809253 6.9156616e-39 319 251
0 0.71600002 -0.013809253 6.7323493e-39 320 251
0.0012553866 0.71600002 -0.013809253 6.547958e-39 321 251
0.0025107733 0.71600002 -0.013809253 5.9040376e-39 322 251
0.00376616 0.71600002 -0.013809253 5.8118405e-39 323 251
0.0050285598 0.71700001 -0.013828539 5.6267402e-39 324 251
0.0062857 0.71700001 -0.013828539 5.4427091e-39 325 251
0.0075428397 0.71700001 -0.013828539 5.1675669e-39 326 251
0.0088367993 0.72000003 -0.0138864 5.1675669e-39 327 251
0.010099201 0.72000003 -0.0138864 5.0757371e-39 328 251
0.011361601 0.72000003 -0.0138864 5.0757371e-39 329 251
0.012659066 0.722 -0.013924973 5.1672138e-39 330 251
0.013924973 0.722 -0.013924973 5.1672138e-39 331 251
0.015211919 0.72299999 -0.01394426 5.2594094e-39 332 251
0.016525166 0.72500002 -0.013982833 5.2594094e-39 333 251
0.017796334 0.72500002 -0.013982833 5.7182324e-39 334 251
0.0190675 0.72500002 -0.013982833 5.1654188e-39 335 251
0.020422826 0.72799999 -0.014040692 2.7730309e-39 336 251
0.021758866 0.73000002 -0.014079267 7.4753668e-39 337 251
0.023038799 0.73000002 -0.014079267 1.4105556e-38 338 251
-0.040845651 0.72799999 -0.01531712 1.7325551e-38 288 252
-0.039514873 0.727 -0.015296079 1.7694333e-38 289 252
-0.038240198 0.727 -0.015296079 1.7050408e-38 290 252
-0.036965527 0.727 -0.015296079 1.575967e-38 291 252
-0.035690852 0.727 -0.015296079 9.1259002e-39 292 252
-0.034321502 0.72500002 -0.015254001 5.8068575e-39 293 252
-0.032959159 0.72299999 -0.015211919 5.8118798e-39 294 252
-0.031691495 0.72299999 -0.015211919 6.2728579e-39 295 252
-0.030381758 0.722 -0.015190879 6.4554373e-39 296 252
-0.029115854 0.722 -0.015190879 6.2706873e-39 297 252
-0.027772799 0.72000003 -0.0151488 6.3617913e-39 298 252
-0.02647358 0.71899998 -0.01512776 6.3617913e-39 299 252
-0.0251428 0.71700001 -0.015085679 6.0869967e-39 300 252
-0.023852346 0.71600002 -0.01506464 6.0869967e-39 301 252
-0.022596961 0.71600002 -0.01506464 5.7203722e-39 302 252
-0.021371379 0.71700001 -0.015085679 5.9044033e-39 303 252
-0.020114239 0.71700001 -0.015085679 5.9958829e-39 304 252
-0.018857099 0.71700001 -0.015085679 6.2721096e-39 305 252
-0.017599959 0.71700001 -0.015085679 6.3646612e-39 306 252
-0.016320027 0.71600002 -0.01506464 6.5490539e-39 307 252
-0.01506464 0.71600002 -0.01506464 6.7337982e-39 308 252
-0.013809253 0.71600002 -0.01506464 6.9178294e-39 309 252
-0.012553867 0.71600002 -0.01506464 6.8267127e-39 310 252
-0.01129848 0.71600002 -0.01506464 6.9189084e-39 311 252
-0.010043093 0.71600002 -0.01506464 7.1958456e-39 312 252
-0.0087877065 0.71600002 -0.01506464 7.4724325e-39 313 252
-0.00753232 0.71600002 -0.01506464 8.0237916e-39 314 252
-0.0062769335 0.71600002 -0.01506464 7.9315959e-39 315 252
-0.0050215465 0.71600002 -0.01506464 8.0212748e-39 316 252
-0.00376616 0.71600002 -0.01506464 7.8368822e-39 317 252
-0.0025107733 0.71600002 -0.01506464 7.1929617e-39 318 252
-0.0012553866 0.71600002 -0.01506464 6.9160147e-39 319 252
0 0.71600002 -0.01506464 6.4564855e-39 320 252
0.0012553866 0.71600002 -0.01506464 6.1798986e-39 321 252
0.0025107733 0.71600002 -0.01506464 5.8114846e-39 322 252
0.00376616 0.71600002 -0.01506464 5.719289e-39 323 252
0.0050215465 0.71600002 -0.01506464 5.4427119e-39 324 252
0.0062769335 0.71600002 -0.01506464 5.3501575e-39 325 252
0.0075428397 0.71700001 -0.015085679 5.0750154e-39 326 252
0.0087999795 0.71700001 -0.015085679 5.0750154e-39 327 252
0.010099201 0.72000003 -0.0151488 5.0750182e-39 328 252
0.011361601 0.72000003 -0.0151488 5.0750182e-39 329 252
0.012624 0.72000003 -0.0151488 5.2583333e-39 330 252
0.013924973 0.722 -0.015190879 5.2583333e-39 331 252
0.015190879 0.722 -0.015190879 5.0746623e-39 332 252
0.01647958 0.72299999 -0.015211919 5.1672166e-39 333 252
0.017747238 0.72299999 -0.015211919 5.1668607e-39 334 252
0.0190675 0.72500002 -0.015254001 5.0746651e-39 335 252
0.020422826 0.72799999 -0.01531712 3.7853878e-39 336 252
0.021758866 0.73000002 -0.0153592 6.2746698e-39 337 252
0.023038799 0.73000002 -0.0153592 1.1526955e-38 338 252
-0.040845651 0.72799999 -0.016593546 1.7417749e-38 288 253
-0.039569225 0.72799999 -0.016593546 1.7970923e-38 289 253
-0.038240198 0.727 -0.016570752 1.5852585e-38 290 253
-0.036965527 0.727 -0.016570752 1.2810488e-38 291 253
-0.035690852 0.727 -0.016570752 6.2707055e-39 292 253
-0.034321502 0.72500002 -0.016525166 5.256555e-39 293 253
-0.032959159 0.72299999 -0.01647958 6.2724922e-39 294 253
-0.031647664 0.722 -0.016456785 6.1799364e-39 295 253
-0.030381758 0.722 -0.016456785 6.4539996e-39 296 253
-0.029035201 0.72000003 -0.0164112 6.1777728e-39 297 253
-0.027734226 0.71899998 -0.016388407 6.1781259e-39 298 253
-0.02639994 0.71700001 -0.016342819 6.1781259e-39 299 253
-0.025107734 0.71600002 -0.016320027 5.9036872e-39 300 253
-0.023852346 0.71600002 -0.016320027 5.8111329e-39 301 253
-0.022596961 0.71600002 -0.016320027 5.9047564e-39 302 253
-0.021341572 0.71600002 -0.016320027 5.9047564e-39 303 253
-0.020086186 0.71600002 -0.016320027 5.7217945e-39 304 253
-0.0188308 0.71600002 -0.016320027 5.8139901e-39 305 253
-0.017575413 0.71600002 -0.016320027 6.2731662e-39 306 253
-0.016320027 0.71600002 -0.016320027 6.4575575e-39 307 253
-0.01506464 0.71600002 -0.016320027 6.5490342e-39 308 253
-0.01377068 0.71399999 -0.016274439 6.5490342e-39 309 253
-0.012518799 0.71399999 -0.016274439 6.8248995e-39 310 253
-0.01129848 0.71600002 -0.016320027 6.9170951e-39 311 253
-0.01001504 0.71399999 -0.016274439 7.3777061e-39 312 253
-0.0087631596 0.71399999 -0.016274439 7.7461299e-39 313 253
-0.0075112795 0.71399999 -0.016274439 8.2071038e-39 314 253
-0.0062593995 0.71399999 -0.016274439 7.9308771e-39 315 253
-0.0050075199 0.71399999 -0.016274439 7.9294421e-39 316 253
-0.0037556398 0.71399999 -0.016274439 7.5610184e-39 317 253
-0.0025037599 0.71399999 -0.016274439 7.1004073e-39 318 253
-0.00125188 0.71399999 -0.016274439 6.7319836e-39 319 253
0 0.71399999 -0.016274439 6.3646458e-39 320 253
0.00125188 0.71399999 -0.016274439 5.9036676e-39 321 253
0.0025037599 0.71399999 -0.016274439 5.7185673e-39 322 253
0.00376616 0.71600002 -0.016320027 5.6263717e-39 323 253
0.0050215465 0.71600002 -0.016320027 5.3505107e-39 324 253
0.0062769335 0.71600002 -0.016320027 5.258315e-39 325 253
0.0075428397 0.71700001 -0.016342819 5.2579619e-39 326 253
0.0087999795 0.71700001 -0.016342819 5.2579619e-39 327 253
0.010099201 0.72000003 -0.0164112 5.165416e-39 328 253
0.011361601 0.72000003 -0.0164112 5.165416e-39 329 253
0.012624 0.72000003 -0.0164112 5.2568899e-39 330 253
0.013924973 0.722 -0.016456785 5.4412798e-39 331 253
0.015190879 0.722 -0.016456785 5.0746524e-39 332 253
0.01647958 0.72299999 -0.01647958 5.0746524e-39 333 253
0.017747238 0.72299999 -0.01647958 5.0742965e-39 334 253
0.019120099 0.727 -0.016570752 5.2583276e-39 335 253
0.020422826 0.72799999 -0.016593546 5.1647097e-39 336 253
0.021699252 0.72799999 -0.016593546 4.5193403e-39 337 253
0.022975679 0.72799999 -0.016593546 7.382818e-39 338 253
-0.040845651 0.72799999 -0.017869972 1.7601783e-38 288 254
-0.039569225 0.72799999 -0.017869972 1.7878371e-38 289 254
-0.038240198 0.727 -0.017845426 1.4010474e-38 290 254
-0.036965527 0.727 -0.017845426 9.4932464e-39 291 254
-0.035690852 0.727 -0.017845426 5.99412e-39 292 254
-0.034321502 0.72500002 -0.017796334 5.9019244e-39 293 254
-0.032959159 0.72299999 -0.017747238 6.2710531e-39 294 254
-0.031647664 0.722 -0.017722692 6.0870219e-39 295 254
-0.0302976 0.72000003 -0.017673599 5.9026279e-39 296 254
-0.029035201 0.72000003 -0.017673599 5.9026279e-39 297 254
-0.027657079 0.71700001 -0.017599959 6.0866464e-39 298 254
-0.026363119 0.71600002 -0.017575413 6.178842e-39 299 254
-0.025107734 0.71600002 -0.017575413 6.1795483e-39 300 254
-0.02378572 0.71399999 -0.017526319 6.1795483e-39 301 254
-0.022533838 0.71399999 -0.017526319 5.9969395e-39 302 254
-0.021341572 0.71600002 -0.017575413 6.0891351e-39 303 254
-0.020086186 0.71600002 -0.017575413 5.8143405e-39 304 254
-0.0188308 0.71600002 -0.017575413 5.9065361e-39 305 254
-0.017575413 0.71600002 -0.017575413 6.089854e-39 306 254
-0.016320027 0.71600002 -0.017575413 6.1820496e-39 307 254
-0.015022559 0.71399999 -0.017526319 6.089854e-39 308 254
-0.01377068 0.71399999 -0.017526319 5.9972996e-39 309 254
-0.012518799 0.71399999 -0.017526319 5.9061858e-39 310 254
-0.011266919 0.71399999 -0.017526319 6.1824125e-39 311 254
-0.01001504 0.71399999 -0.017526319 6.2746124e-39 312 254
-0.0087631596 0.71399999 -0.017526319 6.6437536e-39 313 254
-0.0075112795 0.71399999 -0.017526319 7.2855203e-39 314 254
-0.0062506334 0.713 -0.017501773 7.4702717e-39 315 254
-0.0050005065 0.713 -0.017501773 7.5610212e-39 316 254
-0.0037556398 0.71399999 -0.017526319 7.3762712e-39 317 254
-0.0025037599 0.71399999 -0.017526319 6.5493902e-39 318 254
-0.00125188 0.71399999 -0.017526319 6.2724445e-39 319 254
0 0.71399999 -0.017526319 5.6285227e-39 320 254
0.00125188 0.71399999 -0.017526319 5.4441314e-39 321 254
0.0025037599 0.71399999 -0.017526319 5.3515855e-39 322 254
0.00376616 0.71600002 -0.017575413 5.2590311e-39 323 254
0.0050215465 0.71600002 -0.017575413 4.9831701e-39 324 254
0.0062769335 0.71600002 -0.017575413 4.7987774e-39 325 254
0.0075428397 0.71700001 -0.017599959 4.9824568e-39 326 254
0.0087999795 0.71700001 -0.017599959 4.9824568e-39 327 254
0.010085173 0.71899998 -0.017649053 4.9821037e-39 328 254
0.01134582 0.71899998 -0.017649053 4.8899067e-39 329 254
0.012624 0.72000003 -0.017673599 4.9821037e-39 330 254
0.0138864 0.72000003 -0.017673599 4.9821037e-39 331 254
0.0151488 0.72000003 -0.017673599 4.8899067e-39 332 254
0.01647958 0.72299999 -0.017747238 4.9821037e-39 333 254
0.017747238 0.72299999 -0.017747238 4.9817506e-39 334 254
0.019120099 0.727 -0.017845426 4.8895535e-39 335 254
0.020394772 0.727 -0.017845426 5.1650656e-39 336 254
0.021669446 0.727 -0.017845426 3.5055443e-39 337 254
0.022944121 0.727 -0.017845426 4.7991698e-39 338 254
-0.040845651 0.72799999 -0.0191464 1.7510315e-38 288 255
-0.039569225 0.72799999 -0.0191464 1.6864945e-38 289 255
-0.038240198 0.727 -0.019120099 1.0784345e-38 290 255
-0.036965527 0.727 -0.019120099 5.5291944e-39 291 255
-0.035690852 0.727 -0.019120099 5.9012055e-39 292 255
-0.034321502 0.72500002 -0.0190675 6.4543793e-39 293 255
-0.032959159 0.72299999 -0.019014901 6.0870247e-39 294 255
-0.031647664 0.722 -0.0189886 5.9022747e-39 295 255
-0.0302976 0.72000003 -0.018935999 5.9026279e-39 296 255
-0.028994869 0.71899998 -0.018909698 5.9026279e-39 297 255
-0.027657079 0.71700001 -0.018857099 5.9036971e-39 298 255
-0.026363119 0.71600002 -0.0188308 5.9962514e-39 299 255
-0.025107734 0.71600002 -0.0188308 6.0880757e-39 300 255
-0.02378572 0.71399999 -0.018778199 6.0880757e-39 301 255
-0.022533838 0.71399999 -0.018778199 6.0887792e-39 302 255
-0.021341572 0.71600002 -0.0188308 6.2728103e-39 303 255
-0.020086186 0.71600002 -0.0188308 5.8143433e-39 304 255
-0.0188308 0.71600002 -0.0188308 5.9065389e-39 305 255
-0.017575413 0.71600002 -0.0188308 6.0898511e-39 306 255
-0.016320027 0.71600002 -0.0188308 6.0898511e-39 307 255
-0.015022559 0.71399999 -0.018778199 5.9969367e-39 308 255
-0.01377068 0.71399999 -0.018778199 5.904741e-39 309 255
-0.012518799 0.71399999 -0.018778199 5.7214288e-39 310 255
-0.011251139 0.713 -0.018751899 5.9054599e-39 311 255
-0.010001013 0.713 -0.018751899 6.2731662e-39 312 255
-0.0087508867 0.713 -0.018751899 6.4575575e-39 313 255
-0.0075007593 0.713 -0.018751899 7.1004101e-39 314 255
-0.0062506334 0.713 -0.018751899 7.0082145e-39 315 255
-0.0050005065 0.713 -0.018751899 6.9156616e-39 316 255
-0.0037556398 0.71399999 -0.018778199 6.6394348e-39 317 255
-0.0025037599 0.71399999 -0.018778199 6.272097e-39 318 255
-0.00125188 0.71399999 -0.018778199 5.9033145e-39 319 255
0 0.71399999 -0.018778199 5.6270933e-39 320 255
0.00125188 0.71399999 -0.018778199 5.2583122e-39 321 255
0.0025037599 0.71399999 -0.018778199 5.0750028e-39 322 255
0.0037556398 0.71399999 -0.018778199 5.0750028e-39 323 255
0.0050215465 0.71600002 -0.0188308 4.9824512e-39 324 255
0.0062769335 0.71600002 -0.0188308 4.8902542e-39 325 255
0.00753232 0.71600002 -0.0188308 4.890257e-39 326 255
0.0087999795 0.71700001 -0.018857099 4.7980614e-39 327 255
0.010085173 0.71899998 -0.018909698 4.614396e-39 328 255
0.01134582 0.71899998 -0.018909698 4.7984271e-39 329 255
0.012606465 0.71899998 -0.018909698 4.9810205e-39 330 255
0.013867113 0.71899998 -0.018909698 4.9810205e-39 331 255
0.01512776 0.71899998 -0.018909698 4.7969894e-39 332 255
0.016456785 0.722 -0.0189886 4.7969894e-39 333 255
0.017747238 0.72299999 -0.019014901 4.9810233e-39 334 255
0.0190675 0.72500002 -0.0190675 4.7966334e-39 335 255
0.020394772 0.727 -0.019120099 5.2554592e-39 336 255
0.021669446 0.727 -0.019120099 3.2271567e-39 337 255
0.022975679 0.72799999 -0.0191464 2.495721e-39 338 255
0.024252106 0.72799999 -0.0191464 1.1992231e-38 339 255
-0.040845651 0.72799999 -0.020422826 1.6865664e-38 288 256
-0.039569225 0.72799999 -0.020422826 1.4653329e-38 289 256
-0.038240198 0.727 -0.020394772 7.7472874e-39 290 256
-0.036965527 0.727 -0.020394772 3.7828753e-39 291 256
-0.035690852 0.727 -0.020394772 6.0852395e-39 292 256
-0.03422682 0.72299999 -0.020282559 6.2696307e-39 293 256
-0.032913569 0.722 -0.020254506 5.9944732e-39 294 256
-0.031647664 0.722 -0.020254506 5.9022775e-39 295 256
-0.0302976 0.72000003 -0.020198401 5.62712e-39 296 256
-0.028994869 0.71899998 -0.020170346 5.7193156e-39 297 256
-0.027657079 0.71700001 -0.020114239 5.9036971e-39 298 256
-0.026363119 0.71600002 -0.020086186 6.088447e-39 299 256
-0.025107734 0.71600002 -0.020086186 6.2724628e-39 300 256
-0.02378572 0.71399999 -0.020030079 6.2724628e-39 301 256
-0.022533838 0.71399999 -0.020030079 6.2728131e-39 302 256
-0.021341572 0.71600002 -0.020086186 6.2728131e-39 303 256
-0.020086186 0.71600002 -0.020086186 6.089498e-39 304 256
-0.0188308 0.71600002 -0.020086186 6.089498e-39 305 256
-0.017575413 0.71600002 -0.020086186 6.089498e-39 306 256
-0.016320027 0.71600002 -0.020086186 5.9973024e-39 307 256
-0.015022559 0.71399999 -0.020030079 5.9043851e-39 308 256
-0.01377068 0.71399999 -0.020030079 5.8121881e-39 309 256
-0.012518799 0.71399999 -0.020030079 5.5363242e-39 310 256
-0.011251139 0.713 -0.020002026 5.6288786e-39 311 256
-0.010001013 0.713 -0.020002026 5.7207197e-39 312 256
-0.0087508867 0.713 -0.020002026 5.9051096e-39 313 256
-0.0075007593 0.713 -0.020002026 6.088782e-39 314 256
-0.0062506334 0.713 -0.020002026 5.9965863e-39 315 256
-0.0050005065 0.713 -0.020002026 5.9040348e-39 316 256
-0.0037503797 0.713 -0.020002026 5.8118377e-39 317 256
-0.0025002533 0.713 -0.020002026 5.7192918e-39 318 256
-0.0012501266 0.713 -0.020002026 5.4427063e-39 319 256
0 0.71399999 -0.020030079 4.982454e-39 320 256
0.00125188 0.71399999 -0.020030079 4.890257e-39 321 256
0.0025037599 0.71399999 -0.020030079 4.8909745e-39 322 256
0.0037556398 0.71399999 -0.020030079 4.8909745e-39 323 256
0.0050215465 0.71600002 -0.020086186 4.8902542e-39 324 256
0.0062769335 0.71600002 -0.020086186 4.7980586e-39 325 256
0.00753232 0.71600002 -0.020086186 4.8899011e-39 326 256
0.0087999795 0.71700001 -0.020114239 4.7977054e-39 327 256
0.01005712 0.71700001 -0.020114239 4.7977082e-39 328 256
0.01131426 0.71700001 -0.020114239 4.7977082e-39 329 256
0.012606465 0.71899998 -0.020170346 4.7966334e-39 330 256
0.013867113 0.71899998 -0.020170346 4.7966334e-39 331 256
0.01512776 0.71899998 -0.020170346 4.7044378e-39 332 256
0.016456785 0.722 -0.020254506 4.7044378e-39 333 256
0.017747238 0.72299999 -0.020282559 4.7044406e-39 334 256
0.0190675 0.72500002 -0.020338668 4.7044406e-39 335 256
0.020338668 0.72500002 -0.020338668 4.796639e-39 336 256
0.021669446 0.727 -0.020394772 3.2289546e-39 337 256
0.022944121 0.727 -0.020394772 2.3984863e-39 338 256
0.024218792 0.727 -0.020394772 1.1987192e-38 339 256
0.025493465 0.727 -0.020394772 1.7050411e-38 340 256
-0.042122077 0.72799999 -0.021699252 1.760178e-38 287 257
-0.040789545 0.727 -0.021669446 1.5577079e-38 288 257
-0.039514873 0.727 -0.021669446 1.1335721e-38 289 257
-0.038240198 0.727 -0.021669446 5.9962879e-39 290 257
-0.036965527 0.727 -0.021669446 4.152734e-39 291 257
-0.035592668 0.72500002 -0.021609833 5.9019272e-39 292 257
-0.03422682 0.72299999 -0.021550218 5.9019272e-39 293 257
-0.032913569 0.722 -0.021520413 5.6264137e-39 294 257
-0.03156 0.72000003 -0.021460801 5.5342181e-39 295 257
-0.0302976 0.72000003 -0.021460801 5.4430902e-39 296 257
-0.028914221 0.71700001 -0.021371379 5.6278416e-39 297 257
-0.027618507 0.71600002 -0.021341572 5.7211065e-39 298 257
-0.026363119 0.71600002 -0.021341572 5.9054977e-39 299 257
-0.025107734 0.71600002 -0.021341572 5.9976807e-39 300 257
-0.02378572 0.71399999 -0.021281958 6.1817133e-39 301 257
-0.022533838 0.71399999 -0.021281958 6.273539e-39 302 257
-0.021341572 0.71600002 -0.021341572 6.273539e-39 303 257
-0.020086186 0.71600002 -0.021341572 6.2738921e-39 304 257
-0.0188308 0.71600002 -0.021341572 6.1816965e-39 305 257
-0.017526319 0.71399999 -0.021281958 5.9061858e-39 306 257
-0.016274439 0.71399999 -0.021281958 5.8139901e-39 307 257
-0.015022559 0.71399999 -0.021281958 5.6295961e-39 308 257
-0.013751393 0.713 -0.021252153 5.537399e-39 309 257
-0.012501267 0.713 -0.021252153 5.4448475e-39 310 257
-0.011251139 0.713 -0.021252153 5.2608164e-39 311 257
-0.010001013 0.713 -0.021252153 5.4444944e-39 312 257
-0.0087508867 0.713 -0.021252153 5.4444944e-39 313 257
-0.0075007593 0.713 -0.021252153 5.6274465e-39 314 257
-0.0062506334 0.713 -0.021252153 5.6274465e-39 315 257
-0.0050005065 0.713 -0.021252153 5.4434154e-39 316 257
-0.0037503797 0.713 -0.021252153 5.4434154e-39 317 257
-0.0025002533 0.713 -0.021252153 5.2590339e-39 318 257
-0.0012501266 0.713 -0.021252153 5.0750028e-39 319 257
0 0.713 -0.021252153 4.7977054e-39 320 257
0.0012501266 0.713 -0.021252153 4.8899011e-39 321 257
0.0025002533 0.713 -0.021252153 4.7987802e-39 322 257
0.0037556398 0.71399999 -0.021281958 4.7987802e-39 323 257
0.0050075199 0.71399999 -0.021281958 4.7980614e-39 324 257
0.0062593995 0.71399999 -0.021281958 4.7980614e-39 325 257
0.00753232 0.71600002 -0.021341572 4.7984243e-39 326 257
0.0087877065 0.71600002 -0.021341572 4.6143932e-39 327 257
0.01005712 0.71700001 -0.021371379 4.7977054e-39 328 257
0.01131426 0.71700001 -0.021371379 4.7055098e-39 329 257
0.012606465 0.71899998 -0.021430992 4.6129582e-39 330 257
0.013867113 0.71899998 -0.021430992 4.4289271e-39 331 257
0.01512776 0.71899998 -0.021430992 4.6122422e-39 332 257
0.016456785 0.722 -0.021520413 4.6122422e-39 333 257
0.017747238 0.72299999 -0.021550218 4.7044378e-39 334 257
0.0190675 0.72500002 -0.021609833 4.6122422e-39 335 257
0.020338668 0.72500002 -0.021609833 4.8877501e-39 336 257
0.021609833 0.72500002 -0.021609833 3.5970112e-39 337 257
0.022944121 0.727 -0.021669446 2.5814384e-39 338 257
0.024218792 0.727 -0.021669446 1.1800996e-38 339 257
-0.042122077 0.72799999 -0.022975679 1.7048966e-38 287 258
-0.040845651 0.72799999 -0.022975679 1.3550922e-38 288 258
-0.039514873 0.727 -0.022944121 7.4660089e-39 289 258
-0.038240198 0.727 -0.022944121 4.8910025e-39 290 258
-0.036863834 0.72500002 -0.022880999 5.0750336e-39 291 258
-0.035592668 0.72500002 -0.022880999 5.9015615e-39 292 258
-0.03422682 0.72299999 -0.02281788 5.7168101e-39 293 258
-0.032913569 0.722 -0.022786319 5.4412994e-39 294 258
-0.03156 0.72000003 -0.022723202 5.6256892e-39 295 258
-0.0302976 0.72000003 -0.022723202 5.4427273e-39 296 258
-0.028914221 0.71700001 -0.02262852 5.62712e-39 297 258
-0.027618507 0.71600002 -0.022596961 5.629987e-39 298 258
-0.026363119 0.71600002 -0.022596961 5.7221827e-39 299 258
-0.025107734 0.71600002 -0.022596961 5.998401e-39 300 258
-0.02378572 0.71399999 -0.022533838 6.0905966e-39 301 258
-0.022533838 0.71399999 -0.022533838 6.274262e-39 302 258
-0.021341572 0.71600002 -0.022596961 6.274262e-39 303 258
-0.020030079 0.71399999 -0.022533838 6.2742592e-39 304 258
-0.018778199 0.71399999 -0.022533838 6.2742592e-39 305 258
-0.017526319 0.71399999 -0.022533838 5.9987471e-39 306 258
-0.016274439 0.71399999 -0.022533838 5.8143559e-39 307 258
-0.015022559 0.71399999 -0.022533838 5.5381263e-39 308 258
-0.013751393 0.713 -0.022502279 5.3537337e-39 309 258
-0.012501267 0.713 -0.022502279 5.2604632e-39 310 258
-0.011251139 0.713 -0.022502279 5.1682676e-39 311 258
-0.010001013 0.713 -0.022502279 5.3515827e-39 312 258
-0.0087508867 0.713 -0.022502279 5.259387e-39 313 258
-0.0075007593 0.713 -0.022502279 5.3508638e-39 314 258
-0.0062506334 0.713 -0.022502279 5.2586682e-39 315 258
-0.0050005065 0.713 -0.022502279 5.2586654e-39 316 258
-0.0037398601 0.71100003 -0.022439159 5.2586654e-39 317 258
-0.0024932399 0.71100003 -0.022439159 4.9828043e-39 318 258
-0.0012501266 0.713 -0.022502279 4.8906073e-39 319 258
0 0.713 -0.022502279 4.705507e-39 320 258
0.0012501266 0.713 -0.022502279 4.7980614e-39 321 258
0.0025002533 0.713 -0.022502279 4.9813736e-39 322 258
0.0037556398 0.71399999 -0.022533838 4.9813736e-39 323 258
0.0050075199 0.71399999 -0.022533838 4.9813736e-39 324 258
0.0062593995 0.71399999 -0.022533838 4.9813736e-39 325 258
0.00753232 0.71600002 -0.022596961 4.7977054e-39 326 258
0.0087877065 0.71600002 -0.022596961 4.7055098e-39 327 258
0.01005712 0.71700001 -0.02262852 4.7055098e-39 328 258
0.01131426 0.71700001 -0.02262852 4.7055098e-39 329 258
0.0125714 0.71700001 -0.02262852 4.4300019e-39 330 258
0.013828539 0.71700001 -0.02262852 4.3374475e-39 331 258
0.015085679 0.71700001 -0.02262852 4.3367343e-39 332 258
0.0164112 0.72000003 -0.022723202 4.3367343e-39 333 258
0.017722692 0.722 -0.022786319 4.6122422e-39 334 258
0.019014901 0.72299999 -0.02281788 4.6122422e-39 335 258
0.020282559 0.72299999 -0.02281788 4.97958e-39 336 258
0.021609833 0.72500002 -0.022880999 3.965428e-39 337 258
0.022944121 0.727 -0.022944121 3.1335276e-39 338 258
0.024218792 0.727 -0.022944121 1.1891747e-38 339 258
-0.042122077 0.72799999 -0.024252106 1.7324106e-38 287 259
-0.040845651 0.72799999 -0.024252106 1.4191233e-38 288 259
-0.039514873 0.727 -0.024218792 7.7375385e-39 289 259
-0.038240198 0.727 -0.024218792 5.1636139e-39 290 259
-0.036863834 0.72500002 -0.024152167 5.9011789e-39 291 259
-0.035592668 0.72500002 -0.024152167 5.9919578e-39 292 259
-0.03422682 0.72299999 -0.024085538 5.8072078e-39 293 259
-0.032913569 0.722 -0.024052227 5.0735959e-39 294 259
-0.03156 0.72000003 -0.0239856 5.257627e-39 295 259
-0.030255521 0.71899998 -0.023952285 5.0753839e-39 296 259
-0.028914221 0.71700001 -0.02388566 5.352331e-39 297 259
-0.027618507 0.71600002 -0.023852346 5.2622835e-39 298 259
-0.026363119 0.71600002 -0.023852346 5.7229029e-39 299 259
-0.025037598 0.71399999 -0.02378572 5.6324926e-39 300 259
-0.02378572 0.71399999 -0.02378572 5.8165237e-39 301 259
-0.022533838 0.71399999 -0.02378572 6.1831426e-39 302 259
-0.021281958 0.71399999 -0.02378572 6.3675325e-39 303 259
-0.020030079 0.71399999 -0.02378572 6.0916658e-39 304 259
-0.018778199 0.71399999 -0.02378572 5.9994702e-39 305 259
-0.017501773 0.713 -0.023752406 5.723242e-39 306 259
-0.016251646 0.713 -0.023752406 5.6310464e-39 307 259
-0.015001519 0.713 -0.023752406 5.4459335e-39 308 259
-0.013751393 0.713 -0.023752406 5.2611821e-39 309 259
-0.012501267 0.713 -0.023752406 5.1682704e-39 310 259
-0.011251139 0.713 -0.023752406 5.0760748e-39 311 259
-0.0099729598 0.71100003 -0.023685781 5.0757188e-39 312 259
-0.0087263398 0.71100003 -0.023685781 4.9835232e-39 313 259
-0.0075007593 0.713 -0.023752406 4.9828043e-39 314 259
-0.0062506334 0.713 -0.023752406 4.8906073e-39 315 259
-0.0050005065 0.713 -0.023752406 4.9828043e-39 316 259
-0.0037398601 0.71100003 -0.023685781 4.7984117e-39 317 259
-0.0024932399 0.71100003 -0.023685781 4.6147435e-39 318 259
-0.0012501266 0.713 -0.023752406 4.5225479e-39 319 259
0 0.713 -0.023752406 4.6133114e-39 320 259
0.0012501266 0.713 -0.023752406 4.6133114e-39 321 259
0.0025002533 0.713 -0.023752406 4.7055098e-39 322 259
0.0037503797 0.713 -0.023752406 4.7055098e-39 323 259
0.0050075199 0.71399999 -0.02378572 4.7055098e-39 324 259
0.0062593995 0.71399999 -0.02378572 4.7055098e-39 325 259
0.00753232 0.71600002 -0.023852346 4.5221975e-39 326 259
0.0087877065 0.71600002 -0.023852346 4.4300019e-39 327 259
0.01005712 0.71700001 -0.02388566 4.429646e-39 328 259
0.01131426 0.71700001 -0.02388566 4.429646e-39 329 259
0.0125714 0.71700001 -0.02388566 4.3374531e-39 330 259
0.013828539 0.71700001 -0.02388566 4.2452575e-39 331 259
0.015085679 0.71700001 -0.02388566 4.2441813e-39 332 259
0.016388407 0.71899998 -0.023952285 4.3363784e-39 333 259
0.017673599 0.72000003 -0.0239856 4.3363784e-39 334 259
0.019014901 0.72299999 -0.024085538 4.3363784e-39 335 259
0.020282559 0.72299999 -0.024085538 4.7959076e-39 336 259
0.021550218 0.72299999 -0.024085538 4.1505382e-39 337 259
0.022944121 0.727 -0.024218792 4.3284652e-39 338 259
-0.042122077 0.72799999 -0.025528532 1.760178e-38 287 260
-0.040845651 0.72799999 -0.025528532 1.5757858e-38 288 260
-0.039514873 0.727 -0.025493465 9.8573374e-39 289 260
-0.038240198 0.727 -0.025493465 6.7262733e-39 290 260
-0.036863834 0.72500002 -0.025423333 6.7262733e-39 291 260
-0.035592668 0.72500002 -0.025423333 6.1756232e-39 292 260
-0.034179479 0.722 -0.025318133 5.8068421e-39 293 260
-0.0328224 0.72000003 -0.025248 5.2572613e-39 294 260
-0.031516165 0.71899998 -0.025212931 5.3494569e-39 295 260
-0.030171359 0.71700001 -0.0251428 5.3505261e-39 296 260
-0.028873893 0.71600002 -0.025107734 5.5352761e-39 297 260
-0.027618507 0.71600002 -0.025107734 5.5374257e-39 298 260
-0.026363119 0.71600002 -0.025107734 5.905848e-39 299 260
-0.025037598 0.71399999 -0.025037598 5.9080004e-39 300 260
-0.02378572 0.71399999 -0.025037598 5.9080004e-39 301 260
-0.022533838 0.71399999 -0.025037598 6.0916686e-39 302 260
-0.021281958 0.71399999 -0.025037598 6.0916686e-39 303 260
-0.020030079 0.71399999 -0.025037598 6.0909498e-39 304 260
-0.018778199 0.71399999 -0.025037598 5.9061984e-39 305 260
-0.017501773 0.713 -0.025002534 5.9061984e-39 306 260
-0.016251646 0.713 -0.025002534 5.537776e-39 307 260
-0.015001519 0.713 -0.025002534 5.5370487e-39 308 260
-0.013751393 0.713 -0.025002534 5.1682676e-39 309 260
-0.012501267 0.713 -0.025002534 5.2593842e-39 310 260
-0.011251139 0.713 -0.025002534 5.0753531e-39 311 260
-0.0099729598 0.71100003 -0.024932399 4.9828043e-39 312 260
-0.0087263398 0.71100003 -0.024932399 4.9828043e-39 313 260
-0.0074797203 0.71100003 -0.024932399 4.9817239e-39 314 260
-0.0062330998 0.71100003 -0.024932399 4.9817239e-39 315 260
-0.0049864799 0.71100003 -0.024932399 4.7980558e-39 316 260
-0.0037398601 0.71100003 -0.024932399 4.7058601e-39 317 260
-0.0024932399 0.71100003 -0.024932399 4.5225507e-39 318 260
-0.00124662 0.71100003 -0.024932399 4.4299963e-39 319 260
0 0.713 -0.025002534 4.6136673e-39 320 260
0.0012501266 0.713 -0.025002534 4.6136673e-39 321 260
0.0025002533 0.713 -0.025002534 4.7051441e-39 322 260
0.0037503797 0.713 -0.025002534 4.7973397e-39 323 260
0.0050075199 0.71399999 -0.025037598 4.5221947e-39 324 260
0.0062593995 0.71399999 -0.025037598 4.4299991e-39 325 260
0.00753232 0.71600002 -0.025107734 4.4300019e-39 326 260
0.0087877065 0.71600002 -0.025107734 4.4300019e-39 327 260
0.01005712 0.71700001 -0.0251428 4.3374475e-39 328 260
0.01131426 0.71700001 -0.0251428 4.3374475e-39 329 260
0.0125714 0.71700001 -0.0251428 4.3367315e-39 330 260
0.013828539 0.71700001 -0.0251428 4.2445344e-39 331 260
0.015085679 0.71700001 -0.0251428 4.4278495e-39 332 260
0.016388407 0.71899998 -0.025212931 4.4278495e-39 333 260
0.017673599 0.72000003 -0.025248 4.3367343e-39 334 260
0.0189886 0.722 -0.025318133 4.3367343e-39 335 260
0.020282559 0.72299999 -0.025353199 5.163967e-39 336 260
0.021550218 0.72299999 -0.025353199 4.7029889e-39 337 260
0.02281788 0.72299999 -0.025353199 5.3429731e-39 338 260
-0.042122077 0.72799999 -0.026804959 1.7969847e-38 287 261
-0.040845651 0.72799999 -0.026804959 1.6128452e-38 288 261
-0.039514873 0.727 -0.026768139 1.0689269e-38 289 261
-0.038240198 0.727 -0.026768139 7.4652872e-39 290 261
-0.036863834 0.72500002 -0.026694499 6.8199178e-39 291 261
-0.035494477 0.72299999 -0.026620859 6.1756204e-39 292 261
-0.034179479 0.722 -0.026584039 5.807198e-39 293 261
-0.0328224 0.72000003 -0.026510401 5.0739462e-39 294 261
-0.031516165 0.71899998 -0.02647358 5.2579773e-39 295 261
-0.030171359 0.71700001 -0.02639994 5.0757371e-39 296 261
-0.028873893 0.71600002 -0.026363119 5.3523253e-39 297 261
-0.027618507 0.71600002 -0.026363119 5.1700851e-39 298 261
-0.026363119 0.71600002 -0.026363119 5.6310618e-39 299 261
-0.025037598 0.71399999 -0.026289478 5.447744e-39 300 261
-0.02378572 0.71399999 -0.026289478 5.6321366e-39 301 261
-0.022533838 0.71399999 -0.026289478 5.8158076e-39 302 261
-0.021281958 0.71399999 -0.026289478 5.723612e-39 303 261
-0.020030079 0.71399999 -0.026289478 5.631059e-39 304 261
-0.018778199 0.71399999 -0.026289478 5.3548323e-39 305 261
-0.017501773 0.713 -0.026252659 5.3537505e-39 306 261
-0.016251646 0.713 -0.026252659 5.0775223e-39 307 261
-0.015001519 0.713 -0.026252659 5.1679145e-39 308 261
-0.013751393 0.713 -0.026252659 5.0757188e-39 309 261
-0.0124662 0.71100003 -0.026179021 4.9835204e-39 310 261
-0.01121958 0.71100003 -0.026179021 4.8913234e-39 311 261
-0.0099729598 0.71100003 -0.026179021 5.1661166e-39 312 261
-0.0087263398 0.71100003 -0.026179021 4.9817239e-39 313 261
-0.0074797203 0.71100003 -0.026179021 4.7980558e-39 314 261
-0.0062330998 0.71100003 -0.026179021 4.7058601e-39 315 261
-0.0049864799 0.71100003 -0.026179021 4.7058601e-39 316 261
-0.0037398601 0.71100003 -0.026179021 4.7980558e-39 317 261
-0.0024932399 0.71100003 -0.026179021 4.4307152e-39 318 261
-0.00124662 0.71100003 -0.026179021 4.4307152e-39 319 261
0 0.713 -0.026252659 4.4292774e-39 320 261
0.0012501266 0.713 -0.026252659 4.4292774e-39 321 261
0.0025002533 0.713 -0.026252659 4.3370846e-39 322 261
0.0037503797 0.713 -0.026252659 4.4292802e-39 323 261
0.0050075199 0.71399999 -0.026289478 4.3374503e-39 324 261
0.0062769335 0.71600002 -0.026363119 4.3374503e-39 325 261
0.00753232 0.71600002 -0.026363119 3.9704657e-39 326 261
0.0087877065 0.71600002 -0.026363119 3.9704657e-39 327 261
0.01005712 0.71700001 -0.02639994 4.0619425e-39 328 261
0.01131426 0.71700001 -0.02639994 3.9697454e-39 329 261
0.0125714 0.71700001 -0.02639994 4.2445373e-39 330 261
0.013828539 0.71700001 -0.02639994 4.1519829e-39 331 261
0.01512776 0.71899998 -0.02647358 4.1519829e-39 332 261
0.0164112 0.72000003 -0.026510401 4.1519829e-39 333 261
0.017673599 0.72000003 -0.026510401 4.4274936e-39 334 261
0.0189886 0.722 -0.026584039 4.5200493e-39 335 261
0.020282559 0.72299999 -0.026620859 4.7973425e-39 336 261
0.021550218 0.72299999 -0.026620859 4.7973425e-39 337 261
0.022880999 0.72500002 -0.026694499 5.7135535e-39 338 261
0.024152167 0.72500002 -0.026694499 1.2536031e-38 339 261
-0.042122077 0.72799999 -0.028081384 1.7785457e-38 287 262
-0.040789545 0.727 -0.028042812 1.6219932e-38 288 262
-0.039514873 0.727 -0.028042812 1.0964781e-38 289 262
-0.038240198 0.727 -0.028042812 7.834067e-39 290 262
-0.036863834 0.72500002 -0.027965667 7.1886976e-39 291 262
-0.035494477 0.72299999 -0.02788852 6.3607221e-39 292 262
-0.034179479 0.722 -0.027849946 5.8075484e-39 293 262
-0.0328224 0.72000003 -0.027772799 5.1654188e-39 294 262
-0.031428497 0.71700001 -0.027657079 5.2576144e-39 295 262
-0.03012928 0.71600002 -0.027618507 5.167211e-39 296 262
-0.028873893 0.71600002 -0.027618507 5.4437965e-39 297 262
-0.027618507 0.71600002 -0.027618507 5.1693662e-39 298 262
-0.026289478 0.71399999 -0.02754136 5.445593e-39 299 262
-0.025037598 0.71399999 -0.02754136 5.5388634e-39 300 262
-0.02378572 0.71399999 -0.02754136 5.5388634e-39 301 262
-0.022533838 0.71399999 -0.02754136 5.6303402e-39 302 262
-0.021281958 0.71399999 -0.02754136 5.6303402e-39 303 262
-0.020030079 0.71399999 -0.02754136 5.5374257e-39 304 262
-0.018778199 0.71399999 -0.02754136 5.44523e-39 305 262
-0.017501773 0.713 -0.027502786 5.2608346e-39 306 262
-0.016251646 0.713 -0.027502786 5.0760846e-39 307 262
-0.015001519 0.713 -0.027502786 5.2590339e-39 308 262
-0.013751393 0.713 -0.027502786 5.0750028e-39 309 262
-0.0124662 0.71100003 -0.027425639 4.8913276e-39 310 262
-0.01121958 0.71100003 -0.027425639 4.8913276e-39 311 262
-0.0099729598 0.71100003 -0.027425639 4.8906101e-39 312 262
-0.0087263398 0.71100003 -0.027425639 4.7980558e-39 313 262
-0.0074797203 0.71100003 -0.027425639 4.7973369e-39 314 262
-0.0062330998 0.71100003 -0.027425639 4.7973369e-39 315 262
-0.0049864799 0.71100003 -0.027425639 4.7058601e-39 316 262
-0.0037398601 0.71100003 -0.027425639 4.6136645e-39 317 262
-0.0024932399 0.71100003 -0.027425639 4.6136673e-39 318 262
-0.00124662 0.71100003 -0.027425639 4.4292774e-39 319 262
0 0.71100003 -0.027425639 4.6129484e-39 320 262
0.00124662 0.71100003 -0.027425639 4.5203941e-39 321 262
0.0025002533 0.713 -0.027502786 4.5203969e-39 322 262
0.0037503797 0.713 -0.027502786 4.5203969e-39 323 262
0.0050075199 0.71399999 -0.02754136 4.1527018e-39 324 262
0.0062593995 0.71399999 -0.02754136 4.1527018e-39 325 262
0.00753232 0.71600002 -0.027618507 3.9693895e-39 326 262
0.0087877065 0.71600002 -0.027618507 3.8771939e-39 327 262
0.01005712 0.71700001 -0.027657079 3.9690266e-39 328 262
0.01131426 0.71700001 -0.027657079 3.9690266e-39 329 262
0.0125714 0.71700001 -0.027657079 4.1523388e-39 330 262
0.013828539 0.71700001 -0.027657079 4.0601432e-39 331 262
0.01512776 0.71899998 -0.027734226 4.3356511e-39 332 262
0.0164112 0.72000003 -0.027772799 4.3356511e-39 333 262
0.017673599 0.72000003 -0.027772799 4.4271306e-39 334 262
0.0189886 0.722 -0.027849946 4.6115233e-39 335 262
0.020282559 0.72299999 -0.02788852 5.0728532e-39 336 262
0.021550218 0.72299999 -0.02788852 5.2572458e-39 337 262
0.022880999 0.72500002 -0.027965667 6.1738099e-39 338 262
0.024152167 0.72500002 -0.027965667 1.2442753e-38 339 262
-0.040845651 0.72799999 -0.029357811 1.51143e-38 288 263
-0.039569225 0.72799999 -0.029357811 8.9371929e-39 289 263
-0.038240198 0.727 -0.029317487 6.5472812e-39 290 263
-0.036965527 0.727 -0.029317487 6.5472812e-39 291 263
-0.035592668 0.72500002 -0.029236834 6.5433113e-39 292 263
-0.034179479 0.722 -0.029115854 5.990139e-39 293 263
-0.0328224 0.72000003 -0.029035201 4.8895507e-39 294 263
-0.031428497 0.71700001 -0.028914221 4.9817478e-39 295 263
-0.03012928 0.71600002 -0.028873893 5.0746623e-39 296 263
-0.028873893 0.71600002 -0.028873893 5.1672166e-39 297 263
-0.027618507 0.71600002 -0.028873893 5.1679299e-39 298 263
-0.026289478 0.71399999 -0.028793238 5.3526813e-39 299 263
-0.025037598 0.71399999 -0.028793238 5.1700879e-39 300 263
-0.02378572 0.71399999 -0.028793238 5.2622835e-39 301 263
-0.022533838 0.71399999 -0.028793238 5.3544763e-39 302 263
-0.021281958 0.71399999 -0.028793238 5.3544763e-39 303 263
-0.020030079 0.71399999 -0.028793238 5.3533945e-39 304 263
-0.018778199 0.71399999 -0.028793238 5.1693634e-39 305 263
-0.017501773 0.713 -0.028752912 5.1686389e-39 306 263
-0.016251646 0.713 -0.028752912 4.8920535e-39 307 263
-0.015001519 0.713 -0.028752912 5.0750028e-39 308 263
-0.013751393 0.713 -0.028752912 5.0750028e-39 309 263
-0.0124662 0.71100003 -0.028672259 5.075e-39 310 263
-0.01121958 0.71100003 -0.028672259 4.9828043e-39 311 263
-0.0099729598 0.71100003 -0.028672259 4.7980558e-39 312 263
-0.0087263398 0.71100003 -0.028672259 4.7980558e-39 313 263
-0.0074797203 0.71100003 -0.028672259 4.7973369e-39 314 263
-0.0062330998 0.71100003 -0.028672259 4.7973369e-39 315 263
-0.0049864799 0.71100003 -0.028672259 4.7058629e-39 316 263
-0.0037398601 0.71100003 -0.028672259 4.6136673e-39 317 263
-0.0024932399 0.71100003 -0.028672259 4.7051441e-39 318 263
-0.00124662 0.71100003 -0.028672259 4.5203941e-39 319 263
0 0.71100003 -0.028672259 4.6122268e-39 320 263
0.00124662 0.71100003 -0.028672259 4.6122268e-39 321 263
0.0025002533 0.713 -0.028752912 4.3370818e-39 322 263
0.0037503797 0.713 -0.028752912 4.2448848e-39 323 263
0.0050075199 0.71399999 -0.028793238 3.8771911e-39 324 263
0.0062593995 0.71399999 -0.028793238 3.7849954e-39 325 263
0.00753232 0.71600002 -0.028873893 3.876475e-39 326 263
0.0087877065 0.71600002 -0.028873893 3.876475e-39 327 263
0.01005712 0.71700001 -0.028914221 3.8764722e-39 328 263
0.01131426 0.71700001 -0.028914221 3.8764722e-39 329 263
0.0125714 0.71700001 -0.028914221 3.8768281e-39 330 263
0.013828539 0.71700001 -0.028914221 3.8768281e-39 331 263
0.01512776 0.71899998 -0.028994869 4.3356511e-39 332 263
0.0164112 0.72000003 -0.029035201 4.3356511e-39 333 263
0.017673599 0.72000003 -0.029035201 4.5193263e-39 334 263
0.0189886 0.722 -0.029115854 4.8877501e-39 335 263
0.020338668 0.72500002 -0.029236834 5.0732161e-39 336 263
