# .PCD v.7 - Point Cloud Data file format
FIELDS x y z rgb imX imY
SIZE 4 4 4 4 4 4
TYPE F F F F F F
COUNT 1 1 1 1 1 1
WIDTH 759
HEIGHT 1
VIEWPOINT 0 0 0 1 0 0 0
POINTS 759
DATA ascii
0.010912746 0.778 -0.016369121 5.9948445e-39 328 252
0.0081845606 0.778 -0.017733213 1.1435848e-38 326 253
0.0095486529 0.778 -0.017733213 3.9680022e-39 327 253
0.010912746 0.778 -0.017733213 5.2576522e-39 328 253
0.01232418 0.78100002 -0.017801592 6.6405881e-39 329 253
0.013693534 0.78100002 -0.017801592 5.9077076e-39 330 253
0.015062887 0.78100002 -0.017801592 5.6311193e-39 331 253
0.016432239 0.78100002 -0.017801592 5.0804664e-39 332 253
0.017801592 0.78100002 -0.017801592 3.8819232e-39 333 253
0.019170946 0.78100002 -0.017801592 3.0213256e-40 334 253
0.0068204664 0.778 -0.019097306 1.2355312e-38 325 254
0.0081845606 0.778 -0.019097306 6.6442188e-39 326 254
0.0095486529 0.778 -0.019097306 4.1549368e-39 327 254
0.010912746 0.778 -0.019097306 6.638807e-39 328 254
0.012276839 0.778 -0.019097306 7.0075909e-39 329 254
0.013675999 0.77999997 -0.0191464 6.9143191e-39 330 254
0.0150436 0.77999997 -0.0191464 6.5455366e-39 331 254
0.016411198 0.77999997 -0.0191464 5.2598382e-39 332 254
0.017801592 0.78100002 -0.019170946 4.9832528e-39 333 254
0.019170946 0.78100002 -0.019170946 2.5062013e-39 334 254
0.020540299 0.78100002 -0.019170946 2.13706e-39 335 254
0.0054423464 0.77600002 -0.0204088 1.6133882e-38 324 255
0.0068029333 0.77600002 -0.0204088 9.1270142e-39 325 255
0.0081635201 0.77600002 -0.0204088 3.4205962e-39 326 255
0.0095486529 0.778 -0.020461399 5.0797574e-39 327 255
0.010912746 0.778 -0.020461399 7.1912591e-39 328 255
0.012276839 0.778 -0.020461399 6.9146722e-39 329 255
0.013640933 0.778 -0.020461399 6.3625775e-39 330 255
0.015005025 0.778 -0.020461399 5.9934348e-39 331 255
0.016411198 0.77999997 -0.020513998 5.3498675e-39 332 255
0.017801592 0.78100002 -0.020540299 5.0729204e-39 333 255
0.019170946 0.78100002 -0.020540299 3.3298425e-39 334 255
0.020540299 0.78100002 -0.020540299 3.4223968e-39 335 255
0.021909652 0.78100002 -0.020540299 1.4030921e-39 336 255
0.0054423464 0.77600002 -0.021769386 9.5944566e-39 324 256
0.0068029333 0.77600002 -0.021769386 5.6300445e-39 325 256
0.0081635201 0.77600002 -0.021769386 4.6166156e-39 326 256
0.009524107 0.77600002 -0.021769386 5.9995501e-39 327 256
0.010884693 0.77600002 -0.021769386 6.6398846e-39 328 256
0.01224528 0.77600002 -0.021769386 6.3632963e-39 329 256
0.013605867 0.77600002 -0.021769386 6.2693028e-39 330 256
0.014966453 0.77600002 -0.021769386 5.9005203e-39 331 256
0.016369121 0.778 -0.021825492 5.4402652e-39 332 256
0.017778799 0.77999997 -0.021881599 5.0714827e-39 333 256
0.0191464 0.77999997 -0.021881599 4.1542082e-39 334 256
0.020513998 0.77999997 -0.021881599 4.0620125e-39 335 256
0.021909652 0.78100002 -0.021909652 2.8695874e-39 336 256
0.023279008 0.78100002 -0.021909652 1.0260335e-39 337 256
0.0054213065 0.773 -0.023040552 2.6877003e-39 324 257
0.0067766332 0.773 -0.023040552 3.5174609e-39 325 257
0.0081319595 0.773 -0.023040552 5.9080733e-39 326 257
0.0094995592 0.77399999 -0.02307036 5.6318466e-39 327 257
0.01085664 0.77399999 -0.02307036 5.5374957e-39 328 257
0.01221372 0.77399999 -0.02307036 5.261269e-39 329 257
0.013570799 0.77399999 -0.02307036 5.3505863e-39 330 257
0.014966453 0.77600002 -0.023129974 4.9818052e-39 331 257
0.01632704 0.77600002 -0.023129974 4.9800088e-39 332 257
0.017733213 0.778 -0.023189586 4.7956175e-39 333 257
0.019097306 0.778 -0.023189586 4.3360855e-39 334 257
0.020513998 0.77999997 -0.023249198 4.2438885e-39 335 257
0.021881599 0.77999997 -0.023249198 3.6939573e-39 336 257
0.023279008 0.78100002 -0.023279008 2.4954155e-39 337 257
0.0040659797 0.773 -0.024395877 3.6053434e-39 323 258
0.0054213065 0.773 -0.024395877 3.3298425e-39 324 258
0.0067766332 0.773 -0.024395877 4.8971668e-39 325 258
0.0081319595 0.773 -0.024395877 4.8060516e-39 326 258
0.0094872871 0.773 -0.024395877 4.1606822e-39 327 258
0.01085664 0.77399999 -0.02442744 3.5178267e-39 328 258
0.01221372 0.77399999 -0.02442744 3.425631e-39 329 258
0.013570799 0.77399999 -0.02442744 4.8903313e-39 330 258
0.014927879 0.77399999 -0.02442744 4.5215487e-39 331 258
0.01632704 0.77600002 -0.024490559 4.8870943e-39 332 258
0.017687626 0.77600002 -0.024490559 4.7948986e-39 333 258
0.019048214 0.77600002 -0.024490559 4.4268378e-39 334 258
0.020461399 0.778 -0.024553679 4.4268378e-39 335 258
0.021881599 0.77999997 -0.024616797 4.2438856e-39 336 258
0.023279008 0.78100002 -0.024648361 3.3219293e-39 337 258
0.024648361 0.78100002 -0.024648361 1.5770339e-39 338 258
-0.0026475333 0.755 -0.025151566 1.7976353e-38 318 259
-0.0013237667 0.755 -0.025151566 1.8345135e-38 319 259
0.0040554604 0.77100003 -0.02568458 3.1429303e-39 323 259
0.0054072798 0.77100003 -0.02568458 5.8130092e-39 324 259
0.0067590997 0.77100003 -0.02568458 5.9052049e-39 325 259
0.0081109209 0.77100003 -0.02568458 5.3538303e-39 326 259
0.0094872871 0.773 -0.025751207 4.8010153e-39 327 259
0.010842613 0.773 -0.025751207 4.0663313e-39 328 259
0.012197939 0.773 -0.025751207 3.6979075e-39 329 259
0.013553266 0.773 -0.025751207 3.5124415e-39 330 259
0.014908593 0.773 -0.025751207 3.2354945e-39 331 259
0.016284959 0.77399999 -0.025784519 4.1516956e-39 332 259
0.01764204 0.77399999 -0.025784519 4.0591413e-39 333 259
0.018999118 0.77399999 -0.025784519 4.0591413e-39 334 259
0.0204088 0.77600002 -0.025851147 4.1516956e-39 335 259
0.021881599 0.77999997 -0.025984399 3.9687337e-39 336 259
0.023279008 0.78100002 -0.026017714 3.1386143e-39 337 259
-0.0039712996 0.755 -0.026475333 1.7791959e-38 317 260
-0.0026475333 0.755 -0.026475333 1.8161464e-38 318 260
-0.0013237667 0.755 -0.026475333 1.7884876e-38 319 260
0 0.75700003 -0.026545467 1.0511748e-38 320 260
0.00133604 0.76200002 -0.0267208 6.8239213e-39 321 260
0.00267208 0.76200002 -0.0267208 5.3498703e-39 322 260
0.0040186401 0.764 -0.026790932 6.4558591e-39 323 260
0.0053792265 0.76700002 -0.026896132 6.3636593e-39 324 260
0.006724033 0.76700002 -0.026896132 6.0874325e-39 325 260
0.00806884 0.76700002 -0.026896132 5.5346245e-39 326 260
0.0094136465 0.76700002 -0.026896132 5.0740065e-39 327 260
0.01081456 0.77100003 -0.027036399 3.9708987e-39 328 260
0.01216638 0.77100003 -0.027036399 3.8787031e-39 329 260
0.013518199 0.77100003 -0.027036399 3.2358504e-39 330 260
0.01487002 0.77100003 -0.027036399 3.1436548e-39 331 260
0.016263919 0.773 -0.027106533 3.6932328e-39 332 260
0.017619247 0.773 -0.027106533 3.5088415e-39 333 260
0.018974574 0.773 -0.027106533 4.2420878e-39 334 260
0.0203299 0.773 -0.027106533 4.4268378e-39 335 260
0.021685226 0.773 -0.027106533 3.9654813e-39 336 260
-0.0052950666 0.755 -0.027799098 1.7516451e-38 316 261
-0.0039712996 0.755 -0.027799098 1.7792678e-38 317 261
-0.0026475333 0.755 -0.027799098 1.7423182e-38 318 261
-0.0013237667 0.755 -0.027799098 1.5763302e-38 319 261
0 0.75700003 -0.027872739 5.905202e-39 320 261
0.00133604 0.76200002 -0.028056841 4.1538452e-39 321 261
0.00267208 0.76200002 -0.028056841 6.3632963e-39 322 261
0.0040186401 0.764 -0.028130481 6.547689e-39 323 261
0.0053581866 0.764 -0.028130481 6.3622243e-39 324 261
0.0067152665 0.76599997 -0.028204117 5.9008861e-39 325 261
0.0080583189 0.76599997 -0.028204117 5.8072555e-39 326 261
0.0094013726 0.76599997 -0.028204117 5.4381128e-39 327 261
0.010758453 0.76700002 -0.02824094 4.4282811e-39 328 261
0.012134819 0.76899999 -0.028314579 4.2438885e-39 329 261
0.013483133 0.76899999 -0.028314579 3.1436548e-39 330 261
0.014831445 0.76899999 -0.028314579 2.9592649e-39 331 261
0.016179759 0.76899999 -0.028314579 3.0503815e-39 332 261
0.01757366 0.77100003 -0.028388219 3.0503815e-39 333 261
0.018925481 0.77100003 -0.028388219 3.9672988e-39 334 261
0.020277301 0.77100003 -0.028388219 3.691072e-39 335 261
0.021629119 0.77100003 -0.028388219 3.044248e-39 336 261
-0.0039712996 0.755 -0.029122867 1.816182e-38 317 262
-0.0026475333 0.755 -0.029122867 1.4752027e-38 318 262
-0.0013272733 0.75700003 -0.029200014 1.0972006e-38 319 262
0 0.759 -0.029277159 3.3258796e-39 320 262
0.0013342865 0.76099998 -0.029354304 4.4322272e-39 321 262
0.00267208 0.76200002 -0.029392879 6.455492e-39 322 262
0.0040081199 0.76200002 -0.029392879 6.2711007e-39 323 262
0.0053441599 0.76200002 -0.029392879 6.0849172e-39 324 262
0.0066801999 0.76200002 -0.029392879 5.8079716e-39 325 262
0.0080162399 0.76200002 -0.029392879 5.3469962e-39 326 262
0.0093768267 0.764 -0.029470026 5.0704093e-39 327 262
0.010744425 0.76599997 -0.029547172 4.4275566e-39 328 262
0.012134819 0.76899999 -0.02966289 4.1509712e-39 329 262
0.013448066 0.76700002 -0.029585747 3.3255293e-39 330 262
0.014792874 0.76700002 -0.029585747 3.4177249e-39 331 262
0.016179759 0.76899999 -0.02966289 3.0503815e-39 332 262
0.017528072 0.76899999 -0.02966289 3.0503815e-39 333 262
0.018925481 0.77100003 -0.029740039 3.875829e-39 334 262
0.020277301 0.77100003 -0.029740039 3.3226552e-39 335 262
-0.0039923396 0.759 -0.030607941 1.696328e-38 317 263
-0.00266156 0.759 -0.030607941 1.0328077e-38 318 263
-0.00133078 0.759 -0.030607941 5.9026881e-39 319 263
0 0.759 -0.030607941 4.7062959e-39 320 263
0.0013342865 0.76099998 -0.030688593 5.6278935e-39 321 263
0.0026685731 0.76099998 -0.030688593 6.3625747e-39 322 263
0.0040028598 0.76099998 -0.030688593 6.0859878e-39 323 263
0.0053371461 0.76099998 -0.030688593 5.8079716e-39 324 263
0.0066801999 0.76200002 -0.030728921 5.4395478e-39 325 263
0.0080162399 0.76200002 -0.030728921 5.0700534e-39 326 263
0.0093522798 0.76200002 -0.030728921 4.7938252e-39 327 263
0.010716373 0.764 -0.030809574 4.4257658e-39 328 263
0.01210326 0.76700002 -0.030930554 4.2413745e-39 329 263
0.013448066 0.76700002 -0.030930554 3.6003183e-39 330 263
0.014792874 0.76700002 -0.030930554 3.6003183e-39 331 263
0.016179759 0.76899999 -0.031011207 3.2340497e-39 332 263
0.017528072 0.76899999 -0.031011207 3.3262453e-39 333 263
0.018876385 0.76899999 -0.031011207 3.232612e-39 334 263
0.020277301 0.77100003 -0.031091858 3.6013931e-39 335 263
-0.0039818203 0.75700003 -0.031854562 1.4472563e-38 317 264
-0.0026545466 0.75700003 -0.031854562 6.8250003e-39 318 264
-0.0013272733 0.75700003 -0.031854562 3.9665771e-39 319 264
0 0.75700003 -0.031854562 5.9952341e-39 320 264
0.0013272733 0.75700003 -0.031854562 6.0874297e-39 321 264
0.00266156 0.759 -0.031938717 6.0859878e-39 322 264
0.0039923396 0.759 -0.031938717 5.7172052e-39 323 264
0.0053231199 0.759 -0.031938717 5.440268e-39 324 264
0.0066714329 0.76099998 -0.032022879 4.9792899e-39 325 264
0.0080057196 0.76099998 -0.032022879 4.7019925e-39 326 264
0.0093522798 0.76200002 -0.032064959 4.4257658e-39 327 264
0.01068832 0.76200002 -0.032064959 4.1495418e-39 328 264
0.01205592 0.764 -0.032149121 4.1495418e-39 329 264
0.013448066 0.76700002 -0.03227536 3.6003183e-39 330 264
0.014792874 0.76700002 -0.03227536 3.6925139e-39 331 264
0.01613768 0.76700002 -0.03227536 3.1429303e-39 332 264
0.017528072 0.76899999 -0.032359518 3.1429303e-39 333 264
0.018876385 0.76899999 -0.032359518 2.957823e-39 334 264
0.020277301 0.77100003 -0.032443684 3.9716148e-39 335 264
-0.0039818203 0.75700003 -0.033181835 8.2961788e-39 317 265
-0.0026545466 0.75700003 -0.033181835 4.431874e-39 318 265
-0.0013237667 0.755 -0.033094164 4.8010153e-39 319 265
0 0.755 -0.033094164 6.3629404e-39 320 265
0.0013272733 0.75700003 -0.033181835 5.994518e-39 321 265
0.0026545466 0.75700003 -0.033181835 5.9005231e-39 322 265
0.0039818203 0.75700003 -0.033181835 5.6235775e-39 323 265
0.0053090933 0.75700003 -0.033181835 5.2547978e-39 324 265
0.0066538998 0.759 -0.033269498 4.9782109e-39 325 265
0.0079846792 0.759 -0.033269498 4.4264818e-39 326 265
0.0093400059 0.76099998 -0.033357166 4.149895e-39 327 265
0.01068832 0.76200002 -0.033401001 3.9662268e-39 328 265
0.01202436 0.76200002 -0.033401001 3.9662268e-39 329 265
0.013430533 0.76599997 -0.033576332 3.6003211e-39 330 265
0.014773586 0.76599997 -0.033576332 3.6925167e-39 331 265
0.01613768 0.76700002 -0.033620168 3.2351315e-39 332 265
0.017528072 0.76899999 -0.033707831 3.3273272e-39 333 265
0.018876385 0.76899999 -0.033707831 3.509573e-39 334 265
-0.0052880533 0.75400001 -0.034372345 9.5930343e-39 316 266
-0.00396604 0.75400001 -0.034372345 3.32373e-39 317 266
-0.0026440267 0.75400001 -0.034372345 3.6060776e-39 318 266
-0.0013220133 0.75400001 -0.034372345 4.8968165e-39 319 266
0 0.755 -0.034417931 5.5353475e-39 320 266
0.0013237667 0.755 -0.034417931 5.1669237e-39 321 266
0.0026475333 0.755 -0.034417931 5.1644028e-39 322 266
0.0039712996 0.755 -0.034417931 4.8874572e-39 323 266
0.0052950666 0.755 -0.034417931 4.4272007e-39 324 266
0.0066363667 0.75700003 -0.034509107 4.150974e-39 325 266
0.0079846792 0.759 -0.034600276 3.9669456e-39 326 266
0.0093400059 0.76099998 -0.034691449 3.7829145e-39 327 266
0.01068832 0.76200002 -0.034737039 3.6914377e-39 328 266
0.01202436 0.76200002 -0.034737039 3.6914377e-39 329 266
0.013430533 0.76599997 -0.034919381 3.5088443e-39 330 266
0.014773586 0.76599997 -0.034919381 3.6932356e-39 331 266
0.01613768 0.76700002 -0.034964975 3.5113597e-39 332 266
-0.0052740262 0.75199997 -0.035599679 2.4168741e-39 316 267
-0.0039555198 0.75199997 -0.035599679 1.3105266e-39 317 267
-0.0026370131 0.75199997 -0.035599679 3.0597226e-39 318 267
-0.0013185065 0.75199997 -0.035599679 3.3359507e-39 319 267
0 0.75199997 -0.035599679 5.167637e-39 320 267
0.0013220133 0.75400001 -0.035694357 4.707019e-39 321 267
0.0026440267 0.75400001 -0.035694357 4.9800088e-39 322 267
0.0039712996 0.755 -0.035741698 4.6112276e-39 323 267
0.0052950666 0.755 -0.035741698 4.3346421e-39 324 267
0.0066188332 0.755 -0.035741698 4.1498922e-39 325 267
0.0079425992 0.755 -0.035741698 3.6914349e-39 326 267
0.0092909131 0.75700003 -0.03583638 3.6914349e-39 327 267
0.010674292 0.76099998 -0.036025736 3.6914377e-39 328 267
0.01202436 0.76200002 -0.036073081 3.6914377e-39 329 267
-0.0052529867 0.74900001 -0.036770906 2.8779868e-41 316 268
-0.0039397399 0.74900001 -0.036770906 1.2276832e-39 317 268
-0.0026264933 0.74900001 -0.036770906 2.9700423e-39 318 268
-0.0013132467 0.74900001 -0.036770906 2.6016185e-39 319 268
0 0.75 -0.036819998 3.698625e-39 320 268
0.0013185065 0.75199997 -0.036918186 3.2376469e-39 321 268
0.0026370131 0.75199997 -0.036918186 4.4275566e-39 322 268
0.00396604 0.75400001 -0.037016369 4.0587755e-39 323 268
0.0052880533 0.75400001 -0.037016369 3.7829117e-39 324 268
0.0066100666 0.75400001 -0.037016369 3.6907161e-39 325 268
0.0079425992 0.755 -0.037065465 3.5992393e-39 326 268
0.0092909131 0.75700003 -0.037163652 3.6914349e-39 327 268
0.010674292 0.76099998 -0.037360024 3.7836306e-39 328 268
-0.0064960998 0.741 -0.037677377 1.3133978e-39 315 269
-0.0052038929 0.74199998 -0.037728224 2.3300609e-39 316 269
-0.0039239596 0.74599999 -0.03793161 2.5148109e-39 317 269
-0.0026194798 0.74699998 -0.03798246 1.9609322e-39 318 269
-0.0013132467 0.74900001 -0.038084153 1.3155628e-39 319 269
0 0.74900001 -0.038084153 2.77954e-39 320 269
0.001315 0.75 -0.038135 2.5029517e-39 321 269
0.0026370131 0.75199997 -0.038236689 4.0594944e-39 322 269
0.0039555198 0.75199997 -0.038236689 3.7832676e-39 323 269
0.0052740262 0.75199997 -0.038236689 3.7829117e-39 324 269
0.0066100666 0.75400001 -0.038338386 3.6907161e-39 325 269
0.0079425992 0.755 -0.038389232 3.6914349e-39 326 269
0.0092663663 0.755 -0.038389232 3.7836306e-39 327 269
-0.0077953199 0.741 -0.038976599 2.1748012e-40 314 270
-0.0064960998 0.741 -0.038976599 3.2595758e-39 315 270
-0.0052038929 0.74199998 -0.0390292 7.0158656e-39 316 270
-0.0039134403 0.74400002 -0.039134398 4.6191394e-39 317 270
-0.0026159731 0.74599999 -0.039239597 8.5782728e-40 318 270
-0.0013097399 0.74699998 -0.039292198 4.8904476e-40 319 270
0 0.74699998 -0.039292198 2.1374104e-39 320 270
0.0013097399 0.74699998 -0.039292198 1.7689866e-39 321 270
0.0026264933 0.74900001 -0.0393974 3.5088387e-39 322 270
0.0039555198 0.75199997 -0.039555199 3.4166431e-39 323 270
0.0052740262 0.75199997 -0.039555199 3.7829117e-39 324 270
0.0066100666 0.75400001 -0.039660402 3.7829117e-39 325 270
0.0079425992 0.755 -0.039712999 3.9673016e-39 326 270
0.0092663663 0.755 -0.039712999 4.0594972e-39 327 270
-0.0077742799 0.73900002 -0.040167112 4.4505505e-39 314 271
-0.0064785667 0.73900002 -0.040167112 7.0320282e-39 315 271
-0.0051968796 0.741 -0.04027582 7.3868201e-39 316 271
-0.0039134403 0.74400002 -0.040438879 3.1458198e-39 317 271
-0.0026159731 0.74599999 -0.040547583 2.9498734e-41 318 271
-0.0013079866 0.74599999 -0.040547583 3.02176e-41 319 271
0 0.74699998 -0.040601939 1.4037984e-39 320 271
0.0013097399 0.74699998 -0.040601939 1.219047e-39 321 271
0.0026194798 0.74699998 -0.040601939 3.2340469e-39 322 271
0.0039397399 0.74900001 -0.040710647 3.0500158e-39 323 271
0.0052529867 0.74900001 -0.040710647 3.6914349e-39 324 271
0.0066100666 0.75400001 -0.040982414 3.7836306e-39 325 271
0.00793208 0.75400001 -0.040982414 4.0594972e-39 326 271
-0.0090331733 0.736 -0.041294504 3.7280789e-39 313 272
-0.0077427197 0.736 -0.041294504 1.0054366e-38 314 272
-0.0064785667 0.73900002 -0.041462827 7.2884966e-39 315 272
-0.0051968796 0.741 -0.041575037 3.2748345e-41 316 272
-0.0038976599 0.741 -0.041575037 2.9867275e-41 317 272
-0.0026019465 0.74199998 -0.041631144 3.0500662e-40 318 272
-0.00130448 0.74400002 -0.04174336 2.1281099e-40 319 272
0 0.74599999 -0.04185557 1.2208491e-39 320 272
0.0013079866 0.74599999 -0.04185557 8.517064e-40 321 272
0.0026194798 0.74699998 -0.041911677 2.8670693e-39 322 272
0.0039397399 0.74900001 -0.042023893 2.8670693e-39 323 272
0.0052529867 0.74900001 -0.042023893 3.6925139e-39 324 272
0.0065662335 0.74900001 -0.042023893 3.8769038e-39 325 272
-0.012764266 0.72799999 -0.042122077 2.3307517e-39 310 273
-0.01148784 0.72799999 -0.042122077 1.4084353e-39 311 273
-0.010211413 0.72799999 -0.042122077 4.6338754e-39 312 273
-0.0089595336 0.73000002 -0.0422378 7.0313219e-39 313 273
-0.00769012 0.73100001 -0.042295661 8.5857151e-39 314 273
-0.006434733 0.73400003 -0.042469237 3.6075112e-39 315 273
-0.0051828534 0.73900002 -0.042758539 2.7696664e-41 316 273
-0.00388714 0.73900002 -0.042758539 3.0936466e-41 317 273
-0.0025984398 0.741 -0.042874258 2.1317673e-40 318 273
-0.0013009732 0.74199998 -0.042932119 2.8785473e-41 319 273
0 0.74199998 -0.042932119 1.4034425e-39 320 273
0.00130448 0.74400002 -0.043047838 1.2190498e-39 321 273
0.0026194798 0.74699998 -0.043221418 3.3266013e-39 322 273
-0.015296079 0.727 -0.043338891 5.5475528e-39 308 274
-0.014021406 0.727 -0.043338891 1.8600878e-39 309 274
-0.012764266 0.72799999 -0.043398503 3.2724523e-41 310 274
-0.01148784 0.72799999 -0.043398503 5.0123689e-39 311 274
-0.010211413 0.72799999 -0.043398503 1.1252188e-38 312 274
-0.0089595336 0.73000002 -0.043517731 7.1030264e-39 313 274
-0.0076795998 0.73000002 -0.043517731 3.092946e-41 314 274
-0.006408433 0.73100001 -0.043577347 2.9490326e-41 315 274
-0.0051477868 0.73400003 -0.043756187 4.8832169e-40 316 274
-0.0038713599 0.736 -0.043875411 3.9612606e-40 317 274
-0.0025914267 0.73900002 -0.044054255 2.11739e-40 318 274
-0.0012992199 0.741 -0.044173479 2.11739e-40 319 274
0 0.741 -0.044173479 1.6782343e-39 320 274
0.00130448 0.74400002 -0.044352323 1.8622654e-39 321 274
-0.016570752 0.727 -0.044613566 1.0230828e-38 307 275
-0.015296079 0.727 -0.044613566 7.6416449e-40 308 275
-0.014021406 0.727 -0.044613566 1.8705106e-39 309 275
-0.012746733 0.727 -0.044613566 7.5737057e-39 310 275
-0.01148784 0.72799999 -0.044674929 8.2190751e-39 311 275
-0.010211413 0.72799999 -0.044674929 5.8266621e-39 312 275
-0.0089349858 0.72799999 -0.044674929 2.3232267e-39 313 275
-0.0076795998 0.73000002 -0.044797666 2.6967989e-41 314 275
-0.0063996664 0.73000002 -0.044797666 2.9488925e-41 315 275
-0.0051267464 0.73100001 -0.044859033 2.8429543e-41 316 275
-0.00384506 0.73100001 -0.044859033 2.7707875e-41 317 275
-0.0025738934 0.73400003 -0.045043133 6.6804382e-40 318 275
-0.0012992199 0.741 -0.045472696 9.4499084e-40 319 275
0 0.741 -0.045472696 2.5076348e-39 320 275
0.0012992199 0.741 -0.045472696 2.2314067e-39 321 275
-0.021341572 0.71600002 -0.045193922 1.7516448e-38 303 276
-0.020086186 0.71600002 -0.045193922 1.5674326e-38 304 276
-0.0188308 0.71600002 -0.045193922 1.3185044e-38 305 276
-0.017796334 0.72500002 -0.045761999 5.9984571e-39 306 276
-0.016525166 0.72500002 -0.045761999 3.2325882e-39 307 276
-0.015211919 0.72299999 -0.04563576 1.0436437e-39 308 276
-0.01394426 0.72299999 -0.04563576 4.8236645e-39 309 276
-0.012746733 0.727 -0.045888241 1.0610056e-38 310 276
-0.01147206 0.727 -0.045888241 6.7378396e-39 311 276
-0.010211413 0.72799999 -0.045951359 2.7328123e-41 312 276
-0.0089349858 0.72799999 -0.045951359 2.7328123e-41 313 276
-0.0076585598 0.72799999 -0.045951359 3.0500382e-40 314 276
-0.0063821329 0.72799999 -0.045951359 2.1280819e-40 315 276
-0.0051197335 0.73000002 -0.046077598 3.0320736e-40 316 276
-0.0038397999 0.73000002 -0.046077598 1.1845736e-40 317 276
-0.0025598668 0.73000002 -0.046077598 1.5867547e-39 318 276
-0.0012799334 0.73000002 -0.046077598 2.2321241e-39 319 276
0 0.72799999 -0.045951359 3.3359507e-39 320 276
-0.02388566 0.71700001 -0.046514176 1.7424254e-38 301 277
-0.02262852 0.71700001 -0.046514176 1.696363e-38 302 277
-0.021341572 0.71600002 -0.046449307 1.5211553e-38 303 277
-0.020086186 0.71600002 -0.046449307 9.0448729e-39 304 277
-0.018909698 0.71899998 -0.046643924 5.7258302e-39 305 277
-0.017673599 0.72000003 -0.0467088 2.9481918e-41 306 277
-0.016456785 0.722 -0.046838548 5.8553677e-40 307 277
-0.015190879 0.722 -0.046838548 3.8048434e-39 308 277
-0.013924973 0.722 -0.046838548 4.0817904e-39 309 277
-0.012676599 0.72299999 -0.046903417 3.159474e-39 310 277
-0.0114405 0.72500002 -0.047033165 1.0389745e-39 311 277
-0.010197386 0.727 -0.047162913 2.6612059e-41 312 277
-0.0089227129 0.727 -0.047162913 2.9493129e-41 313 277
-0.0076585598 0.72799999 -0.047227785 2.9498734e-41 314 277
-0.0063821329 0.72799999 -0.047227785 3.02176e-41 315 277
-0.0051057064 0.72799999 -0.047227785 1.0386186e-39 316 277
-0.0038292799 0.72799999 -0.047227785 1.2233686e-39 317 277
-0.0025528532 0.72799999 -0.047227785 2.0516845e-39 318 277
-0.0012764266 0.72799999 -0.047227785 2.5123039e-39 319 277
0 0.72799999 -0.047227785 3.6121747e-39 320 277
-0.0251428 0.71700001 -0.04777132 1.7792312e-38 300 278
-0.02388566 0.71700001 -0.04777132 1.7607919e-38 301 278
-0.02262852 0.71700001 -0.04777132 1.5766153e-38 302 278
-0.021341572 0.71600002 -0.047704693 1.1986491e-38 303 278
-0.020086186 0.71600002 -0.047704693 2.6048429e-39 304 278
-0.018909698 0.71899998 -0.04790457 2.0739638e-40 305 278
-0.017649053 0.71899998 -0.04790457 1.1365568e-39 306 278
-0.016388407 0.71899998 -0.04790457 2.243263e-39 307 278
-0.0151488 0.72000003 -0.0479712 3.252743e-39 308 278
-0.0138864 0.72000003 -0.0479712 2.0541999e-39 309 278
-0.012659066 0.722 -0.048104454 2.8412728e-41 310 278
-0.01139316 0.722 -0.048104454 2.9132995e-41 311 278
-0.01014128 0.72299999 -0.048171077 2.9857466e-41 312 278
-0.0088981669 0.72500002 -0.048304334 1.231321e-40 313 278
-0.0076480396 0.727 -0.048437584 3.046535e-40 314 278
-0.0063733663 0.727 -0.048437584 4.8904476e-40 315 278
-0.0050986931 0.727 -0.048437584 1.8676688e-39 316 278
-0.0038240198 0.727 -0.048437584 2.881462e-39 317 278
-0.0025353199 0.72299999 -0.048171077 4.4430102e-39 318 278
-0.0012676599 0.72299999 -0.048171077 4.4430102e-39 319 278
0 0.72299999 -0.048171077 4.7127573e-39 320 278
-0.02388566 0.71700001 -0.04902846 1.4195603e-38 301 279
-0.02262852 0.71700001 -0.04902846 9.9567553e-39 302 279
-0.021341572 0.71600002 -0.048960082 5.8079533e-39 303 279
-0.020086186 0.71600002 -0.048960082 3.0919651e-41 304 279
-0.018909698 0.71899998 -0.049165215 7.7028396e-40 305 279
-0.017649053 0.71899998 -0.049165215 3.6222346e-39 306 279
-0.016388407 0.71899998 -0.049165215 2.9768652e-39 307 279
-0.01512776 0.71899998 -0.049165215 1.504619e-39 308 279
-0.0138864 0.72000003 -0.0492336 2.7688256e-41 309 279
-0.012659066 0.722 -0.04937036 2.8418333e-41 310 279
-0.01139316 0.722 -0.04937036 3.0219001e-41 311 279
-0.010127253 0.722 -0.04937036 1.2206291e-40 312 279
-0.0088736191 0.72299999 -0.049438741 2.1425854e-40 313 279
-0.0076059597 0.72299999 -0.049438741 1.2226623e-39 314 279
-0.0063558333 0.72500002 -0.0495755 1.3148594e-39 315 279
-0.0050846669 0.72500002 -0.0495755 4.0738969e-39 316 279
-0.0038135003 0.72500002 -0.0495755 5.3646358e-39 317 279
-0.0025353199 0.72299999 -0.049438741 5.2735093e-39 318 279
-0.0012676599 0.72299999 -0.049438741 4.9047282e-39 319 279
-0.023952285 0.71899998 -0.050425861 9.4068255e-39 301 280
-0.02262852 0.71700001 -0.0502856 1.6854201e-39 302 280
-0.021341572 0.71600002 -0.050215468 2.1029006e-40 303 280
-0.020086186 0.71600002 -0.050215468 4.0008893e-40 304 280
-0.018909698 0.71899998 -0.050425861 1.137654e-39 305 280
-0.017649053 0.71899998 -0.050425861 1.7823073e-39 306 280
-0.016388407 0.71899998 -0.050425861 1.1369379e-39 307 280
-0.01512776 0.71899998 -0.050425861 2.9147008e-41 308 280
-0.013867113 0.71899998 -0.050425861 2.7706473e-41 309 280
-0.012624 0.72000003 -0.050496001 2.9864473e-41 310 280
-0.011361601 0.72000003 -0.050496001 1.220601e-40 311 280
-0.010127253 0.722 -0.050636265 8.5567488e-40 312 280
-0.0088613462 0.722 -0.050636265 1.0400675e-39 313 280
-0.0075954394 0.722 -0.050636265 1.5903701e-39 314 280
-0.0063382997 0.72299999 -0.050706398 2.3279351e-39 315 280
-0.0050706398 0.72299999 -0.050706398 5.2681185e-39 316 280
-0.0038135003 0.72500002 -0.050846666 6.0982379e-39 317 280
-0.0025423334 0.72500002 -0.050846666 6.2815502e-39 318 280
-0.0012711667 0.72500002 -0.050846666 5.4514308e-39 319 280
-0.02262852 0.71700001 -0.051542737 3.0214797e-41 302 281
-0.021281958 0.71399999 -0.05132708 4.0151825e-40 303 281
-0.020030079 0.71399999 -0.05132708 1.5024778e-39 304 281
-0.0188308 0.71600002 -0.051470853 1.3180852e-39 305 281
-0.017575413 0.71600002 -0.051470853 1.5928742e-39 306 281
-0.016342819 0.71700001 -0.051542737 7.6311351e-40 307 281
-0.015085679 0.71700001 -0.051542737 8.5530914e-40 308 281
-0.013828539 0.71700001 -0.051542737 6.7091788e-40 309 281
-0.012606465 0.71899998 -0.05168651 2.986167e-41 310 281
-0.01134582 0.71899998 -0.05168651 2.1425293e-40 311 281
-0.010099201 0.72000003 -0.051758397 1.2237385e-39 312 281
-0.0088367993 0.72000003 -0.051758397 1.3159342e-39 313 281
-0.0075954394 0.722 -0.051902171 2.4179713e-39 314 281
-0.0063295332 0.722 -0.051902171 3.8927427e-39 315 281
-0.0050636264 0.722 -0.051902171 6.0056864e-39 316 281
-0.0038135003 0.72500002 -0.052117832 6.097882e-39 317 281
-0.0025423334 0.72500002 -0.052117832 5.360317e-39 318 281
-0.021192541 0.71100003 -0.052358042 7.6922598e-40 303 282
-0.01994592 0.71100003 -0.052358042 8.5854614e-40 304 282
-0.0186993 0.71100003 -0.052358042 5.8231939e-40 305 282
-0.017501773 0.713 -0.052505318 2.9870078e-41 306 282
-0.016274439 0.71399999 -0.052578956 2.9509944e-41 307 282
-0.015022559 0.71399999 -0.052578956 2.8423938e-41 308 282
-0.013809253 0.71600002 -0.052726239 2.9504339e-41 309 282
-0.0125714 0.71700001 -0.052799881 2.1425573e-40 310 282
-0.01131426 0.71700001 -0.052799881 3.0645136e-40 311 282
-0.010085173 0.71899998 -0.05294716 1.132266e-39 312 282
-0.0088245263 0.71899998 -0.05294716 1.5010471e-39 313 282
-0.0075638802 0.71899998 -0.05294716 3.3366948e-39 314 282
-0.0063032326 0.71899998 -0.05294716 4.719988e-39 315 282
-0.0050636264 0.722 -0.053168077 6.4659414e-39 316 282
-0.0037977197 0.722 -0.053168077 6.1893545e-39 317 282
-0.025700359 0.69800001 -0.052624546 1.68036e-39 299 283
-0.024546666 0.69999999 -0.052775331 1.4084619e-39 300 283
-0.023352645 0.70099998 -0.052850723 2.6070037e-39 301 283
-0.02218668 0.70300001 -0.053001512 1.6890131e-39 302 283
-0.020983893 0.704 -0.053076904 1.1358393e-39 303 283
-0.019805651 0.70599997 -0.053227689 4.9119295e-40 304 283
-0.0186204 0.708 -0.053378478 1.2241043e-40 305 283
-0.017428132 0.70999998 -0.053529263 2.91386e-41 306 283
-0.016251646 0.713 -0.053755447 2.8777065e-41 307 283
-0.015001519 0.713 -0.053755447 2.9500135e-41 308 283
-0.01377068 0.71399999 -0.053830836 3.0220403e-41 309 283
-0.012553867 0.71600002 -0.053981625 1.2278177e-40 310 283
-0.01131426 0.71700001 -0.054057021 3.9937006e-40 311 283
-0.01005712 0.71700001 -0.054057021 1.5925239e-39 312 283
-0.0087999795 0.71700001 -0.054057021 2.2378933e-39 313 283
-0.0075428397 0.71700001 -0.054057021 4.7174657e-39 314 283
-0.0062857 0.71700001 -0.054057021 5.2706381e-39 315 283
-0.0050285598 0.71700001 -0.054057021 5.8212923e-39 316 283
-0.026924185 0.69800001 -0.053848371 3.2718918e-41 298 284
-0.025700359 0.69800001 -0.053848371 3.262447e-39 299 284
-0.024546666 0.69999999 -0.054002665 8.3037178e-39 300 284
-0.023352645 0.70099998 -0.054079808 6.5523609e-39 301 284
-0.02218668 0.70300001 -0.054234106 1.6879383e-39 302 284
-0.020954086 0.70300001 -0.054234106 1.0425689e-39 303 284
-0.019749546 0.704 -0.054311249 2.1425293e-40 304 284
-0.018567799 0.70599997 -0.054465543 2.9501537e-41 305 284
-0.017354494 0.70700002 -0.054542694 2.8423938e-41 306 284
-0.016183265 0.70999998 -0.054774132 2.8063804e-41 307 284
-0.014959441 0.71100003 -0.054851279 2.8788276e-41 308 284
-0.013751393 0.713 -0.055005573 2.9148409e-41 309 284
-0.012518799 0.71399999 -0.05508272 3.9721767e-40 310 284
-0.01129848 0.71600002 -0.055237014 8.5819582e-40 311 284
-0.010043093 0.71600002 -0.055237014 2.5116061e-39 312 284
-0.0087877065 0.71600002 -0.055237014 3.8945405e-39 313 284
-0.0075112795 0.71399999 -0.05508272 5.5465005e-39 314 284
-0.0062593995 0.71399999 -0.05508272 5.6386961e-39 315 284
-0.0050075199 0.71399999 -0.05508272 5.9091719e-39 316 284
-0.028148014 0.69800001 -0.0550722 2.3746404e-41 297 285
-0.026924185 0.69800001 -0.0550722 3.095188e-41 298 285
-0.025700359 0.69800001 -0.0550722 2.8951373e-39 299 285
-0.024546666 0.69999999 -0.055229999 9.1327946e-39 300 285
-0.023319334 0.69999999 -0.055229999 6.0906975e-39 301 285
-0.022123558 0.70099998 -0.055308893 1.4110011e-39 302 285
-0.020954086 0.70300001 -0.0554667 8.5782728e-40 303 285
-0.019721493 0.70300001 -0.0554667 2.1317673e-40 304 285
-0.018567799 0.70599997 -0.055703394 2.8065206e-41 305 285
-0.017329946 0.70599997 -0.055703394 2.8422537e-41 306 285
-0.016114887 0.70700002 -0.055782299 2.8422537e-41 307 285
-0.01489632 0.708 -0.055861197 2.8073613e-41 308 285
-0.013693533 0.70999998 -0.056018997 2.9514148e-41 309 285
-0.012501267 0.713 -0.056255698 4.8834411e-40 310 285
-0.011266919 0.71399999 -0.0563346 1.1337135e-39 311 285
-0.01001504 0.71399999 -0.0563346 2.4212083e-39 312 285
-0.0087631596 0.71399999 -0.0563346 3.8963398e-39 313 285
-0.0075112795 0.71399999 -0.0563346 5.6386989e-39 314 285
-0.0062593995 0.71399999 -0.0563346 5.2699164e-39 315 285
-0.028107686 0.69700003 -0.056215372 2.7343537e-41 297 286
-0.026885614 0.69700003 -0.056215372 3.2042091e-41 298 286
-0.025700359 0.69800001 -0.056296028 4.9338037e-40 299 286
-0.024476532 0.69800001 -0.056296028 1.0418864e-39 300 286
-0.023319334 0.69999999 -0.056457333 2.7735901e-41 301 286
-0.022123558 0.70099998 -0.056537982 1.2237385e-39 302 286
-0.020894472 0.70099998 -0.056537982 7.6276039e-40 303 286
-0.019721493 0.70300001 -0.056699295 2.8068008e-41 304 286
-0.018515198 0.704 -0.056779943 2.7707875e-41 305 286
-0.017329946 0.70599997 -0.056941248 2.8066607e-41 306 286
-0.016092092 0.70599997 -0.056941248 2.8426741e-41 307 286
-0.01487528 0.70700002 -0.057021905 1.1990911e-40 308 286
-0.013635674 0.70700002 -0.057021905 2.1210474e-40 309 286
-0.012448666 0.70999998 -0.057263866 1.4059746e-39 310 286
-0.011251139 0.713 -0.057505824 2.051344e-39 311 286
-0.010001013 0.713 -0.057505824 3.5235916e-39 312 286
-0.0087508867 0.713 -0.057505824 4.5377421e-39 313 286
-0.0075112795 0.71399999 -0.057586476 5.8212923e-39 314 286
-0.032569919 0.68800002 -0.056695789 1.5120452e-38 293 287
-0.031318039 0.68699998 -0.056613375 3.710494e-39 294 287
-0.030113498 0.68699998 -0.056613375 6.6839695e-40 295 287
-0.02932976 0.69700003 -0.05743745 2.7688256e-41 296 287
-0.028107686 0.69700003 -0.05743745 6.7521847e-40 297 287
-0.026885614 0.69700003 -0.05743745 1.503547e-39 298 287
-0.025700359 0.69800001 -0.057519849 7.6598197e-40 299 287
-0.024476532 0.69800001 -0.057519849 1.2242864e-40 300 287
-0.023252707 0.69800001 -0.057519849 2.9514148e-41 301 287
-0.022091998 0.69999999 -0.05768466 2.8796683e-41 302 287
-0.020894472 0.70099998 -0.057767071 2.7716282e-41 303 287
-0.019665385 0.70099998 -0.057767071 2.7350543e-41 304 287
-0.018488899 0.70300001 -0.057931885 2.7350543e-41 305 287
-0.017280852 0.704 -0.058014292 2.8072212e-41 306 287
-0.016092092 0.70599997 -0.058179103 2.8072212e-41 307 287
-0.014854239 0.70599997 -0.058179103 3.0214938e-40 308 287
-0.013635674 0.70700002 -0.05826151 5.79095e-40 309 287
-0.0124136 0.708 -0.058343921 1.4974584e-39 310 287
-0.01121958 0.71100003 -0.058591139 2.2350234e-39 311 287
-0.0099729598 0.71100003 -0.058591139 3.2466502e-39 312 287
-0.0087263398 0.71100003 -0.058591139 4.1689666e-39 313 287
-0.033727121 0.68699998 -0.057817914 1.3097895e-38 292 288
-0.032569919 0.68800002 -0.057902083 8.6721443e-39 293 288
-0.031318039 0.68699998 -0.057817914 2.0854124e-41 294 288
-0.030113498 0.68699998 -0.057817914 1.1809163e-40 295 288
-0.029161438 0.69300002 -0.058322877 4.6259693e-39 296 288
-0.028067358 0.69599998 -0.058575355 4.9029163e-39 297 288
-0.026885614 0.69700003 -0.05865952 1.3198844e-39 298 288
-0.025663542 0.69700003 -0.05865952 5.8231939e-40 299 288
-0.024476532 0.69800001 -0.058743682 3.046563e-40 300 288
-0.023252707 0.69800001 -0.058743682 2.7349142e-41 301 288
-0.022091998 0.69999999 -0.058911994 2.7706473e-41 302 288
-0.020864666 0.69999999 -0.058911994 2.7706473e-41 303 288
-0.019665385 0.70099998 -0.058996156 2.6275748e-41 304 288
-0.018488899 0.70300001 -0.059164476 2.6635881e-41 305 288
-0.017256306 0.70300001 -0.059164476 2.6998818e-41 306 288
-0.016046507 0.704 -0.059248637 2.6998818e-41 307 288
-0.014854239 0.70599997 -0.059416957 8.5316095e-40 308 288
-0.013616386 0.70599997 -0.059416957 1.1297478e-39 309 288
-0.012396066 0.70700002 -0.059501119 2.3250414e-39 310 288
-0.034931656 0.68699998 -0.059022456 1.595057e-38 291 289
-0.033727121 0.68699998 -0.059022456 6.3798345e-39 292 289
-0.032569919 0.68800002 -0.059108373 1.6778573e-39 293 289
-0.031363625 0.68800002 -0.059108373 2.2303094e-39 294 289
-0.030288832 0.69099998 -0.059366114 8.0386341e-39 295 289
-0.029077278 0.69099998 -0.059366114 1.3372329e-38 296 289
-0.027946379 0.69300002 -0.05953794 8.4859608e-39 297 289
-0.026847038 0.69599998 -0.059795678 3.9577293e-40 298 289
-0.025663542 0.69700003 -0.05988159 4.8796856e-40 299 289
-0.024441468 0.69700003 -0.05988159 2.8076416e-41 300 289
-0.023219392 0.69700003 -0.05988159 2.663448e-41 301 289
-0.02202888 0.69800001 -0.059967503 2.6631677e-41 302 289
-0.020805053 0.69800001 -0.059967503 2.6631677e-41 303 289
-0.019637333 0.69999999 -0.060139328 2.663448e-41 304 289
-0.018436298 0.70099998 -0.060225245 2.6994614e-41 305 289
-0.017207211 0.70099998 -0.060225245 2.6998818e-41 306 289
-0.016023712 0.70300001 -0.06039707 2.7360353e-41 307 289
-0.014812159 0.704 -0.060482983 1.2201428e-39 308 289
-0.013616386 0.70599997 -0.060654808 1.6811196e-39 309 289
-0.012396066 0.70700002 -0.060740728 2.5097914e-39 310 289
-0.03498251 0.68800002 -0.060314666 1.208087e-38 291 290
-0.033776212 0.68800002 -0.060314666 5.7654884e-40 292 290
-0.032664597 0.69 -0.060489997 2.0854124e-41 293 290
-0.031454802 0.69 -0.060489997 9.2296397e-39 294 290
-0.030288832 0.69099998 -0.060577665 1.4761378e-38 295 290
-0.029077278 0.69099998 -0.060577665 1.6412637e-38 296 290
-0.027865725 0.69099998 -0.060577665 8.4838126e-39 297 290
-0.026769891 0.69400001 -0.060840666 2.3750608e-41 298 290
-0.025626717 0.69599998 -0.061015997 2.1030267e-40 299 290
-0.0244064 0.69599998 -0.061015997 2.7353346e-41 300 290
-0.023186078 0.69599998 -0.061015997 2.6993212e-41 301 290
-0.02199732 0.69700003 -0.061103668 2.6272945e-41 302 290
-0.020805053 0.69800001 -0.061191335 2.6991811e-41 303 290
-0.019581227 0.69800001 -0.061191335 2.7350543e-41 304 290
-0.018409999 0.69999999 -0.061366666 2.7710677e-41 305 290
-0.017207211 0.70099998 -0.06145433 1.1883712e-40 306 290
-0.015978126 0.70099998 -0.06145433 4.8761823e-40 307 290
-0.014812159 0.704 -0.061717331 1.8637129e-39 308 290
-0.013577812 0.704 -0.061717331 2.3246911e-39 309 290
-0.03498251 0.68800002 -0.06152096 4.8986129e-39 291 291
-0.033776212 0.68800002 -0.06152096 5.7944532e-40 292 291
-0.032569919 0.68800002 -0.06152096 5.7424006e-39 293 291
-0.031454802 0.69 -0.061699796 1.5868103e-38 294 291
-0.030244999 0.69 -0.061699796 1.2272115e-38 295 291
-0.029035198 0.69 -0.061699796 3.8967055e-39 296 291
-0.027865725 0.69099998 -0.061789215 8.5460849e-40 297 291
-0.02673132 0.69300002 -0.061968062 2.5192544e-41 298 291
-0.02551626 0.69300002 -0.061968062 2.7353346e-41 299 291
-0.024336265 0.69400001 -0.06205748 2.6630276e-41 300 291
-0.023119451 0.69400001 -0.06205748 2.6630276e-41 301 291
-0.021965759 0.69599998 -0.062236317 2.6631677e-41 302 291
-0.020775247 0.69700003 -0.062325738 2.7710677e-41 303 291
-0.019553173 0.69700003 -0.062325738 2.8432346e-41 304 291
-0.018409999 0.69999999 -0.062593997 2.8793881e-41 305 291
-0.017182667 0.69999999 -0.062593997 6.6948996e-40 306 291
-0.015955333 0.69999999 -0.062593997 1.0382711e-39 307 291
-0.014749039 0.70099998 -0.062683418 2.3232506e-39 308 291
-0.0361888 0.68800002 -0.06272725 5.6437338e-39 290 292
-0.03498251 0.68800002 -0.06272725 1.9440214e-41 291 292
-0.033776212 0.68800002 -0.06272725 4.5381121e-39 292 292
-0.032569919 0.68800002 -0.06272725 1.154498e-38 293 292
-0.031363625 0.68800002 -0.06272725 1.5958854e-38 294 292
-0.030244999 0.69 -0.062909603 1.0611149e-38 295 292
-0.029035198 0.69 -0.062909603 2.1949939e-41 296 292
-0.027825398 0.69 -0.062909603 2.2310073e-41 297 292
-0.026654173 0.69099998 -0.063000768 2.7712078e-41 298 292
-0.02551626 0.69300002 -0.063183114 2.6991811e-41 299 292
-0.024301201 0.69300002 -0.063183114 2.699041e-41 300 292
-0.02308614 0.69300002 -0.063183114 2.7350543e-41 301 292
-0.021902639 0.69400001 -0.063274294 2.7351945e-41 302 292
-0.020685827 0.69400001 -0.063274294 2.8430945e-41 303 292
-0.019525118 0.69599998 -0.063456632 2.7360353e-41 304 292
-0.0183574 0.69800001 -0.063638985 1.1955598e-40 305 292
-0.017133573 0.69800001 -0.063638985 1.3123412e-39 306 292
-0.015909746 0.69800001 -0.063638985 1.6811224e-39 307 292
-0.037503798 0.69 -0.064119399 9.8660282e-39 289 293
-0.0361888 0.68800002 -0.063933544 5.823292e-40 290 293
-0.03498251 0.68800002 -0.063933544 2.6993212e-41 291 293
-0.033776212 0.68800002 -0.063933544 7.2092644e-39 292 293
-0.032569919 0.68800002 -0.063933544 7.8546338e-39 293 293
-0.031363625 0.68800002 -0.063933544 4.0684991e-39 294 293
-0.030157333 0.68800002 -0.063933544 2.2245865e-39 295 293
-0.028951041 0.68800002 -0.063933544 2.4477882e-41 296 293
-0.027825398 0.69 -0.064119399 2.6998818e-41 297 293
-0.026654173 0.69099998 -0.06421233 2.735755e-41 298 293
-0.02551626 0.69300002 -0.064398177 2.6637283e-41 299 293
-0.024301201 0.69300002 -0.064398177 2.663448e-41 300 293
-0.02308614 0.69300002 -0.064398177 2.6994614e-41 301 293
-0.021902639 0.69400001 -0.064491108 2.7356149e-41 302 293
-0.020685827 0.69400001 -0.064491108 2.843655e-41 303 293
-0.019469013 0.69400001 -0.064491108 5.7729713e-40 304 293
-0.018331099 0.69700003 -0.064769886 7.6168839e-40 305 293
-0.037503798 0.69 -0.065329194 3.4249304e-39 289 294
-0.0361888 0.68800002 -0.065139838 2.7709276e-41 290 294
-0.03498251 0.68800002 -0.065139838 3.1309212e-41 291 294
-0.033776212 0.68800002 -0.065139838 3.0672812e-39 292 294
-0.032569919 0.68800002 -0.065139838 3.6200962e-39 293 294
-0.031363625 0.68800002 -0.065139838 2.3740799e-41 294 294
-0.030157333 0.68800002 -0.065139838 2.4461066e-41 295 294
-0.028951041 0.68800002 -0.065139838 2.8426741e-41 296 294
-0.027744746 0.68800002 -0.065139838 2.8426741e-41 297 294
-0.026615599 0.69 -0.065329194 2.663448e-41 298 294
-0.025442619 0.69099998 -0.065423876 2.663448e-41 299 294
-0.024231065 0.69099998 -0.065423876 2.663448e-41 300 294
-0.02308614 0.69300002 -0.06561324 2.771348e-41 301 294
-0.021871079 0.69300002 -0.06561324 2.6641486e-41 302 294
-0.020656019 0.69300002 -0.06561324 2.7363155e-41 303 294
-0.019469013 0.69400001 -0.065707922 8.5280502e-40 304 294
-0.038713597 0.69 -0.066538997 5.1809479e-39 288 295
-0.037395094 0.68800002 -0.066346131 1.583187e-41 289 295
-0.036136195 0.68699998 -0.066249698 2.265199e-41 290 295
-0.034931656 0.68699998 -0.066249698 2.4812792e-41 291 295
-0.033727121 0.68699998 -0.066249698 2.5537263e-41 292 295
-0.032522578 0.68699998 -0.066249698 2.6979199e-41 293 295
-0.031318039 0.68699998 -0.066249698 2.9148409e-41 294 295
-0.030113498 0.68699998 -0.066249698 2.8788276e-41 295 295
-0.028908957 0.68699998 -0.066249698 2.9147008e-41 296 295
-0.027704418 0.68699998 -0.066249698 2.7347741e-41 297 295
-0.026538454 0.68800002 -0.066346131 2.6633079e-41 298 295
-0.025442619 0.69099998 -0.06663543 2.6272945e-41 299 295
-0.024231065 0.69099998 -0.06663543 2.5914213e-41 300 295
-0.0399234 0.69 -0.0677488 6.9193666e-39 287 296
-0.038713597 0.69 -0.0677488 3.0213256e-40 288 296
-0.037340738 0.68699998 -0.067454241 2.15842e-41 289 296
-0.036083598 0.68599999 -0.06735605 2.7686855e-41 290 296
-0.034880809 0.68599999 -0.06735605 2.8046989e-41 291 296
-0.033678025 0.68599999 -0.06735605 2.7695263e-41 292 296
-0.032475237 0.68599999 -0.06735605 2.7335129e-41 293 296
-0.031272452 0.68599999 -0.06735605 2.7351945e-41 294 296
-0.030069664 0.68599999 -0.06735605 2.7351945e-41 295 296
-0.028908957 0.68699998 -0.067454241 2.8430945e-41 296 296
-0.027704418 0.68699998 -0.067454241 2.7351945e-41 297 296
-0.026538454 0.68800002 -0.067552425 2.7349142e-41 298 296
-0.025405798 0.69 -0.0677488 2.6989008e-41 299 296
-0.024195999 0.69 -0.0677488 2.5917015e-41 300 296
-0.039691959 0.68599999 -0.068558842 2.3106487e-39 287 297
-0.03848917 0.68599999 -0.068558842 2.049399e-41 288 297
-0.037286382 0.68599999 -0.068558842 8.5565666e-40 289 297
-0.035978399 0.68400002 -0.068358958 1.3195047e-39 290 297
-0.03477912 0.68400002 -0.068358958 1.596093e-39 291 297
-0.033579841 0.68400002 -0.068358958 5.837389e-40 292 297
-0.032380559 0.68400002 -0.068358958 3.0565122e-41 293 297
-0.03118128 0.68400002 -0.068358958 2.662327e-41 294 297
-0.029982001 0.68400002 -0.068358958 2.6983403e-41 295 297
-0.02886688 0.68599999 -0.068558842 2.7712078e-41 296 297
-0.027664091 0.68599999 -0.068558842 2.7712078e-41 297 297
-0.026499879 0.68699998 -0.068658777 2.6996015e-41 298 297
-0.02533216 0.68800002 -0.068758719 2.6996015e-41 299 297
-0.03957624 0.68400002 -0.06955824 3.0489382e-39 287 298
-0.038376961 0.68400002 -0.06955824 3.0536956e-40 288 298
-0.037123326 0.68300003 -0.069456547 1.6886627e-39 289 298
-0.035925802 0.68300003 -0.069456547 1.5982608e-39 290 298
-0.034728274 0.68300003 -0.069456547 1.6908151e-39 291 298
-0.033530746 0.68300003 -0.069456547 3.0967295e-40 292 298
-0.032333218 0.68300003 -0.069456547 3.128539e-41 293 298
-0.031135695 0.68300003 -0.069456547 2.6626072e-41 294 298
-0.029938167 0.68300003 -0.069456547 2.6265938e-41 295 298
-0.02878272 0.68400002 -0.06955824 2.6277149e-41 296 298
-0.038320854 0.68300003 -0.070654072 2.1478654e-39 288 299
-0.037068974 0.68199998 -0.070550621 2.1478654e-39 289 299
-0.035873197 0.68199998 -0.070550621 1.5982664e-39 290 299
-0.034677424 0.68199998 -0.070550621 1.413515e-39 291 299
-0.03348165 0.68199998 -0.070550621 1.2492856e-40 292 299
-0.032333218 0.68300003 -0.070654072 3.0932262e-41 293 299
-0.031135695 0.68300003 -0.070654072 2.5547072e-41 294 299
-0.029938167 0.68300003 -0.070654072 2.5185537e-41 295 299
