# .PCD v.7 - Point Cloud Data file format
FIELDS x y z rgb imX imY
SIZE 4 4 4 4 4 4
TYPE F F F F F F
COUNT 1 1 1 1 1 1
WIDTH 617
HEIGHT 1
VIEWPOINT 0 0 0 1 0 0 0
POINTS 617
DATA ascii
-0.027597465 0.787 -0.01241886 6.7251817e-39 300 249
-0.026217593 0.787 -0.01241886 5.4344428e-39 301 249
-0.024837719 0.787 -0.01241886 4.9727781e-39 302 249
-0.023457846 0.787 -0.01241886 6.6326581e-39 303 249
-0.02897734 0.787 -0.013798732 2.7946376e-40 299 250
-0.027597465 0.787 -0.013798732 1.7448744e-39 300 250
-0.026217593 0.787 -0.013798732 3.8646368e-39 301 250
-0.0247746 0.78500003 -0.013763667 4.0468743e-39 302 250
-0.023398234 0.78500003 -0.013763667 3.5862563e-39 303 250
-0.022021867 0.78500003 -0.013763667 1.1020372e-39 304 250
-0.02897734 0.787 -0.015178605 7.9201389e-42 299 251
-0.027597465 0.787 -0.015178605 4.7848219e-39 300 251
-0.026217593 0.787 -0.015178605 5.7986137e-39 301 251
-0.0247746 0.78500003 -0.015140033 5.5245309e-39 302 251
-0.023398234 0.78500003 -0.015140033 5.1557498e-39 303 251
-0.021965759 0.78299999 -0.01510146 4.5103832e-39 304 251
-0.0205929 0.78299999 -0.01510146 3.7728182e-39 305 251
-0.030434359 0.78899997 -0.016600559 1.1059944e-39 298 252
-0.02905098 0.78899997 -0.016600559 2.1205051e-39 299 252
-0.027597465 0.787 -0.01655848 6.0766299e-39 300 252
-0.026217593 0.787 -0.01655848 6.1688255e-39 301 252
-0.0247746 0.78500003 -0.016516401 5.8943868e-39 302 252
-0.023398234 0.78500003 -0.016516401 5.8021912e-39 303 252
-0.021965759 0.78299999 -0.01647432 5.9847874e-39 304 252
-0.0205929 0.78299999 -0.01647432 5.800036e-39 305 252
-0.019220039 0.78299999 -0.01647432 1.6620479e-39 306 252
-0.030434359 0.78899997 -0.017983939 2.2112504e-39 298 253
-0.02905098 0.78899997 -0.017983939 3.4097936e-39 299 253
-0.027597465 0.787 -0.017938353 6.0762642e-39 300 253
-0.026217593 0.787 -0.017938353 6.6294379e-39 301 253
-0.024837719 0.787 -0.017938353 5.7135955e-39 302 253
-0.023398234 0.78500003 -0.017892767 5.4366485e-39 303 253
-0.021965759 0.78299999 -0.017847179 5.893668e-39 304 253
-0.0205929 0.78299999 -0.017847179 6.0776991e-39 305 253
-0.019220039 0.78299999 -0.017847179 5.801122e-39 306 253
-0.02905098 0.78899997 -0.019367319 4.6043641e-39 299 254
-0.027597465 0.787 -0.019318225 6.2617302e-39 300 254
-0.026217593 0.787 -0.019318225 6.2617302e-39 301 254
-0.0247746 0.78500003 -0.019269135 5.8951057e-39 302 254
-0.023279008 0.78100002 -0.019170946 5.9873013e-39 303 254
-0.021909652 0.78100002 -0.019170946 6.4461117e-39 304 254
-0.020540299 0.78100002 -0.019170946 6.4461117e-39 305 254
-0.019170946 0.78100002 -0.019170946 6.5390374e-39 306 254
-0.025984399 0.77999997 -0.020513998 6.2602981e-39 301 255
-0.024616797 0.77999997 -0.020513998 5.8943896e-39 302 255
-0.023249198 0.77999997 -0.020513998 6.0787809e-39 303 255
-0.021881599 0.77999997 -0.020513998 6.1713282e-39 304 255
-0.020513998 0.77999997 -0.020513998 6.5401094e-39 305 255
-0.0191464 0.77999997 -0.020513998 6.3578789e-39 306 255
-0.025984399 0.77999997 -0.021881599 5.8018409e-39 301 256
-0.024616797 0.77999997 -0.021881599 5.7114403e-39 302 256
-0.023189586 0.778 -0.021825492 5.8036359e-39 303 256
-0.021825492 0.778 -0.021825492 5.9876573e-39 304 256
-0.0203299 0.773 -0.021685226 5.9876573e-39 305 256
-0.018925481 0.77100003 -0.021629119 5.9869524e-39 306 256
-0.01757366 0.77100003 -0.021629119 6.8167131e-39 307 256
-0.013518199 0.77100003 -0.021629119 1.0202812e-39 310 256
-0.025851147 0.77600002 -0.023129974 6.3524909e-39 301 257
-0.024490559 0.77600002 -0.023129974 5.8947554e-39 302 257
-0.023129974 0.77600002 -0.023129974 5.7107242e-39 303 257
-0.021713279 0.77399999 -0.02307036 5.8018381e-39 304 257
-0.020277301 0.77100003 -0.02298094 5.8018381e-39 305 257
-0.018925481 0.77100003 -0.02298094 5.4330598e-39 306 257
-0.01757366 0.77100003 -0.02298094 6.1706248e-39 307 257
-0.016221842 0.77100003 -0.02298094 9.9513617e-39 308 257
-0.01487002 0.77100003 -0.02298094 9.5829379e-39 309 257
-0.013518199 0.77100003 -0.02298094 5.4327066e-39 310 257
-0.01216638 0.77100003 -0.02298094 2.3902494e-39 311 257
-0.024490559 0.77600002 -0.024490559 5.9837154e-39 302 258
-0.023129974 0.77600002 -0.024490559 6.075911e-39 303 258
-0.021713279 0.77399999 -0.02442744 5.6174468e-39 304 258
-0.0202247 0.76899999 -0.024269639 5.7096424e-39 305 258
-0.018876385 0.76899999 -0.024269639 5.4341346e-39 306 258
-0.017528072 0.76899999 -0.024269639 5.9869482e-39 307 258
-0.016179759 0.76899999 -0.024269639 6.728839e-39 308 258
-0.014831445 0.76899999 -0.024269639 8.5723929e-39 309 258
-0.013448066 0.76700002 -0.024206521 1.021967e-38 310 258
-0.01210326 0.76700002 -0.024206521 5.6098882e-39 311 258
-0.010758453 0.76700002 -0.024206521 1.366266e-41 312 258
-0.022861714 0.76700002 -0.025551327 5.7996871e-39 303 259
-0.021516906 0.76700002 -0.025551327 5.4341346e-39 304 259
-0.020172099 0.76700002 -0.025551327 5.4341346e-39 305 259
-0.018827293 0.76700002 -0.025551327 5.3430151e-39 306 259
-0.017482487 0.76700002 -0.025551327 5.8039919e-39 307 259
-0.01613768 0.76700002 -0.025551327 5.2533558e-39 308 259
-0.014792874 0.76700002 -0.025551327 7.1891053e-39 309 259
-0.013430533 0.76599997 -0.025518013 1.1789872e-38 310 259
-0.012087479 0.76599997 -0.025518013 8.5630252e-39 311 259
-0.010758453 0.76700002 -0.025551327 7.5487948e-42 312 259
-0.0094136465 0.76700002 -0.025551327 7.6601476e-39 313 259
-0.021516906 0.76700002 -0.026896132 5.3412159e-39 304 260
-0.020172099 0.76700002 -0.026896132 5.617444e-39 305 260
-0.018827293 0.76700002 -0.026896132 5.5274022e-39 306 260
-0.017482487 0.76700002 -0.026896132 5.5274022e-39 307 260
-0.016116638 0.76599997 -0.026861066 5.7085704e-39 308 260
-0.014735013 0.764 -0.026790932 7.3680904e-39 309 260
-0.013395466 0.764 -0.026790932 1.0687858e-38 310 260
-0.01205592 0.764 -0.026790932 1.0226878e-38 311 260
-0.01068832 0.76200002 -0.0267208 5.1597477e-39 312 260
-0.0093522798 0.76200002 -0.0267208 4.0537589e-39 313 260
-0.0080162399 0.76200002 -0.0267208 8.5879053e-39 314 260
-0.021488851 0.76599997 -0.028204117 5.6170909e-39 304 261
-0.020145798 0.76599997 -0.028204117 5.7096452e-39 305 261
-0.018802745 0.76599997 -0.028204117 5.3430151e-39 306 261
-0.017414106 0.764 -0.028130481 5.3430151e-39 307 261
-0.01603248 0.76200002 -0.028056841 5.2497391e-39 308 261
-0.01469644 0.76200002 -0.028056841 5.8951085e-39 309 261
-0.0133604 0.76200002 -0.028056841 7.5593186e-39 310 261
-0.01202436 0.76200002 -0.028056841 9.1266457e-39 311 261
-0.01068832 0.76200002 -0.028056841 8.6620886e-39 312 261
-0.0093522798 0.76200002 -0.028056841 6.8181774e-39 313 261
-0.0080162399 0.76200002 -0.028056841 9.12811e-39 314 261
-0.0066714329 0.76099998 -0.028020019 1.4752042e-38 315 261
-0.022682872 0.76099998 -0.029354304 5.7110746e-39 303 262
-0.021488851 0.76599997 -0.029547172 5.617444e-39 304 262
-0.020145798 0.76599997 -0.029547172 5.7096396e-39 305 262
-0.018802745 0.76599997 -0.029547172 5.5273994e-39 306 262
-0.017345725 0.76099998 -0.029354304 5.619595e-39 307 262
-0.016011439 0.76099998 -0.029354304 5.7092739e-39 308 262
-0.014638579 0.759 -0.029277159 5.5248812e-39 309 262
-0.0133078 0.759 -0.029277159 4.1523963e-39 310 262
-0.012008579 0.76099998 -0.029354304 7.1026578e-39 311 262
-0.010618187 0.75700003 -0.029200014 1.0411266e-38 312 262
-0.0092909131 0.75700003 -0.029200014 9.3052776e-39 313 262
-0.0080057196 0.76099998 -0.029354304 8.944774e-39 314 262
-0.0066714329 0.76099998 -0.029354304 1.3185774e-38 315 262
-0.0053371461 0.76099998 -0.029354304 1.4570526e-38 316 262
-0.022682872 0.76099998 -0.030688593 6.169529e-39 303 263
-0.021348584 0.76099998 -0.030688593 5.4344849e-39 304 263
-0.0199617 0.759 -0.030607941 5.2497335e-39 305 263
-0.01863092 0.759 -0.030607941 6.8166977e-39 306 263
-0.017300138 0.759 -0.030607941 6.1713282e-39 307 263
-0.015969358 0.759 -0.030607941 5.1525002e-39 308 263
-0.014600007 0.75700003 -0.030527288 6.443239e-39 309 263
-0.013272733 0.75700003 -0.030527288 5.9894691e-39 310 263
-0.01194546 0.75700003 -0.030527288 6.4508074e-39 311 263
-0.010590133 0.755 -0.030446632 8.6609816e-39 312 263
-0.0092663663 0.755 -0.030446632 8.9375685e-39 313 263
-0.0079636406 0.75700003 -0.030527288 9.4943548e-39 314 263
-0.0066714329 0.76099998 -0.030688593 1.2997429e-38 315 263
-0.0053371461 0.76099998 -0.030688593 1.3648213e-38 316 263
-0.022682872 0.76099998 -0.032022879 6.4461145e-39 303 264
-0.021348584 0.76099998 -0.032022879 5.2493705e-39 304 264
-0.0199617 0.759 -0.031938717 4.6961968e-39 305 264
-0.018581826 0.75700003 -0.031854562 9.2101645e-39 306 264
-0.017254554 0.75700003 -0.031854562 8.8417407e-39 307 264
-0.015927281 0.75700003 -0.031854562 4.326708e-39 308 264
-0.014561433 0.755 -0.031770397 5.8018381e-39 309 264
-0.013237666 0.755 -0.031770397 1.0774309e-38 310 264
-0.01189812 0.75400001 -0.03172832 9.4835704e-39 311 264
-0.010576107 0.75400001 -0.03172832 6.4511605e-39 312 264
-0.0092540924 0.75400001 -0.03172832 7.09653e-39 313 264
-0.00793208 0.75400001 -0.03172832 8.4794966e-39 314 264
-0.0066100666 0.75400001 -0.03172832 1.1245366e-38 315 264
-0.00526 0.75 -0.03156 1.2267079e-38 316 264
-0.021180267 0.755 -0.033094164 5.4326828e-39 304 265
-0.0198565 0.755 -0.033094164 4.2341396e-39 305 265
-0.018532733 0.755 -0.033094164 1.0684244e-38 306 265
-0.017208965 0.755 -0.033094164 1.4372069e-38 307 265
-0.015885198 0.755 -0.033094164 7.7555858e-39 308 265
-0.014542146 0.75400001 -0.033050332 5.3584995e-39 309 265
-0.013220133 0.75400001 -0.033050332 1.5378331e-38 310 265
-0.01189812 0.75400001 -0.033050332 1.9250548e-38 311 265
-0.010548052 0.75199997 -0.032962665 1.1985435e-38 312 265
-0.0092295464 0.75199997 -0.032962665 3.4112411e-39 313 265
-0.00789 0.75 -0.032874998 4.3371827e-39 314 265
-0.006575 0.75 -0.032874998 7.1026915e-39 315 265
-0.00526 0.75 -0.032874998 1.0242739e-38 316 265
-0.021180267 0.755 -0.034417931 6.4454082e-39 304 266
-0.0198565 0.755 -0.034417931 4.601497e-39 305 266
-0.018532733 0.755 -0.034417931 7.0032932e-39 306 266
-0.017208965 0.755 -0.034417931 1.4747726e-38 307 266
-0.01586416 0.75400001 -0.034372345 1.4655162e-38 308 266
-0.014542146 0.75400001 -0.034372345 9.2152596e-39 309 266
-0.013185065 0.75199997 -0.034281172 1.0875842e-38 310 266
-0.011866559 0.75199997 -0.034281172 1.9173447e-38 311 266
-0.01052 0.75 -0.034189999 1.5867372e-38 312 266
-0.0092049995 0.75 -0.034189999 2.0380275e-39 313 266
-0.0078794798 0.74900001 -0.034144413 3.5934968e-39 314 266
-0.0065662335 0.74900001 -0.034144413 8.8486477e-39 315 266
-0.0052529867 0.74900001 -0.034144413 1.0330972e-38 316 266
-0.0198565 0.755 -0.035741698 5.5245309e-39 305 267
-0.018532733 0.755 -0.035741698 4.7293823e-42 306 267
-0.017186172 0.75400001 -0.035694357 5.4475113e-39 307 267
-0.015822079 0.75199997 -0.035599679 1.7415308e-38 308 267
-0.014503572 0.75199997 -0.035599679 1.0869418e-38 309 267
-0.01315 0.75 -0.035505001 2.3401684e-41 310 267
-0.011835 0.75 -0.035505001 1.1179795e-38 311 267
-0.01052 0.75 -0.035505001 1.7980687e-38 312 267
-0.0091927266 0.74900001 -0.03545766 4.5201264e-39 313 267
-0.0078794798 0.74900001 -0.03545766 4.1452062e-39 314 267
-0.0065662335 0.74900001 -0.03545766 1.0414869e-38 315 267
-0.0052529867 0.74900001 -0.03545766 1.0786555e-38 316 267
-0.0039397399 0.74900001 -0.03545766 1.2262044e-38 317 267
-0.019830201 0.75400001 -0.037016369 6.5390346e-39 305 268
-0.018508185 0.75400001 -0.037016369 6.4865125e-40 306 268
-0.017140586 0.75199997 -0.036918186 2.4922037e-39 307 268
-0.01578 0.75 -0.036819998 1.3641744e-38 308 268
-0.014445714 0.74900001 -0.036770906 1.3641744e-38 309 268
-0.013132467 0.74900001 -0.036770906 4.5395386e-39 310 268
-0.01181922 0.74900001 -0.036770906 8.2273624e-39 311 268
-0.010477919 0.74699998 -0.036672719 1.8888976e-38 312 268
-0.0091681797 0.74699998 -0.036672719 1.2619315e-38 313 268
-0.0078584393 0.74699998 -0.036672719 4.9738781e-39 314 268
-0.0065486995 0.74699998 -0.036672719 8.3851164e-39 315 268
-0.0052319462 0.74599999 -0.036623627 7.6590938e-39 316 268
-0.0039239596 0.74599999 -0.036623627 9.4108108e-39 317 268
-0.019830201 0.75400001 -0.038338386 7.6457479e-39 305 269
-0.018508185 0.75400001 -0.038338386 5.250479e-39 306 269
-0.017140586 0.75199997 -0.038236689 2.945947e-39 307 269
-0.01575896 0.74900001 -0.038084153 5.9992054e-39 308 269
-0.014407139 0.74699998 -0.03798246 1.1991921e-38 309 269
-0.013097399 0.74699998 -0.03798246 1.0890237e-38 310 269
-0.011787659 0.74699998 -0.03798246 6.2804544e-39 311 269
-0.010477919 0.74699998 -0.03798246 1.620305e-38 312 269
-0.0091681797 0.74699998 -0.03798246 1.6387441e-38 313 269
-0.0078479191 0.74599999 -0.03793161 5.2511824e-39 314 269
-0.0065399334 0.74599999 -0.03793161 4.8827586e-39 315 269
-0.0052179201 0.74400002 -0.037829921 5.1654762e-39 316 269
-0.0039134403 0.74400002 -0.037829921 7.1015844e-39 317 269
-0.018508185 0.75400001 -0.039660402 6.5401066e-39 306 270
-0.017072206 0.74900001 -0.0393974 3.7742377e-39 307 270
-0.015716879 0.74699998 -0.039292198 1.3676673e-41 308 270
-0.014387853 0.74599999 -0.039239597 8.5885891e-39 309 270
-0.013079867 0.74599999 -0.039239597 1.6591967e-38 310 270
-0.011771879 0.74599999 -0.039239597 9.2163162e-39 311 270
-0.010463892 0.74599999 -0.039239597 6.6308603e-39 312 270
-0.0091559067 0.74599999 -0.039239597 7.4606209e-39 313 270
-0.0078268806 0.74400002 -0.039134398 4.7026834e-39 314 270
-0.0065223998 0.74400002 -0.039134398 5.7164766e-39 315 270
-0.0052179201 0.74400002 -0.039134398 5.528128e-39 316 270
-0.0039134403 0.74400002 -0.039134398 5.0667912e-39 317 270
-0.018385453 0.74900001 -0.040710647 7.8308482e-39 306 271
-0.017072206 0.74900001 -0.040710647 5.3415662e-39 307 271
-0.015716879 0.74699998 -0.040601939 5.7775536e-42 308 271
-0.01434928 0.74400002 -0.040438879 5.3563667e-39 309 271
-0.0130448 0.74400002 -0.040438879 1.548639e-38 310 271
-0.011740319 0.74400002 -0.040438879 1.041563e-38 311 271
-0.010407786 0.74199998 -0.040330172 2.6725817e-39 312 271
-0.009106813 0.74199998 -0.040330172 2.0272122e-39 313 271
-0.0078058392 0.74199998 -0.040330172 4.2409794e-39 314 271
-0.0065048663 0.74199998 -0.040330172 6.822457e-39 315 271
-0.0052038929 0.74199998 -0.040330172 6.9099807e-39 316 271
-0.0039029196 0.74199998 -0.040330172 4.4206987e-39 317 271
-0.0025984398 0.741 -0.04027582 6.5502085e-39 318 271
-0.0012992199 0.741 -0.04027582 1.1528414e-38 319 271
-0.016912652 0.74199998 -0.041631144 7.09293e-39 307 272
-0.015611678 0.74199998 -0.041631144 3.4087398e-39 308 272
-0.014310705 0.74199998 -0.041631144 3.8693592e-39 309 272
-0.013009733 0.74199998 -0.041631144 8.8389591e-39 310 272
-0.01170876 0.74199998 -0.041631144 9.8534712e-39 311 272
-0.010407786 0.74199998 -0.041631144 6.7234454e-39 312 272
-0.009106813 0.74199998 -0.041631144 4.4185533e-39 313 272
-0.0077953199 0.741 -0.041575037 5.9822665e-39 314 272
-0.0064960998 0.741 -0.041575037 7.5495936e-39 315 272
-0.0051968796 0.741 -0.041575037 9.2163162e-39 316 272
-0.0038976599 0.741 -0.041575037 8.755338e-39 317 272
-0.0025914267 0.73900002 -0.041462827 4.7956175e-39 318 272
-0.0012957134 0.73900002 -0.041462827 8.8522252e-39 319 272
0 0.73900002 -0.041462827 1.4937507e-38 320 272
-0.01559064 0.741 -0.042874258 6.8152515e-39 308 273
-0.01429142 0.741 -0.042874258 4.6025564e-39 309 273
-0.0129922 0.741 -0.042874258 4.6893794e-39 310 273
-0.01169298 0.741 -0.042874258 6.9020746e-39 311 273
-0.010393759 0.741 -0.042874258 6.9996778e-39 312 273
-0.0090945391 0.741 -0.042874258 5.708939e-39 313 273
-0.0077742799 0.73900002 -0.042758539 5.4337786e-39 314 273
-0.0064697997 0.73799998 -0.042700678 5.7107242e-39 315 273
-0.0051758396 0.73799998 -0.042700678 7.5593158e-39 316 273
-0.0038818798 0.73799998 -0.042700678 9.495424e-39 317 273
-0.0025879198 0.73799998 -0.042700678 5.8987252e-39 318 273
-0.0012939599 0.73799998 -0.042700678 6.0831165e-39 319 273
0 0.73900002 -0.042758539 1.3371253e-38 320 273
-0.01429142 0.741 -0.044173479 6.9056521e-39 309 274
-0.012957133 0.73900002 -0.044054255 6.2592079e-39 310 274
-0.01166142 0.73900002 -0.044054255 6.5357934e-39 311 274
-0.010365707 0.73900002 -0.044054255 6.0766271e-39 312 274
-0.0090699932 0.73900002 -0.044054255 5.8000402e-39 313 274
-0.0077427197 0.736 -0.043875411 5.6174468e-39 314 274
-0.0064522666 0.736 -0.043875411 5.8940337e-39 315 274
-0.005161813 0.736 -0.043875411 6.3589747e-39 316 274
-0.0038713599 0.736 -0.043875411 7.2812898e-39 317 274
-0.0025809065 0.736 -0.043875411 5.8051003e-39 318 274
-0.0012939599 0.73799998 -0.043994635 5.0675353e-39 319 274
0 0.73799998 -0.043994635 1.0330969e-38 320 274
-0.012939599 0.73799998 -0.0452886 6.9982106e-39 310 275
-0.011645639 0.73799998 -0.0452886 6.0766145e-39 311 275
-0.010351679 0.73799998 -0.0452886 5.6163608e-39 312 275
-0.0090331733 0.736 -0.045165867 5.8003919e-39 313 275
-0.0077216802 0.73400003 -0.045043133 5.7121592e-39 314 275
-0.006434733 0.73400003 -0.045043133 6.3575286e-39 315 275
-0.005140773 0.73299998 -0.044981763 6.2682266e-39 316 275
-0.0038555798 0.73299998 -0.044981763 6.7292048e-39 317 275
-0.0025598668 0.73000002 -0.044797666 6.2685994e-39 318 275
-0.0012799334 0.73000002 -0.044797666 5.0700562e-39 319 275
0 0.73000002 -0.044797666 5.817705e-39 320 275
-0.012939599 0.73799998 -0.046582557 7.0932775e-39 310 276
-0.011582521 0.73400003 -0.046330083 5.6181475e-39 311 276
-0.010295574 0.73400003 -0.046330083 5.8007423e-39 312 276
-0.0090086265 0.73400003 -0.046330083 6.2620805e-39 313 276
-0.0077111595 0.73299998 -0.046266954 5.9905481e-39 314 276
-0.006408433 0.73100001 -0.046140719 6.6359175e-39 315 276
-0.0051197335 0.73000002 -0.046077598 6.1788995e-39 316 276
-0.0038292799 0.72799999 -0.045951359 6.3636495e-39 317 276
-0.0025528532 0.72799999 -0.045951359 6.7302838e-39 318 276
-0.0012764266 0.72799999 -0.045951359 5.9927187e-39 319 276
0 0.72799999 -0.045951359 2.1320406e-39 320 276
0.0012659066 0.722 -0.045572639 6.4655939e-39 321 276
-0.012851933 0.73299998 -0.04755215 7.9230466e-39 310 277
-0.011566739 0.73299998 -0.04755215 6.6323078e-39 311 277
-0.010281546 0.73299998 -0.04755215 6.2642455e-39 312 277
-0.0089718066 0.73100001 -0.047422405 6.6330267e-39 313 277
-0.0076795998 0.73000002 -0.047357533 5.9934222e-39 314 277
-0.0063996664 0.73000002 -0.047357533 6.4540416e-39 315 277
-0.0051057064 0.72799999 -0.047227785 6.3636495e-39 316 277
-0.0038240198 0.727 -0.047162913 6.5480407e-39 317 277
-0.0025423334 0.72500002 -0.047033165 6.455492e-39 318 277
-0.0012659066 0.722 -0.046838548 6.1785463e-39 319 277
0 0.722 -0.046838548 4.520132e-39 320 277
0.0012659066 0.722 -0.046838548 5.8108708e-39 321 277
0.0025318132 0.722 -0.046838548 1.1343695e-38 322 277
-0.012851933 0.73299998 -0.048837345 8.4773106e-39 310 278
-0.011566739 0.73299998 -0.048837345 7.4631573e-39 311 278
-0.010281546 0.73299998 -0.048837345 6.8185109e-39 312 278
-0.0089595336 0.73000002 -0.048637468 6.7263153e-39 313 278
-0.0076585598 0.72799999 -0.048504211 5.81084e-39 314 278
-0.0063821329 0.72799999 -0.048504211 5.99559e-39 315 278
-0.0050986931 0.727 -0.048437584 6.1796281e-39 316 278
-0.0038135003 0.72500002 -0.048304334 6.3636593e-39 317 278
-0.0025248001 0.72000003 -0.0479712 6.4554948e-39 318 278
-0.00125714 0.71700001 -0.04777132 6.4554948e-39 319 278
0 0.71700001 -0.04777132 5.8094219e-39 320 278
0.00125714 0.71700001 -0.04777132 5.2562495e-39 321 278
0.0025107733 0.71600002 -0.047704693 7.6601812e-39 322 278
-0.01148784 0.72799999 -0.049780637 7.0969083e-39 311 279
-0.0089349858 0.72799999 -0.049780637 6.6359344e-39 313 279
-0.0076585598 0.72799999 -0.049780637 5.9945208e-39 314 279
-0.0063733663 0.727 -0.049712259 6.1785519e-39 315 279
-0.0050846669 0.72500002 -0.0495755 6.3622215e-39 316 279
-0.0038029798 0.72299999 -0.049438741 6.638807e-39 317 279
-0.0025212932 0.71899998 -0.049165215 6.455492e-39 318 279
-0.00125714 0.71700001 -0.04902846 6.455492e-39 319 279
0 0.71600002 -0.048960082 6.2700413e-39 320 279
0.0012553866 0.71600002 -0.048960082 5.4402806e-39 321 279
0.0025107733 0.71600002 -0.048960082 2.5051489e-39 322 279
-0.01014128 0.72299999 -0.050706398 6.2678735e-39 312 280
-0.0088736191 0.72299999 -0.050706398 6.3604293e-39 313 280
-0.0076059597 0.72299999 -0.050706398 6.1774827e-39 314 280
-0.0063382997 0.72299999 -0.050706398 6.1774827e-39 315 280
-0.0050496003 0.72000003 -0.050496001 6.0870822e-39 316 280
-0.0037819401 0.71899998 -0.050425861 6.1792778e-39 317 280
-0.0025142799 0.71700001 -0.0502856 6.638807e-39 318 280
-0.0012553866 0.71600002 -0.050215468 6.638807e-39 319 280
0 0.71600002 -0.050215468 6.6384567e-39 320 280
0.0012553866 0.71600002 -0.050215468 6.1774799e-39 321 280
0.0025107733 0.71600002 -0.050215468 3.5103087e-39 322 280
0.00376616 0.71600002 -0.050215468 6.2761776e-39 323 280
-0.0088736191 0.72299999 -0.051974058 7.0954734e-39 313 281
-0.0076059597 0.72299999 -0.051974058 6.4526249e-39 314 281
-0.0063382997 0.72299999 -0.051974058 6.4526249e-39 315 281
-0.0050496003 0.72000003 -0.051758397 6.2696728e-39 316 281
-0.0037714199 0.71700001 -0.051542737 6.3622271e-39 317 281
-0.0025142799 0.71700001 -0.051542737 6.6377322e-39 318 281
-0.0012553866 0.71600002 -0.051470853 6.7302866e-39 319 281
0 0.71399999 -0.05132708 6.4551388e-39 320 281
0.00125188 0.71399999 -0.05132708 6.3629432e-39 321 281
0.0025037599 0.71399999 -0.05132708 6.2693224e-39 322 281
0.0037556398 0.71399999 -0.05132708 5.9005385e-39 323 281
-0.01014128 0.72299999 -0.053241719 7.6497191e-39 312 282
-0.0088736191 0.72299999 -0.053241719 6.9117954e-39 313 282
-0.0075954394 0.722 -0.053168077 6.72813e-39 314 282
-0.0063120001 0.72000003 -0.053020801 6.6359344e-39 315 282
-0.0050425865 0.71899998 -0.05294716 5.9941649e-39 316 282
-0.00376616 0.71600002 -0.052726239 6.2703916e-39 317 282
-0.0025107733 0.71600002 -0.052726239 6.3622243e-39 318 282
-0.0012501266 0.713 -0.052505318 6.3622243e-39 319 282
0 0.71100003 -0.052358042 6.5455366e-39 320 282
0.00124662 0.71100003 -0.052358042 6.453341e-39 321 282
0.0024932399 0.71100003 -0.052358042 6.2700287e-39 322 282
0.0037398601 0.71100003 -0.052358042 5.440268e-39 323 282
-0.0088367993 0.72000003 -0.054283202 7.0043497e-39 313 283
-0.0075743999 0.72000003 -0.054283202 6.3604237e-39 314 283
-0.0063032326 0.71899998 -0.054207806 6.4526193e-39 315 283
-0.0050285598 0.71700001 -0.054057021 6.1774771e-39 316 283
-0.00376616 0.71600002 -0.053981625 6.1774771e-39 317 283
-0.0025002533 0.713 -0.053755447 6.3611481e-39 318 283
-0.00124662 0.71100003 -0.053604662 6.3611481e-39 319 283
0 0.70999998 -0.053529263 6.4526221e-39 320 283
0.00124136 0.708 -0.053378478 6.3604265e-39 321 283
0.0024792133 0.70700002 -0.053303085 6.3604293e-39 322 283
0.0037135598 0.70599997 -0.053227689 5.8072555e-39 323 283
0.0049373866 0.704 -0.053076904 2.9596362e-39 324 283
0.0061717331 0.704 -0.053076904 4.3425707e-39 325 283
0.0073745195 0.70099998 -0.052850723 8.7640177e-39 326 283
0.0086036054 0.70099998 -0.052850723 1.3650027e-38 327 283
-0.0075638802 0.71899998 -0.055468451 6.6362875e-39 314 284
-0.0062857 0.71700001 -0.055314157 6.6362875e-39 315 284
-0.0050215465 0.71600002 -0.055237014 6.0856374e-39 316 284
-0.0037556398 0.71399999 -0.05508272 5.9930817e-39 317 284
-0.0025002533 0.713 -0.055005573 6.1760338e-39 318 284
-0.0012448666 0.70999998 -0.054774132 6.0834794e-39 319 284
0 0.708 -0.054619838 6.4501012e-39 320 284
0.00124136 0.708 -0.054619838 6.634491e-39 321 284
0.0024792133 0.70700002 -0.054542694 6.2682266e-39 322 284
0.0036977797 0.70300001 -0.054234106 6.3604237e-39 323 284
0.0049163462 0.70099998 -0.054079808 5.44171e-39 324 284
0.0061454331 0.70099998 -0.054079808 4.2431668e-39 325 284
0.0073745195 0.70099998 -0.054079808 4.2521771e-39 326 284
0.0085913334 0.69999999 -0.054002665 1.0705512e-38 327 284
0.0098186666 0.69999999 -0.054002665 1.4568377e-38 328 284
-0.0062769335 0.71600002 -0.056492399 6.4529724e-39 315 285
-0.0050075199 0.71399999 -0.0563346 6.2682294e-39 316 285
-0.0037398601 0.71100003 -0.056097899 6.0834794e-39 317 285
-0.0024932399 0.71100003 -0.056097899 6.2664316e-39 318 285
-0.0012448666 0.70999998 -0.056018997 6.0820417e-39 319 285
0 0.708 -0.055861197 5.990202e-39 320 285
0.0012396066 0.70700002 -0.055782299 6.45082e-39 321 285
0.0024757064 0.70599997 -0.055703394 5.9023196e-39 322 285
0.0036977797 0.70300001 -0.0554667 6.2711007e-39 323 285
0.0049163462 0.70099998 -0.055308893 6.1796281e-39 324 285
0.0061454331 0.70099998 -0.055308893 5.0729204e-39 325 285
0.0073639993 0.69999999 -0.055229999 2.775245e-39 326 285
0.0085913334 0.69999999 -0.055229999 7.6616148e-39 327 285
0.0098186666 0.69999999 -0.055229999 1.180719e-38 328 285
0.011045999 0.69999999 -0.055229999 1.4019886e-38 329 285
-0.0050005065 0.713 -0.057505824 6.176031e-39 316 286
-0.0037398601 0.71100003 -0.057344519 5.8998042e-39 317 286
-0.0024897333 0.70999998 -0.057263866 5.9909181e-39 318 286
-0.00124136 0.708 -0.057102561 5.8987224e-39 319 286
0 0.70700002 -0.057021905 5.8072499e-39 320 286
0.0012396066 0.70700002 -0.057021905 5.8998042e-39 321 286
0.0024686933 0.704 -0.056779943 5.9930845e-39 322 286
0.0036977797 0.70300001 -0.056699295 6.2696728e-39 323 286
0.0049163462 0.70099998 -0.056537982 6.3618712e-39 324 286
0.0061454331 0.70099998 -0.056537982 6.2696756e-39 325 286
0.0073639993 0.69999999 -0.056457333 5.9923838e-39 326 286
0.0085913334 0.69999999 -0.056457333 4.3328639e-39 327 286
0.0098186666 0.69999999 -0.056457333 4.6321252e-39 328 286
0.011045999 0.69999999 -0.056457333 9.5184936e-39 329 286
-0.0062243328 0.70999998 -0.058508728 6.5451681e-39 315 287
-0.0049794666 0.70999998 -0.058508728 6.1760282e-39 316 287
-0.0037345996 0.70999998 -0.058508728 5.8998014e-39 317 287
-0.00248272 0.708 -0.058343921 6.0831137e-39 318 287
-0.0012396066 0.70700002 -0.05826151 5.8987224e-39 319 287
0 0.70599997 -0.058179103 5.8072527e-39 320 287
0.0012378532 0.70599997 -0.058179103 5.8994483e-39 321 287
0.0024686933 0.704 -0.058014292 5.9005357e-39 322 287
0.0036872597 0.70099998 -0.057767071 6.1774827e-39 323 287
0.0049093333 0.69999999 -0.05768466 6.2696756e-39 324 287
0.0061366665 0.69999999 -0.05768466 6.3618712e-39 325 287
0.0073639993 0.69999999 -0.05768466 6.8210473e-39 326 287
0.0085913334 0.69999999 -0.05768466 4.8849391e-39 327 287
0.0098186666 0.69999999 -0.05768466 1.9526884e-39 328 287
0.011045999 0.69999999 -0.05768466 7.208198e-39 329 287
0.012273333 0.69999999 -0.05768466 1.3096137e-38 330 287
-0.0049654399 0.708 -0.059585281 6.6355658e-39 316 288
-0.00372408 0.708 -0.059585281 6.4511732e-39 317 288
-0.0024792133 0.70700002 -0.059501119 6.1760282e-39 318 288
-0.0012378532 0.70599997 -0.059416957 5.8998014e-39 319 288
0 0.704 -0.059248637 5.8072527e-39 320 288
0.0012343467 0.704 -0.059248637 5.7150571e-39 321 288
0.0024651866 0.70300001 -0.059164476 5.8079744e-39 322 288
0.0036819996 0.69999999 -0.058911994 6.0845612e-39 323 288
0.0048953067 0.69800001 -0.058743682 6.1778331e-39 324 288
0.006119133 0.69800001 -0.058743682 6.3622243e-39 325 288
0.0073429602 0.69800001 -0.058743682 6.3622215e-39 326 288
0.0085667865 0.69800001 -0.058743682 6.2700259e-39 327 288
0.0097906133 0.69800001 -0.058743682 4.2449871e-39 328 288
0.01101444 0.69800001 -0.058743682 4.7059652e-39 329 288
0.012238266 0.69800001 -0.058743682 9.1374819e-39 330 288
-0.0024792133 0.70700002 -0.060740728 6.3607726e-39 318 289
-0.0012378532 0.70599997 -0.060654808 6.268577e-39 319 289
0 0.704 -0.060482983 5.8997986e-39 320 289
0.0012343467 0.704 -0.060482983 5.807603e-39 321 289
0.0024651866 0.70300001 -0.06039707 5.8079716e-39 322 289
0.0036819996 0.69999999 -0.060139328 5.9923628e-39 323 289
0.0048953067 0.69800001 -0.059967503 6.0856346e-39 324 289
0.006119133 0.69800001 -0.059967503 6.2700259e-39 325 289
0.00733244 0.69700003 -0.05988159 6.3632963e-39 326 289
0.0085545136 0.69700003 -0.05988159 6.3632963e-39 327 289
0.0097765867 0.69700003 -0.05988159 5.5328294e-39 328 289
0.01101444 0.69800001 -0.059967503 4.149895e-39 329 289
0.012238266 0.69800001 -0.059967503 5.3588876e-39 330 289
0 0.704 -0.061717331 5.9008734e-39 320 290
0.0012325933 0.70300001 -0.061629668 5.7161234e-39 321 290
0.0024581731 0.70099998 -0.06145433 5.7150543e-39 322 290
0.00366622 0.69700003 -0.061103668 5.8998042e-39 323 290
0.0048812795 0.69599998 -0.061015997 6.176031e-39 324 290
0.0060840664 0.69400001 -0.060840666 6.7292048e-39 325 290
0.0073008798 0.69400001 -0.060840666 7.0990481e-39 326 290
0.0085054198 0.69300002 -0.060752999 7.3752748e-39 327 290
0.0097204801 0.69300002 -0.060752999 7.2805583e-39 328 290
0.010935539 0.69300002 -0.060752999 5.0682233e-39 329 290
0.012097999 0.69 -0.060489997 2.7752394e-39 330 290
0.0012273333 0.69999999 -0.062593997 5.7161291e-39 321 291
0.0024441467 0.69700003 -0.062325738 5.8983693e-39 322 291
0.0036504399 0.69400001 -0.06205748 5.8983693e-39 323 291
0.0048672534 0.69400001 -0.06205748 6.4508256e-39 324 291
0.0060753003 0.69300002 -0.061968062 7.9259571e-39 325 291
0.0072693196 0.69099998 -0.061789215 7.7440672e-39 326 291
0.0084686 0.69 -0.061699796 8.2046852e-39 327 291
0.0096783992 0.69 -0.061699796 9.6718867e-39 328 291
0.010888199 0.69 -0.061699796 6.9982135e-39 329 291
0.012097999 0.69 -0.061699796 2.0329912e-39 330 291
0.013269227 0.68800002 -0.06152096 4.0612965e-39 331 291
-0.0012203199 0.69599998 -0.063456632 6.8210319e-39 319 292
0 0.69599998 -0.063456632 6.2685798e-39 320 292
0.0012203199 0.69599998 -0.063456632 6.0841885e-39 321 292
0.0024336267 0.69400001 -0.063274294 5.9909209e-39 322 292
0.0036504399 0.69400001 -0.063274294 6.0831165e-39 323 292
0.00486024 0.69300002 -0.063183114 6.2675232e-39 324 292
0.0060577663 0.69099998 -0.063000768 8.2036314e-39 325 292
0.0072587994 0.69 -0.062909603 1.0503833e-38 326 292
0.0084686 0.69 -0.062909603 1.0503833e-38 327 292
0.0096503468 0.68800002 -0.06272725 1.0225414e-38 328 292
0.010856641 0.68800002 -0.06272725 7.5517404e-39 329 292
0.012062933 0.68800002 -0.06272725 2.6758257e-39 330 292
0.013269227 0.68800002 -0.06272725 2.0304563e-39 331 292
-0.0024336267 0.69400001 -0.064491108 6.9135988e-39 318 293
-0.0012168133 0.69400001 -0.064491108 6.7288489e-39 319 293
0 0.69400001 -0.064491108 6.3611425e-39 320 293
0.0012168133 0.69400001 -0.064491108 6.0849144e-39 321 293
0.00243012 0.69300002 -0.064398177 5.9005203e-39 322 293
0.0036451798 0.69300002 -0.064398177 5.9005203e-39 323 293
0.0048462129 0.69099998 -0.06421233 5.2573159e-39 324 293
0.0060314666 0.68800002 -0.063933544 6.3636621e-39 325 293
0.0072377604 0.68800002 -0.063933544 1.0682841e-38 326 293
0.0084317802 0.68699998 -0.06384062 1.0959068e-38 327 293
0.0096363192 0.68699998 -0.06384062 7.3688149e-39 328 293
0.010840859 0.68699998 -0.06384062 4.5107489e-39 329 293
0.012045399 0.68699998 -0.06384062 2.4910799e-39 330 293
0.013249939 0.68699998 -0.06384062 2.3988842e-39 331 293
-0.00121506 0.69300002 -0.06561324 6.453341e-39 319 294
0 0.69300002 -0.06561324 6.2685826e-39 320 294
0.00121506 0.69300002 -0.06561324 5.8998014e-39 321 294
0.00243012 0.69300002 -0.06561324 5.9905649e-39 322 294
0.0036346598 0.69099998 -0.065423876 5.5299455e-39 323 294
0.0048251734 0.68800002 -0.065139838 3.9622611e-39 324 294
0.0060314666 0.68800002 -0.065139838 3.9622611e-39 325 294
0.0072272392 0.68699998 -0.065045156 5.8007843e-39 326 294
0.0084195063 0.68599999 -0.064950474 5.9851756e-39 327 294
0.0096222926 0.68599999 -0.064950474 4.8824223e-39 328 294
0.010825079 0.68599999 -0.064950474 4.0526603e-39 329 294
0.012027865 0.68599999 -0.064950474 3.5041598e-39 330 294
0.013230653 0.68599999 -0.064950474 3.0431817e-39 331 294
0 0.69099998 -0.06663543 6.2660602e-39 320 295
0.0012115532 0.69099998 -0.06663543 5.4362982e-39 321 295
0.0024195998 0.69 -0.066538997 5.3405152e-39 322 295
0.0036188802 0.68800002 -0.066346131 5.0635696e-39 323 295
0.0048181596 0.68699998 -0.066249698 4.3249354e-39 324 295
0.0060139326 0.68599999 -0.066153266 3.5873703e-39 325 295
0.0072167199 0.68599999 -0.066153266 2.0294053e-39 326 295
0.0084195063 0.68599999 -0.066153266 2.4900233e-39 327 295
0.0095942402 0.68400002 -0.0659604 2.9502798e-39 328 295
0.01079352 0.68400002 -0.0659604 3.0424754e-39 329 295
0.0119928 0.68400002 -0.0659604 3.5020074e-39 330 295
0.01319208 0.68400002 -0.0659604 3.5020074e-39 331 295
0.014370319 0.68300003 -0.065863967 7.9537701e-42 332 295
0 0.68800002 -0.067552425 6.3575314e-39 320 296
0.0012045399 0.68699998 -0.067454241 5.2511852e-39 321 296
0.0024090798 0.68699998 -0.067454241 4.8802573e-39 322 296
0.0036136196 0.68699998 -0.067454241 4.3270835e-39 323 296
0.0048111463 0.68599999 -0.06735605 3.5916863e-39 324 296
0.0059964 0.68400002 -0.067159683 3.5916863e-39 325 296
0.0071956799 0.68400002 -0.067159683 2.8580813e-39 326 296
0.0083949603 0.68400002 -0.067159683 2.9506357e-39 327 296
0.0095802136 0.68300003 -0.067061491 2.9506357e-39 328 296
0.01077774 0.68300003 -0.067061491 2.9506357e-39 329 296
0.011975267 0.68300003 -0.067061491 3.0417523e-39 330 296
0.013172794 0.68300003 -0.067061491 3.133948e-39 331 296
0.014370319 0.68300003 -0.067061491 1.846456e-39 332 296
0.015567848 0.68300003 -0.067061491 8.3194389e-40 333 296
0 0.68800002 -0.068758719 6.4500591e-39 320 297
0.0012045399 0.68699998 -0.068658777 5.5281028e-39 321 297
0.0024055731 0.68599999 -0.068558842 4.5132544e-39 322 297
0.00360836 0.68599999 -0.068558842 3.9600807e-39 323 297
0.0048111463 0.68599999 -0.068558842 3.0406607e-39 324 297
0.0059964 0.68400002 -0.068358958 3.0406607e-39 325 297
0.0071851597 0.68300003 -0.068259016 2.7655158e-39 326 297
0.0083826864 0.68300003 -0.068259016 2.8580701e-39 327 297
0.0095802136 0.68300003 -0.068259016 2.7662374e-39 328 297
0.01077774 0.68300003 -0.068259016 2.7662374e-39 329 297
0.011957732 0.68199998 -0.068159081 2.6736887e-39 330 297
0.013153506 0.68199998 -0.068159081 2.6736887e-39 331 297
0.014370319 0.68300003 -0.068259016 2.8573653e-39 332 297
0.015567848 0.68300003 -0.068259016 2.4882226e-39 333 297
0 0.68400002 -0.06955824 6.2649644e-39 320 298
0.00119928 0.68400002 -0.06955824 5.2511726e-39 321 298
0.0023985601 0.68400002 -0.06955824 3.9629673e-39 322 298
0.0035925799 0.68300003 -0.069456547 3.4097936e-39 323 298
0.0047901068 0.68300003 -0.069456547 2.9491868e-39 324 298
0.005978866 0.68199998 -0.069354847 2.9491868e-39 325 298
0.00717464 0.68199998 -0.069354847 2.7655186e-39 326 298
0.0083704125 0.68199998 -0.069354847 2.6733229e-39 327 298
0.009566186 0.68199998 -0.069354847 2.6733229e-39 328 298
0.010761959 0.68199998 -0.069354847 2.6733229e-39 329 298
0.011957732 0.68199998 -0.069354847 2.6733257e-39 330 298
0.013153506 0.68199998 -0.069354847 2.6733257e-39 331 298
0.01434928 0.68199998 -0.069354847 2.6729698e-39 332 298
0.015567848 0.68300003 -0.069456547 2.7651654e-39 333 298
0.0011975267 0.68300003 -0.070654072 4.7909315e-39 321 299
0.0023950534 0.68300003 -0.070654072 3.8693424e-39 322 299
0.0035925799 0.68300003 -0.070654072 3.5927555e-39 323 299
0.0047901068 0.68300003 -0.070654072 2.7655186e-39 324 299
0.005978866 0.68199998 -0.070550621 2.6733229e-39 325 299
0.00717464 0.68199998 -0.070550621 2.5814931e-39 326 299
0.0083458666 0.68000001 -0.070343733 2.3974619e-39 327 299
0.0095381327 0.68000001 -0.070343733 2.3059824e-39 328 299
0.0107304 0.68000001 -0.070343733 2.2137867e-39 329 299
0.011922667 0.68000001 -0.070343733 1.9379229e-39 330 299
0.013114933 0.68000001 -0.070343733 2.0301185e-39 331 299
0.01434928 0.68199998 -0.070550621 2.397106e-39 332 299
0.0083458666 0.68000001 -0.071535997 2.2141399e-39 327 300
0.009524107 0.67900002 -0.071430802 2.2130651e-39 328 300
0.010714619 0.67900002 -0.071430802 2.2130651e-39 329 300
0.011922667 0.68000001 -0.071535997 2.0297528e-39 330 300
0.013114933 0.68000001 -0.071535997 2.0297528e-39 331 300
