# .PCD v.7 - Point Cloud Data file format
FIELDS x y z rgb imX imY
SIZE 4 4 4 4 4 4
TYPE F F F F F F
COUNT 1 1 1 1 1 1
WIDTH 479
HEIGHT 1
VIEWPOINT 0 0 0 1 0 0 0
POINTS 479
DATA ascii
-0.02702588 0.73400003 -0.039895348 1.7423898e-38 299 271
-0.025738932 0.73400003 -0.039895348 1.7332055e-38 300 271
0.048504211 0.72799999 -0.039569225 1.714839e-38 358 271
0.049780637 0.72799999 -0.039569225 1.7056194e-38 359 271
-0.036279973 0.73900002 -0.041462827 3.4069377e-39 292 272
-0.034984261 0.73900002 -0.041462827 2.3931459e-39 293 272
-0.033688545 0.73900002 -0.041462827 5.1575673e-39 294 272
-0.032392833 0.73900002 -0.041462827 1.4100542e-38 295 272
-0.03109712 0.73900002 -0.041462827 1.7150558e-38 296 272
-0.029599773 0.73400003 -0.041182294 1.7980318e-38 297 272
-0.028312827 0.73400003 -0.041182294 1.8991947e-38 298 272
-0.02702588 0.73400003 -0.041182294 1.9176697e-38 299 272
-0.025738932 0.73400003 -0.041182294 1.9452559e-38 300 272
-0.024518613 0.736 -0.041294504 1.9544755e-38 301 272
-0.023228159 0.736 -0.041294504 1.9913533e-38 302 272
-0.021937706 0.736 -0.041294504 2.0190121e-38 303 272
-0.020647252 0.736 -0.041294504 2.037559e-38 304 272
-0.019304199 0.73400003 -0.041182294 2.0006449e-38 305 272
-0.017992707 0.73299998 -0.041126184 1.7970588e-38 306 272
-0.016707512 0.73299998 -0.041126184 1.4282764e-38 307 272
-0.015422319 0.73299998 -0.041126184 1.169697e-38 308 272
-0.014137126 0.73299998 -0.041126184 1.2157947e-38 309 272
-0.012851933 0.73299998 -0.041126184 1.0327343e-38 310 272
-0.011582521 0.73400003 -0.041182294 1.0511374e-38 311 272
-0.010295574 0.73400003 -0.041182294 1.1063104e-38 312 272
-0.0090331733 0.736 -0.041294504 1.1063104e-38 313 272
0.047357533 0.73000002 -0.040957868 1.7239507e-38 357 272
0.048504211 0.72799999 -0.040845651 1.7330981e-38 358 272
0.049780637 0.72799999 -0.040845651 1.7330981e-38 359 272
0.051197331 0.73000002 -0.040957868 1.7239504e-38 360 272
0.052477267 0.73000002 -0.040957868 1.7239504e-38 361 272
-0.053124249 0.73900002 -0.042758539 1.2448558e-38 279 273
-0.051618133 0.736 -0.042584959 1.3549138e-38 280 273
-0.050327681 0.736 -0.042584959 1.3641335e-38 281 273
-0.048903972 0.73400003 -0.042469237 1.3548772e-38 282 273
-0.047617026 0.73400003 -0.042469237 1.2442426e-38 283 273
-0.046330083 0.73400003 -0.042469237 1.0873674e-38 284 273
-0.045043133 0.73400003 -0.042469237 9.03012e-39 285 273
-0.043875411 0.736 -0.042584959 7.3745994e-39 286 273
-0.042584959 0.736 -0.042584959 6.4522844e-39 287 273
-0.041462827 0.73900002 -0.042758539 5.2616796e-39 288 273
-0.040167112 0.73900002 -0.042758539 6.0910801e-39 289 273
-0.0388714 0.73900002 -0.042758539 8.1200748e-39 290 273
-0.037575684 0.73900002 -0.042758539 8.4884972e-39 291 273
-0.036279973 0.73900002 -0.042758539 8.394819e-39 292 273
-0.034984261 0.73900002 -0.042758539 5.8133413e-39 293 273
-0.033642959 0.73799998 -0.042700678 4.7069742e-39 294 273
-0.032348998 0.73799998 -0.042700678 1.1990429e-38 295 273
-0.030970879 0.736 -0.042584959 1.8071773e-38 296 273
-0.029599773 0.73400003 -0.042469237 1.8440195e-38 297 273
-0.028312827 0.73400003 -0.042469237 1.9269613e-38 298 273
-0.02702588 0.73400003 -0.042469237 2.0007178e-38 299 273
-0.025809066 0.736 -0.042584959 2.0007525e-38 300 273
-0.024518613 0.736 -0.042584959 2.0007525e-38 301 273
-0.023228159 0.736 -0.042584959 2.0191196e-38 302 273
-0.021937706 0.736 -0.042584959 1.9822414e-38 303 273
-0.020591147 0.73400003 -0.042469237 2.0282323e-38 304 273
-0.019304199 0.73400003 -0.042469237 2.0189768e-38 305 273
-0.017992707 0.73299998 -0.042411376 1.4565127e-38 306 273
-0.016707512 0.73299998 -0.042411376 8.9415538e-39 307 273
-0.015422319 0.73299998 -0.042411376 5.259132e-39 308 273
-0.014137126 0.73299998 -0.042411376 5.6282746e-39 309 273
-0.012851933 0.73299998 -0.042411376 6.7317453e-39 310 273
-0.011582521 0.73400003 -0.042469237 6.823941e-39 311 273
-0.010295574 0.73400003 -0.042469237 6.6431272e-39 312 273
-0.0090086265 0.73400003 -0.042469237 7.1037452e-39 313 273
-0.0077427197 0.736 -0.042584959 9.3110173e-39 314 273
0.039569225 0.72799999 -0.042122077 1.484314e-38 351 273
0.040845651 0.72799999 -0.042122077 1.548814e-38 352 273
0.042122077 0.72799999 -0.042122077 1.5395944e-38 353 273
0.043338891 0.727 -0.042064216 1.4480105e-38 354 273
0.044613566 0.727 -0.042064216 1.5033278e-38 355 273
0.045951359 0.72799999 -0.042122077 1.5953084e-38 356 273
0.047227785 0.72799999 -0.042122077 1.6230031e-38 357 273
0.048504211 0.72799999 -0.042122077 1.7147308e-38 358 273
0.049780637 0.72799999 -0.042122077 1.7147308e-38 359 273
0.051057063 0.72799999 -0.042122077 1.723986e-38 360 273
0.052333489 0.72799999 -0.042122077 1.723986e-38 361 273
0.053609919 0.72799999 -0.042122077 1.6963993e-38 362 273
0.054886345 0.72799999 -0.042122077 1.7148743e-38 363 273
-0.054346316 0.73799998 -0.043994635 0 278 274
-0.053052358 0.73799998 -0.043994635 0 279 274
-0.051618133 0.736 -0.043875411 0 280 274
-0.050327681 0.736 -0.043875411 0 281 274
-0.048903972 0.73400003 -0.043756187 2.7730015e-40 282 274
-0.047617026 0.73400003 -0.043756187 1.1066979e-39 283 274
-0.046330083 0.73400003 -0.043756187 1.3854554e-39 284 274
-0.045165867 0.736 -0.043875411 2.5839986e-39 285 274
-0.043875411 0.736 -0.043875411 3.5967184e-39 286 274
-0.042584959 0.736 -0.043875411 4.1498922e-39 287 274
-0.041462827 0.73900002 -0.044054255 3.8779968e-39 288 274
-0.040167112 0.73900002 -0.044054255 4.984343e-39 289 274
-0.0388714 0.73900002 -0.044054255 7.1963206e-39 290 274
-0.037575684 0.73900002 -0.044054255 9.0402332e-39 291 274
-0.036279973 0.73900002 -0.044054255 1.0145482e-38 292 274
-0.034984261 0.73900002 -0.044054255 9.3160802e-39 293 274
-0.033642959 0.73799998 -0.043994635 1.2992031e-38 294 274
-0.032348998 0.73799998 -0.043994635 1.6495105e-38 295 274
-0.030970879 0.736 -0.043875411 1.9542968e-38 296 274
-0.029680425 0.736 -0.043875411 1.8068198e-38 297 274
-0.028389972 0.736 -0.043875411 1.6229322e-38 298 274
-0.02709952 0.736 -0.043875411 1.6229322e-38 299 274
-0.025738932 0.73400003 -0.043756187 1.6413706e-38 300 274
-0.024451986 0.73400003 -0.043756187 1.6229675e-38 301 274
-0.023165042 0.73400003 -0.043756187 1.6229675e-38 302 274
-0.021878093 0.73400003 -0.043756187 1.6413706e-38 303 274
-0.020591147 0.73400003 -0.043756187 1.6414435e-38 304 274
-0.019304199 0.73400003 -0.043756187 1.6691022e-38 305 274
-0.018017253 0.73400003 -0.043756187 8.1240349e-39 306 274
-0.016707512 0.73299998 -0.043696571 4.3443728e-39 307 274
-0.015422319 0.73299998 -0.043696571 5.4463973e-39 308 274
-0.014137126 0.73299998 -0.043696571 6.5527449e-39 309 274
-0.012851933 0.73299998 -0.043696571 7.7458804e-39 310 274
-0.011566739 0.73299998 -0.043696571 7.6536848e-39 311 274
-0.010295574 0.73400003 -0.043756187 6.5541714e-39 312 274
-0.0090086265 0.73400003 -0.043756187 7.7527146e-39 313 274
-0.0077216802 0.73400003 -0.043756187 1.1522661e-38 314 274
-0.006434733 0.73400003 -0.043756187 1.2352062e-38 315 274
0.038292799 0.72799999 -0.043398503 1.1077923e-39 350 274
0.039569225 0.72799999 -0.043398503 1.1999879e-39 351 274
0.040845651 0.72799999 -0.043398503 1.4790705e-39 352 274
0.042122077 0.72799999 -0.043398503 8.3370112e-40 353 274
0.043338891 0.727 -0.043338891 2.0954457e-40 354 274
0.044613566 0.727 -0.043338891 6.2944575e-39 355 274
0.045951359 0.72799999 -0.043398503 1.3744336e-38 356 274
0.047227785 0.72799999 -0.043398503 1.5864836e-38 357 274
0.048504211 0.72799999 -0.043398503 1.68718e-38 358 274
0.049780637 0.72799999 -0.043398503 1.6779605e-38 359 274
0.051057063 0.72799999 -0.043398503 1.6595934e-38 360 274
0.052333489 0.72799999 -0.043398503 1.6872879e-38 361 274
0.053609919 0.72799999 -0.043398503 1.7333852e-38 362 274
0.054886345 0.72799999 -0.043398503 1.7979221e-38 363 274
0.056162767 0.72799999 -0.043398503 1.8620624e-38 364 274
-0.055640277 0.73799998 -0.0452886 1.1956691e-39 277 275
-0.054346316 0.73799998 -0.0452886 7.2166871e-43 278 275
-0.053052358 0.73799998 -0.0452886 7.2166871e-43 279 275
-0.051618133 0.736 -0.045165867 3.643376e-43 280 275
-0.050327681 0.736 -0.045165867 4.2038954e-45 281 275
-0.049037226 0.736 -0.045165867 4.2038954e-45 282 275
-0.047746774 0.736 -0.045165867 5.6051939e-45 283 275
-0.046456318 0.736 -0.045165867 3.7134409e-43 284 275
-0.045165867 0.736 -0.045165867 7.3901678e-40 285 275
-0.043875411 0.736 -0.045165867 1.3829499e-39 286 275
-0.042584959 0.736 -0.045165867 1.4751469e-39 287 275
-0.041294504 0.736 -0.045165867 6.504309e-40 288 275
-0.040112756 0.73799998 -0.0452886 6.504309e-40 289 275
-0.038818799 0.73799998 -0.0452886 1.0206554e-39 290 275
-0.037524838 0.73799998 -0.0452886 1.6660248e-39 291 275
-0.036230877 0.73799998 -0.0452886 2.6751404e-39 292 275
-0.034936916 0.73799998 -0.0452886 3.8733249e-39 293 275
-0.033551786 0.736 -0.045165867 9.9603973e-39 294 275
-0.032173667 0.73400003 -0.045043133 1.4201036e-38 295 275
-0.030886721 0.73400003 -0.045043133 1.788634e-38 296 275
-0.029599773 0.73400003 -0.045043133 1.6964744e-38 297 275
-0.028312827 0.73400003 -0.045043133 1.5584671e-38 298 275
-0.02702588 0.73400003 -0.045043133 1.5584671e-38 299 275
-0.025738932 0.73400003 -0.045043133 1.5952731e-38 300 275
-0.024451986 0.73400003 -0.045043133 1.5768339e-38 301 275
-0.023165042 0.73400003 -0.045043133 1.5584674e-38 302 275
-0.021878093 0.73400003 -0.045043133 1.567687e-38 303 275
-0.020591147 0.73400003 -0.045043133 1.5861987e-38 304 275
-0.019304199 0.73400003 -0.045043133 1.5677235e-38 305 275
-0.018017253 0.73400003 -0.045043133 4.0713928e-39 306 275
-0.016707512 0.73299998 -0.044981763 1.3055225e-39 307 275
-0.015422319 0.73299998 -0.044981763 3.9709141e-39 308 275
-0.014137126 0.73299998 -0.044981763 4.8928718e-39 309 275
-0.012851933 0.73299998 -0.044981763 5.9948837e-39 310 275
-0.011566739 0.73299998 -0.044981763 5.9948837e-39 311 275
-0.010295574 0.73400003 -0.045043133 5.4449526e-39 312 275
-0.0090086265 0.73400003 -0.045043133 6.090322e-39 313 275
-0.0077216802 0.73400003 -0.045043133 7.3796357e-39 314 275
-0.006434733 0.73400003 -0.045043133 8.2093964e-39 315 275
-0.0051477868 0.73400003 -0.045043133 8.8605041e-39 316 275
-0.0012816866 0.73100001 -0.044859033 1.0696485e-38 319 275
0 0.73100001 -0.044859033 1.0696135e-38 320 275
0.036965527 0.727 -0.044613566 5.8994511e-39 349 275
0.038240198 0.727 -0.044613566 5.3469962e-39 350 275
0.039514873 0.727 -0.044613566 5.0704093e-39 351 275
0.040845651 0.72799999 -0.044674929 3.9680246e-39 352 275
0.042122077 0.72799999 -0.044674929 2.4928946e-39 353 275
0.043398503 0.72799999 -0.044674929 3.9698029e-39 354 275
0.044674929 0.72799999 -0.044674929 1.1068508e-38 355 275
0.045951359 0.72799999 -0.044674929 1.603843e-38 356 275
0.047227785 0.72799999 -0.044674929 1.8435516e-38 357 275
0.048504211 0.72799999 -0.044674929 1.806999e-38 358 275
0.049780637 0.72799999 -0.044674929 1.8162186e-38 359 275
0.051057063 0.72799999 -0.044674929 1.7978871e-38 360 275
0.052333489 0.72799999 -0.044674929 1.8071067e-38 361 275
0.053609919 0.72799999 -0.044674929 1.8347646e-38 362 275
0.054886345 0.72799999 -0.044674929 1.8532398e-38 363 275
0.056162767 0.72799999 -0.044674929 1.9265641e-38 364 275
0.057439197 0.72799999 -0.044674929 1.8528075e-38 365 275
-0.054346316 0.73799998 -0.046582557 3.6917909e-39 278 276
-0.053052358 0.73799998 -0.046582557 3.7839865e-39 279 276
-0.051758397 0.73799998 -0.046582557 3.5088415e-39 280 276
-0.050464436 0.73799998 -0.046582557 3.1404178e-39 281 276
-0.049170475 0.73799998 -0.046582557 3.1382668e-39 282 276
-0.047746774 0.736 -0.046456318 2.9535168e-39 283 276
-0.046456318 0.736 -0.046456318 3.136113e-39 284 276
-0.045165867 0.736 -0.046456318 2.9520804e-39 285 276
-0.043756187 0.73400003 -0.046330083 2.8588058e-39 286 276
-0.042469237 0.73400003 -0.046330083 2.305632e-39 287 276
-0.041182294 0.73400003 -0.046330083 9.2629752e-40 288 276
-0.039895348 0.73400003 -0.046330083 3.9810889e-42 289 276
-0.038713597 0.736 -0.046456318 3.267828e-42 290 276
-0.037423145 0.736 -0.046456318 7.4689208e-43 291 276
-0.036132693 0.736 -0.046456318 1.4012985e-44 292 276
-0.034842238 0.736 -0.046456318 3.0828566e-44 293 276
-0.033460613 0.73400003 -0.046330083 8.0311218e-39 294 276
-0.032129832 0.73299998 -0.046266954 1.2363958e-38 295 276
-0.030844638 0.73299998 -0.046266954 1.5768715e-38 296 276
-0.029559445 0.73299998 -0.046266954 1.5399932e-38 297 276
-0.028274251 0.73299998 -0.046266954 1.4756358e-38 298 276
-0.02702588 0.73400003 -0.046330083 1.4664162e-38 299 276
-0.025738932 0.73400003 -0.046330083 1.4755639e-38 300 276
-0.024451986 0.73400003 -0.046330083 1.4663444e-38 301 276
-0.023165042 0.73400003 -0.046330083 1.4664162e-38 302 276
-0.021878093 0.73400003 -0.046330083 1.4848554e-38 303 276
-0.020591147 0.73400003 -0.046330083 1.5032949e-38 304 276
-0.019304199 0.73400003 -0.046330083 1.4571611e-38 305 276
-0.018017253 0.73400003 -0.046330083 1.1165266e-40 306 276
-0.016730307 0.73400003 -0.046330083 9.3732854e-42 307 276
-0.01544336 0.73400003 -0.046330083 2.307797e-39 308 276
-0.014137126 0.73299998 -0.046266954 2.5847427e-39 309 276
-0.012851933 0.73299998 -0.046266954 2.6772858e-39 310 276
-0.011582521 0.73400003 -0.046330083 2.6772858e-39 311 276
-0.010295574 0.73400003 -0.046330083 2.4936162e-39 312 276
-0.0090086265 0.73400003 -0.046330083 1.295073e-39 313 276
-0.0077216802 0.73400003 -0.046330083 1.0099158e-41 314 276
-0.006434733 0.73400003 -0.046330083 3.4213375e-39 315 276
-0.0051477868 0.73400003 -0.046330083 7.7574033e-39 316 276
-0.0038608401 0.73400003 -0.046330083 9.6935102e-39 317 276
-0.0025738934 0.73400003 -0.046330083 1.0790131e-38 318 276
-0.0012816866 0.73100001 -0.046140719 9.6837851e-39 319 276
0 0.73100001 -0.046140719 8.7618274e-39 320 276
0.0012816866 0.73100001 -0.046140719 8.6696318e-39 321 276
0.025493465 0.727 -0.045888241 1.0876192e-38 340 276
0.026768139 0.727 -0.045888241 1.1244973e-38 341 276
0.028042812 0.727 -0.045888241 1.1153871e-38 342 276
0.029317487 0.727 -0.045888241 1.1430816e-38 343 276
0.030634239 0.72799999 -0.045951359 1.1799246e-38 344 276
0.031910665 0.72799999 -0.045951359 1.1983637e-38 345 276
0.033187091 0.72799999 -0.045951359 1.1801043e-38 346 276
0.03441618 0.727 -0.045888241 1.1801043e-38 347 276
0.035690852 0.727 -0.045888241 1.1893236e-38 348 276
0.036965527 0.727 -0.045888241 1.1801041e-38 349 276
0.038240198 0.727 -0.045888241 1.1984706e-38 350 276
0.039514873 0.727 -0.045888241 1.1984706e-38 351 276
0.040845651 0.72799999 -0.045951359 1.1526249e-38 352 276
0.042122077 0.72799999 -0.045951359 1.0788684e-38 353 276
0.043398503 0.72799999 -0.045951359 1.0700103e-38 354 276
0.044674929 0.72799999 -0.045951359 1.3742561e-38 355 276
0.045951359 0.72799999 -0.045951359 1.6597399e-38 356 276
0.047227785 0.72799999 -0.045951359 1.7980335e-38 357 276
0.048504211 0.72799999 -0.045951359 1.9453651e-38 358 276
0.049780637 0.72799999 -0.045951359 2.0559998e-38 359 276
0.051057063 0.72799999 -0.045951359 2.0652897e-38 360 276
0.052333489 0.72799999 -0.045951359 2.0468505e-38 361 276
0.053609919 0.72799999 -0.045951359 2.0283757e-38 362 276
0.054886345 0.72799999 -0.045951359 2.0099726e-38 363 276
0.056162767 0.72799999 -0.045951359 2.074078e-38 364 276
0.057360299 0.727 -0.045888241 1.9173094e-38 365 276
0.058634974 0.727 -0.045888241 1.6688488e-38 366 276
-0.047746774 0.736 -0.047746774 6.7360641e-39 283 277
-0.046456318 0.736 -0.047746774 7.1030446e-39 284 277
-0.045165867 0.736 -0.047746774 6.8268178e-39 285 277
-0.043756187 0.73400003 -0.047617026 6.5513071e-39 286 277
-0.042469237 0.73400003 -0.047617026 6.4587528e-39 287 277
-0.041182294 0.73400003 -0.047617026 5.6311585e-39 288 277
-0.039895348 0.73400003 -0.047617026 5.0779847e-39 289 277
-0.038713597 0.736 -0.047746774 4.0660034e-39 290 277
-0.037423145 0.736 -0.047746774 3.420634e-39 291 277
-0.036132693 0.736 -0.047746774 2.7695165e-39 292 277
-0.034842238 0.736 -0.047746774 1.5709733e-39 293 277
-0.033460613 0.73400003 -0.047617026 8.676138e-39 294 277
-0.032129832 0.73299998 -0.04755215 1.2271768e-38 295 277
-0.030844638 0.73299998 -0.04755215 1.4848924e-38 296 277
-0.029559445 0.73299998 -0.04755215 1.4387945e-38 297 277
-0.028274251 0.73299998 -0.04755215 1.4020242e-38 298 277
-0.02702588 0.73400003 -0.047617026 1.3835849e-38 299 277
-0.025738932 0.73400003 -0.047617026 1.4111357e-38 300 277
-0.024451986 0.73400003 -0.047617026 1.3927326e-38 301 277
-0.023165042 0.73400003 -0.047617026 1.3835849e-38 302 277
-0.021878093 0.73400003 -0.047617026 1.4020242e-38 303 277
-0.020591147 0.73400003 -0.047617026 1.4204633e-38 304 277
-0.019304199 0.73400003 -0.047617026 1.3282676e-38 305 277
-0.018017253 0.73400003 -0.047617026 2.0175895e-41 306 277
-0.016730307 0.73400003 -0.047617026 1.1532686e-41 307 277
-0.01544336 0.73400003 -0.047617026 3.4145019e-39 308 277
-0.014156413 0.73400003 -0.047617026 3.1379136e-39 309 277
-0.012869466 0.73400003 -0.047617026 3.1375451e-39 310 277
-0.011582521 0.73400003 -0.047617026 3.1375451e-39 311 277
-0.010295574 0.73400003 -0.047617026 3.1375479e-39 312 277
-0.0090086265 0.73400003 -0.047617026 1.2014397e-39 313 277
-0.0077216802 0.73400003 -0.047617026 1.8518439e-39 314 277
-0.006434733 0.73400003 -0.047617026 7.8445599e-39 315 277
-0.0051477868 0.73400003 -0.047617026 8.760052e-39 316 277
-0.0038608401 0.73400003 -0.047617026 6.3626055e-39 317 277
-0.0025738934 0.73400003 -0.047617026 4.4279336e-39 318 277
-0.0012869467 0.73400003 -0.047617026 3.6903686e-39 319 277
0 0.73100001 -0.047422405 3.1379108e-39 320 277
0.0012816866 0.73100001 -0.047422405 2.7694884e-39 321 277
0.0025738934 0.73400003 -0.047617026 1.9530443e-39 322 277
0.024252106 0.72799999 -0.047227785 9.3142824e-39 339 277
0.025493465 0.727 -0.047162913 9.6826921e-39 340 277
0.026768139 0.727 -0.047162913 5.9026713e-39 341 277
0.028042812 0.727 -0.047162913 3.6924943e-39 342 277
0.029317487 0.727 -0.047162913 3.9690812e-39 343 277
0.030634239 0.72799999 -0.047227785 5.1647531e-39 344 277
0.031910665 0.72799999 -0.047227785 5.2569502e-39 345 277
0.033187091 0.72799999 -0.047227785 5.2565998e-39 346 277
0.03441618 0.727 -0.047162913 5.440631e-39 347 277
0.035690852 0.727 -0.047162913 5.7172081e-39 348 277
0.036965527 0.727 -0.047162913 5.9934348e-39 349 277
0.038240198 0.727 -0.047162913 5.9948683e-39 350 277
0.039514873 0.727 -0.047162913 6.3636495e-39 351 277
0.040845651 0.72799999 -0.047227785 5.9970347e-39 352 277
0.042122077 0.72799999 -0.047227785 4.8903285e-39 353 277
0.043398503 0.72799999 -0.047227785 4.3544411e-39 354 277
0.044674929 0.72799999 -0.047227785 9.794342e-39 355 277
0.045951359 0.72799999 -0.047227785 1.4758529e-38 356 277
0.047227785 0.72799999 -0.047227785 1.5680485e-38 357 277
0.048504211 0.72799999 -0.047227785 1.6691747e-38 358 277
0.049780637 0.72799999 -0.047227785 1.7890291e-38 359 277
0.051057063 0.72799999 -0.047227785 1.8996619e-38 360 277
0.052333489 0.72799999 -0.047227785 1.8719673e-38 361 277
0.053609919 0.72799999 -0.047227785 1.8807553e-38 362 277
0.054886345 0.72799999 -0.047227785 1.8807553e-38 363 277
0.056085624 0.727 -0.047162913 1.9267092e-38 364 277
0.057360299 0.727 -0.047162913 1.8345135e-38 365 277
0.058634974 0.727 -0.047162913 1.6137479e-38 366 277
0.059909642 0.727 -0.047162913 1.5768337e-38 367 277
-0.043756187 0.73400003 -0.048903972 7.8388342e-39 286 278
-0.042469237 0.73400003 -0.048903972 8.5764006e-39 287 278
-0.041182294 0.73400003 -0.048903972 8.7622324e-39 288 278
-0.032173667 0.73400003 -0.048903972 1.190337e-38 295 278
-0.030886721 0.73400003 -0.048903972 1.4204283e-38 296 278
-0.029599773 0.73400003 -0.048903972 1.383514e-38 297 278
-0.028312827 0.73400003 -0.048903972 1.3559635e-38 298 278
-0.02702588 0.73400003 -0.048903972 1.3467081e-38 299 278
-0.025703866 0.73299998 -0.048837345 1.3559635e-38 300 278
-0.024418673 0.73299998 -0.048837345 1.3467081e-38 301 278
-0.023165042 0.73400003 -0.048903972 1.3284124e-38 302 278
-0.021878093 0.73400003 -0.048903972 1.3560351e-38 303 278
-0.020591147 0.73400003 -0.048903972 1.3560704e-38 304 278
-0.019304199 0.73400003 -0.048903972 1.2269966e-38 305 278
-0.018017253 0.73400003 -0.048903972 2.0889156e-41 306 278
-0.016730307 0.73400003 -0.048903972 1.9087086e-41 307 278
-0.01544336 0.73400003 -0.048903972 4.0609405e-39 308 278
-0.014156413 0.73400003 -0.048903972 3.6925167e-39 309 278
-0.012869466 0.73400003 -0.048903972 3.5081199e-39 310 278
-0.011582521 0.73400003 -0.048903972 3.5081199e-39 311 278
-0.010295574 0.73400003 -0.048903972 3.41629e-39 312 278
-0.0090086265 0.73400003 -0.048903972 2.4024968e-39 313 278
-0.0077216802 0.73400003 -0.048903972 4.984343e-39 314 278
-0.006434733 0.73400003 -0.048903972 1.0608278e-38 315 278
-0.0051477868 0.73400003 -0.048903972 8.2976473e-39 316 278
-0.0038608401 0.73400003 -0.048903972 2.4893226e-39 317 278
-0.0025738934 0.73400003 -0.048903972 1.9422599e-39 318 278
-0.0012851933 0.73299998 -0.048837345 3.6017827e-39 319 278
0 0.73100001 -0.048704091 5.0722226e-39 320 278
0.0012816866 0.73100001 -0.048704091 4.8881915e-39 321 278
0.024252106 0.72799999 -0.048504211 8.4892286e-39 339 278
0.025528532 0.72799999 -0.048504211 1.106529e-38 340 278
0.026804959 0.72799999 -0.048504211 6.4555088e-39 341 278
0.028081384 0.72799999 -0.048504211 1.9368089e-39 342 278
0.029357811 0.72799999 -0.048504211 9.3270426e-41 343 278
0.030634239 0.72799999 -0.048504211 3.9502604e-42 344 278
0.031910665 0.72799999 -0.048504211 3.5901267e-42 345 278
0.033187091 0.72799999 -0.048504211 1.4559491e-42 346 278
0.034463517 0.72799999 -0.048504211 1.0958154e-42 347 278
0.035739943 0.72799999 -0.048504211 1.1000193e-42 348 278
0.036965527 0.727 -0.048437584 1.460153e-42 349 278
0.038240198 0.727 -0.048437584 1.8272932e-42 350 278
0.039514873 0.727 -0.048437584 2.906293e-42 351 278
0.040789545 0.727 -0.048437584 3.6349682e-42 352 278
0.042064216 0.727 -0.048437584 3.3631163e-44 353 278
0.043338891 0.727 -0.048437584 4.7574363e-40 354 278
0.044613566 0.727 -0.048437584 9.7875022e-39 355 278
0.045951359 0.72799999 -0.048504211 1.3191181e-38 356 278
0.047227785 0.72799999 -0.048504211 1.4020943e-38 357 278
0.048504211 0.72799999 -0.048504211 1.429575e-38 358 278
0.049780637 0.72799999 -0.048504211 1.4572695e-38 359 278
0.051057063 0.72799999 -0.048504211 1.595418e-38 360 278
0.052333489 0.72799999 -0.048504211 1.5861984e-38 361 278
0.053536277 0.727 -0.048437584 1.613568e-38 362 278
0.054810952 0.727 -0.048437584 1.6412268e-38 363 278
0.056085624 0.727 -0.048437584 1.714839e-38 364 278
0.057202499 0.72500002 -0.048304334 1.6871444e-38 365 278
0.058473669 0.72500002 -0.048304334 1.4848904e-38 366 278
0.059744831 0.72500002 -0.048304334 1.5402078e-38 367 278
0.061016005 0.72500002 -0.048304334 1.6778898e-38 368 278
0 0.73100001 -0.049985781 1.0782225e-38 320 279
0.0012816866 0.73100001 -0.049985781 1.0136857e-38 321 279
0.024318734 0.73000002 -0.0499174 3.9784965e-39 339 279
0.025528532 0.72799999 -0.049780637 1.0053675e-38 340 279
0.026804959 0.72799999 -0.049780637 1.226673e-38 341 279
0.028081384 0.72799999 -0.049780637 9.6715336e-39 342 279
0.029357811 0.72799999 -0.049780637 5.0617521e-39 343 279
0.030634239 0.72799999 -0.049780637 2.6805102e-39 344 279
0.031910665 0.72799999 -0.049780637 3.694302e-39 345 279
0.033187091 0.72799999 -0.049780637 3.7876117e-39 346 279
0.034463517 0.72799999 -0.049780637 4.6177325e-39 347 279
0.035690852 0.727 -0.049712259 5.724073e-39 348 279
0.036965527 0.727 -0.049712259 6.6463894e-39 349 279
0.038240198 0.727 -0.049712259 7.6598183e-39 350 279
0.039514873 0.727 -0.049712259 8.1204377e-39 351 279
0.040789545 0.727 -0.049712259 8.4895762e-39 352 279
0.042064216 0.727 -0.049712259 8.9505543e-39 353 279
0.043338891 0.727 -0.049712259 9.3225612e-39 354 279
0.044613566 0.727 -0.049712259 1.1811843e-38 355 279
0.045888241 0.727 -0.049712259 1.3649282e-38 356 279
0.047162913 0.727 -0.049712259 1.3926229e-38 357 279
0.048504211 0.72799999 -0.049780637 1.3558538e-38 358 279
0.049780637 0.72799999 -0.049780637 1.3466341e-38 359 279
0.051057063 0.72799999 -0.049780637 1.3466338e-38 360 279
0.052261602 0.727 -0.049712259 1.3466338e-38 361 279
0.053536277 0.727 -0.049712259 1.4109541e-38 362 279
0.054810952 0.727 -0.049712259 1.4478682e-38 363 279
0.056085624 0.727 -0.049712259 1.5030055e-38 364 279
0.057044696 0.72299999 -0.049438741 1.4661273e-38 365 279
0.058312356 0.72299999 -0.049438741 1.273452e-38 366 279
0.059497613 0.722 -0.04937036 1.439404e-38 367 279
0.060763516 0.722 -0.04937036 1.6962924e-38 368 279
0.025528532 0.72799999 -0.051057063 5.8205888e-39 340 280
0.026804959 0.72799999 -0.051057063 1.1905859e-38 341 280
0.028081384 0.72799999 -0.051057063 1.2170196e-38 342 280
0.029357811 0.72799999 -0.051057063 8.9433488e-39 343 280
0.030634239 0.72799999 -0.051057063 6.8340149e-39 344 280
0.031910665 0.72799999 -0.051057063 8.2173081e-39 345 280
0.033187091 0.72799999 -0.051057063 9.3204313e-39 346 280
0.034463517 0.72799999 -0.051057063 1.0057996e-38 347 280
0.035690852 0.727 -0.050986931 1.1254016e-38 348 280
0.036965527 0.727 -0.050986931 1.1899385e-38 349 280
0.038240198 0.727 -0.050986931 1.2820616e-38 350 280
0.039514873 0.727 -0.050986931 1.3189758e-38 351 280
0.040789545 0.727 -0.050986931 1.4018077e-38 352 280
0.042064216 0.727 -0.050986931 1.4570892e-38 353 280
0.043338891 0.727 -0.050986931 1.42961e-38 354 280
0.044613566 0.727 -0.050986931 1.4203905e-38 355 280
0.045888241 0.727 -0.050986931 1.4479052e-38 356 280
0.047162913 0.727 -0.050986931 1.411027e-38 357 280
0.048504211 0.72799999 -0.051057063 1.3926241e-38 358 280
0.049712259 0.727 -0.050986931 1.3650015e-38 359 280
0.050986931 0.727 -0.050986931 1.3465622e-38 360 280
0.052261602 0.727 -0.050986931 1.3557818e-38 361 280
0.053536277 0.727 -0.050986931 1.4018074e-38 362 280
0.054810952 0.727 -0.050986931 1.411027e-38 363 280
0.055931333 0.72500002 -0.050846666 1.4569443e-38 364 280
0.057044696 0.72299999 -0.050706398 1.3924074e-38 365 280
0.058312356 0.72299999 -0.050706398 1.3004621e-38 366 280
0.059497613 0.722 -0.050636265 1.5678295e-38 367 280
0.060763516 0.722 -0.050636265 1.7146945e-38 368 280
0.036965527 0.727 -0.052261602 1.3744744e-38 349 281
0.038240198 0.727 -0.052261602 1.3929491e-38 350 281
0.039514873 0.727 -0.052261602 1.3929491e-38 351 281
0.040789545 0.727 -0.052261602 1.4663093e-38 352 281
0.042064216 0.727 -0.052261602 1.5123713e-38 353 281
0.043219667 0.72500002 -0.052117832 1.5123346e-38 354 281
0.044490833 0.72500002 -0.052117832 1.503115e-38 355 281
0.045888241 0.727 -0.052261602 1.4388299e-38 356 281
0.047162913 0.727 -0.052261602 1.411171e-38 357 281
0.049712259 0.727 -0.052261602 1.374221e-38 359 281
0.050986931 0.727 -0.052261602 1.3833327e-38 360 281
0.052117832 0.72500002 -0.052117832 1.374113e-38 361 281
0.053388998 0.72500002 -0.052117832 1.3924804e-38 362 281
0.054660168 0.72500002 -0.052117832 1.3924804e-38 363 281
0.055931333 0.72500002 -0.052117832 1.392516e-38 364 281
0.057044696 0.72299999 -0.051974058 1.3463821e-38 365 281
0.058231708 0.722 -0.051902171 1.3004268e-38 366 281
0.059497613 0.722 -0.051902171 1.595453e-38 367 281
0.060763516 0.722 -0.051902171 1.7330983e-38 368 281
0.062029421 0.722 -0.051902171 1.7238788e-38 369 281
0.057044696 0.72299999 -0.053241719 1.2636584e-38 365 282
0.058231708 0.722 -0.053168077 1.2727686e-38 366 282
0.059497613 0.722 -0.053168077 1.6230759e-38 367 282
0.060763516 0.722 -0.053168077 1.7423179e-38 368 282
0.058231708 0.722 -0.054433983 1.2727333e-38 366 283
0.059497613 0.722 -0.054433983 1.6322961e-38 367 283
