# .PCD v.7 - Point Cloud Data file format
FIELDS x y z rgb imX imY
SIZE 4 4 4 4 4 4
TYPE F F F F F F
COUNT 1 1 1 1 1 1
WIDTH 836
HEIGHT 1
VIEWPOINT 0 0 0 1 0 0 0
POINTS 836
DATA ascii
0.010043093 0.71600002 -0.0025107733 1.5399913e-38 328 242
0.01129848 0.71600002 -0.0025107733 1.5307717e-38 329 242
0.012553867 0.71600002 -0.0025107733 1.5215153e-38 330 242
0.013828539 0.71700001 -0.0025142799 1.4938206e-38 331 242
0.01512776 0.71899998 -0.0025212932 1.5121508e-38 332 242
0.0164112 0.72000003 -0.0025248001 1.4752727e-38 333 242
0.017673599 0.72000003 -0.0025248001 1.4844194e-38 334 242
0.018935999 0.72000003 -0.0025248001 1.4567966e-38 335 242
0.020198401 0.72000003 -0.0025248001 1.4384291e-38 336 242
0.021520413 0.722 -0.0025318132 1.420026e-38 337 242
0.02281788 0.72299999 -0.0025353199 1.4383928e-38 338 242
0.024152167 0.72500002 -0.0025423334 1.4199178e-38 339 242
0.025493465 0.727 -0.0025493465 1.4382479e-38 340 242
0.026768139 0.727 -0.0025493465 1.3921502e-38 341 242
0.028081384 0.72799999 -0.0025528532 1.4105546e-38 342 242
0.029559445 0.73299998 -0.0025703865 1.548848e-38 343 242
0.030844638 0.73299998 -0.0025703865 1.7426772e-38 344 242
-0.024451986 0.73400003 -0.0038608401 1.6043832e-38 301 243
-0.023165042 0.73400003 -0.0038608401 1.6961815e-38 302 243
-0.021848286 0.73299998 -0.0038555798 1.668487e-38 303 243
-0.020506985 0.73100001 -0.00384506 1.6867818e-38 304 243
-0.0191464 0.72799999 -0.0038292799 1.6960013e-38 305 243
-0.017796334 0.72500002 -0.0038135003 1.7236242e-38 306 243
-0.01647958 0.72299999 -0.0038029798 1.7881611e-38 307 243
-0.0151488 0.72000003 -0.0037872 1.7977409e-38 308 243
-0.0138864 0.72000003 -0.0037872 1.7885214e-38 309 243
-0.0125714 0.71700001 -0.0037714199 1.7701911e-38 310 243
-0.01131426 0.71700001 -0.0037714199 1.7701911e-38 311 243
-0.010043093 0.71600002 -0.00376616 1.7793028e-38 312 243
-0.0087877065 0.71600002 -0.00376616 1.7793028e-38 313 243
-0.0075112795 0.71399999 -0.0037556398 1.7608997e-38 314 243
-0.0062593995 0.71399999 -0.0037556398 1.7608997e-38 315 243
-0.0050075199 0.71399999 -0.0037556398 1.7516798e-38 316 243
-0.0037503797 0.713 -0.0037503797 1.7424601e-38 317 243
-0.0025002533 0.713 -0.0037503797 1.7148737e-38 318 243
-0.0012501266 0.713 -0.0037503797 1.7056542e-38 319 243
0 0.71399999 -0.0037556398 1.6872876e-38 320 243
0.00125188 0.71399999 -0.0037556398 1.6688485e-38 321 243
0.0025037599 0.71399999 -0.0037556398 1.6503383e-38 322 243
0.0037556398 0.71399999 -0.0037556398 1.6134961e-38 323 243
0.0050075199 0.71399999 -0.0037556398 1.5582873e-38 324 243
0.0062593995 0.71399999 -0.0037556398 1.5675069e-38 325 243
0.00753232 0.71600002 -0.00376616 1.5216249e-38 326 243
0.0087877065 0.71600002 -0.00376616 1.5124052e-38 327 243
0.010043093 0.71600002 -0.00376616 1.5031851e-38 328 243
0.01129848 0.71600002 -0.00376616 1.5031851e-38 329 243
0.012553867 0.71600002 -0.00376616 1.5122957e-38 330 243
0.013828539 0.71700001 -0.0037714199 1.4938206e-38 331 243
0.01512776 0.71899998 -0.0037819401 1.502931e-38 332 243
0.0164112 0.72000003 -0.0037872 1.4753083e-38 333 243
0.017673599 0.72000003 -0.0037872 1.4660162e-38 334 243
0.018935999 0.72000003 -0.0037872 1.4567966e-38 335 243
0.020198401 0.72000003 -0.0037872 1.4200981e-38 336 243
0.021520413 0.722 -0.0037977197 1.4108427e-38 337 243
0.022786319 0.722 -0.0037977197 1.456724e-38 338 243
0.024152167 0.72500002 -0.0038135003 1.4290655e-38 339 243
0.025493465 0.727 -0.0038240198 1.4381407e-38 340 243
0.026804959 0.72799999 -0.0038292799 1.4196657e-38 341 243
0.028081384 0.72799999 -0.0038292799 1.4196663e-38 342 243
0.029559445 0.73299998 -0.0038555798 1.5487401e-38 343 243
0.030844638 0.73299998 -0.0038555798 1.7609363e-38 344 243
0.032129832 0.73299998 -0.0038555798 1.8439482e-38 345 243
-0.024451986 0.73400003 -0.0051477868 1.6411894e-38 301 244
-0.023165042 0.73400003 -0.0051477868 1.6962534e-38 302 244
-0.021788673 0.73100001 -0.0051267464 1.6777784e-38 303 244
-0.020478934 0.73000002 -0.0051197335 1.6868537e-38 304 244
-0.0191464 0.72799999 -0.0051057064 1.6960734e-38 305 244
-0.017747238 0.72299999 -0.0050706398 1.7145125e-38 306 244
-0.0164112 0.72000003 -0.0050496003 1.7606103e-38 307 244
-0.01512776 0.71899998 -0.0050425865 1.7884858e-38 308 244
-0.013867113 0.71899998 -0.0050425865 1.7884858e-38 309 244
-0.0125714 0.71700001 -0.0050285598 1.7794107e-38 310 244
-0.01129848 0.71600002 -0.0050215465 1.7794107e-38 311 244
-0.01001504 0.71399999 -0.0050075199 1.7701914e-38 312 244
-0.0087631596 0.71399999 -0.0050075199 1.7701914e-38 313 244
-0.0075112795 0.71399999 -0.0050075199 1.7609713e-38 314 244
-0.0062506334 0.713 -0.0050005065 1.7609713e-38 315 244
-0.0050005065 0.713 -0.0050005065 1.7517517e-38 316 244
-0.0037503797 0.713 -0.0050005065 1.7241289e-38 317 244
-0.0025002533 0.713 -0.0050005065 1.714874e-38 318 244
-0.0012501266 0.713 -0.0050005065 1.714874e-38 319 244
0 0.713 -0.0050005065 1.7056908e-38 320 244
0.0012501266 0.713 -0.0050005065 1.6780681e-38 321 244
0.0025037599 0.71399999 -0.0050075199 1.6503739e-38 322 244
0.0037556398 0.71399999 -0.0050075199 1.6319348e-38 323 244
0.0050075199 0.71399999 -0.0050075199 1.5767618e-38 324 244
0.0062593995 0.71399999 -0.0050075199 1.5675422e-38 325 244
0.00753232 0.71600002 -0.0050215465 1.5125124e-38 326 244
0.0087877065 0.71600002 -0.0050215465 1.5125124e-38 327 244
0.010043093 0.71600002 -0.0050215465 1.5215519e-38 328 244
0.01129848 0.71600002 -0.0050215465 1.5307714e-38 329 244
0.012553867 0.71600002 -0.0050215465 1.4940005e-38 330 244
0.013809253 0.71600002 -0.0050215465 1.4755614e-38 331 244
0.015085679 0.71700001 -0.0050285598 1.4753446e-38 332 244
0.016388407 0.71899998 -0.0050425865 1.4477219e-38 333 244
0.017673599 0.72000003 -0.0050496003 1.4292824e-38 334 244
0.018935999 0.72000003 -0.0050496003 1.4108433e-38 335 244
0.020198401 0.72000003 -0.0050496003 1.4199909e-38 336 244
0.021520413 0.722 -0.0050636264 1.4199909e-38 337 244
0.022786319 0.722 -0.0050636264 1.4291379e-38 338 244
0.024152167 0.72500002 -0.0050846669 1.4198825e-38 339 244
0.025493465 0.727 -0.0050986931 1.4105543e-38 340 244
0.026768139 0.727 -0.0050986931 1.3921152e-38 341 244
0.028081384 0.72799999 -0.0051057064 1.3920799e-38 342 244
0.029599773 0.73400003 -0.0051477868 1.5211538e-38 343 244
0.030886721 0.73400003 -0.0051477868 1.7609718e-38 344 244
0.032173667 0.73400003 -0.0051477868 1.8531675e-38 345 244
-0.024451986 0.73400003 -0.006434733 1.6228582e-38 301 245
-0.023133477 0.73299998 -0.0064259665 1.7146923e-38 302 245
-0.021758866 0.73000002 -0.0063996664 1.6962532e-38 303 245
-0.020422826 0.72799999 -0.0063821329 1.6961087e-38 304 245
-0.0190675 0.72500002 -0.0063558333 1.7053282e-38 305 245
-0.017673599 0.72000003 -0.0063120001 1.7237676e-38 306 245
-0.016388407 0.71899998 -0.0063032326 1.7513903e-38 307 245
-0.01512776 0.71899998 -0.0063032326 1.7975974e-38 308 245
-0.013828539 0.71700001 -0.0062857 1.8160724e-38 309 245
-0.012553867 0.71600002 -0.0062769335 1.7977422e-38 310 245
-0.011266919 0.71399999 -0.0062593995 1.7885226e-38 311 245
-0.010001013 0.713 -0.0062506334 1.7977422e-38 312 245
-0.0087508867 0.713 -0.0062506334 1.7977422e-38 313 245
-0.0075007593 0.713 -0.0062506334 1.7702267e-38 314 245
-0.0062330998 0.71100003 -0.0062330998 1.7609713e-38 315 245
-0.0049864799 0.71100003 -0.0062330998 1.7517517e-38 316 245
-0.0037398601 0.71100003 -0.0062330998 1.7241289e-38 317 245
-0.0024932399 0.71100003 -0.0062330998 1.7148737e-38 318 245
-0.00124662 0.71100003 -0.0062330998 1.7148737e-38 319 245
0 0.71100003 -0.0062330998 1.67814e-38 320 245
0.00124662 0.71100003 -0.0062330998 1.6597008e-38 321 245
0.0025002533 0.713 -0.0062506334 1.6412621e-38 322 245
0.0037503797 0.713 -0.0062506334 1.6228229e-38 323 245
0.0050005065 0.713 -0.0062506334 1.5768693e-38 324 245
0.0062506334 0.713 -0.0062506334 1.5492107e-38 325 245
0.0075112795 0.71399999 -0.0062593995 1.540063e-38 326 245
0.0087631596 0.71399999 -0.0062593995 1.5216598e-38 327 245
0.01001504 0.71399999 -0.0062593995 1.5124399e-38 328 245
0.01129848 0.71600002 -0.0062769335 1.5124399e-38 329 245
0.012553867 0.71600002 -0.0062769335 1.5124399e-38 330 245
0.013809253 0.71600002 -0.0062769335 1.4940008e-38 331 245
0.015085679 0.71700001 -0.0062857 1.4478301e-38 332 245
0.016388407 0.71899998 -0.0063032326 1.429427e-38 333 245
0.017649053 0.71899998 -0.0063032326 1.410843e-38 334 245
0.018935999 0.72000003 -0.0063120001 1.410843e-38 335 245
0.020198401 0.72000003 -0.0063120001 1.4016234e-38 336 245
0.021460801 0.72000003 -0.0063120001 1.3832203e-38 337 245
0.022723202 0.72000003 -0.0063120001 1.4014792e-38 338 245
0.024052227 0.722 -0.0063295332 1.3922597e-38 339 245
0.025353199 0.72299999 -0.0063382997 1.4105543e-38 340 245
0.026768139 0.727 -0.0063733663 1.3921152e-38 341 245
0.028312827 0.73400003 -0.006434733 1.3921518e-38 342 245
0.029680425 0.736 -0.0064522666 1.5304452e-38 343 245
0.03109712 0.73900002 -0.0064785667 1.7792675e-38 344 245
0.032392833 0.73900002 -0.0064785667 1.8807187e-38 345 245
0.033779722 0.741 -0.0064960998 1.8071788e-38 346 245
-0.025633732 0.73100001 -0.00769012 1.6781037e-38 300 246
-0.024352046 0.73100001 -0.00769012 1.6319698e-38 301 246
-0.02307036 0.73100001 -0.00769012 1.7054377e-38 302 246
-0.021758866 0.73000002 -0.0076795998 1.7054377e-38 303 246
-0.020338668 0.72500002 -0.0076270006 1.6961813e-38 304 246
-0.018935999 0.72000003 -0.0075743999 1.6961813e-38 305 246
-0.017649053 0.71899998 -0.0075638802 1.696181e-38 306 246
-0.016342819 0.71700001 -0.0075428397 1.696181e-38 307 246
-0.01506464 0.71600002 -0.00753232 1.7791939e-38 308 246
-0.013809253 0.71600002 -0.00753232 1.8252917e-38 309 246
-0.012518799 0.71399999 -0.0075112795 1.8069974e-38 310 246
-0.01121958 0.71100003 -0.0074797203 1.7977778e-38 311 246
-0.0099729598 0.71100003 -0.0074797203 1.779411e-38 312 246
-0.0087263398 0.71100003 -0.0074797203 1.779411e-38 313 246
-0.0074797203 0.71100003 -0.0074797203 1.7427122e-38 314 246
-0.0062330998 0.71100003 -0.0074797203 1.7334927e-38 315 246
-0.0049864799 0.71100003 -0.0074797203 1.7333852e-38 316 246
-0.0037398601 0.71100003 -0.0074797203 1.7241656e-38 317 246
-0.0024932399 0.71100003 -0.0074797203 1.705691e-38 318 246
-0.00124662 0.71100003 -0.0074797203 1.6872879e-38 319 246
0 0.71100003 -0.0074797203 1.659809e-38 320 246
0.00124662 0.71100003 -0.0074797203 1.641334e-38 321 246
0.0025002533 0.713 -0.0075007593 1.6137476e-38 322 246
0.0037503797 0.713 -0.0075007593 1.6045279e-38 323 246
0.0050005065 0.713 -0.0075007593 1.5677223e-38 324 246
0.0062506334 0.713 -0.0075007593 1.5492831e-38 325 246
0.0075007593 0.713 -0.0075007593 1.5491757e-38 326 246
0.0087508867 0.713 -0.0075007593 1.5399561e-38 327 246
0.01001504 0.71399999 -0.0075112795 1.5124768e-38 328 246
0.011266919 0.71399999 -0.0075112795 1.5124768e-38 329 246
0.012553867 0.71600002 -0.00753232 1.484926e-38 330 246
0.013809253 0.71600002 -0.00753232 1.4757064e-38 331 246
0.015085679 0.71700001 -0.0075428397 1.4386837e-38 332 246
0.016388407 0.71899998 -0.0075638802 1.4109891e-38 333 246
0.017649053 0.71899998 -0.0075638802 1.4200994e-38 334 246
0.018935999 0.72000003 -0.0075743999 1.4016963e-38 335 246
0.020198401 0.72000003 -0.0075743999 1.4108433e-38 336 246
0.021460801 0.72000003 -0.0075743999 1.4015878e-38 337 246
0.022723202 0.72000003 -0.0075743999 1.4198828e-38 338 246
0.024052227 0.722 -0.0075954394 1.3922599e-38 339 246
0.025353199 0.72299999 -0.0076059597 1.3921518e-38 340 246
0.026804959 0.72799999 -0.0076585598 1.3737487e-38 341 246
0.028505694 0.73900002 -0.0077742799 1.3830404e-38 342 246
0.029801406 0.73900002 -0.0077742799 1.5213338e-38 343 246
0.03109712 0.73900002 -0.0077742799 1.7701558e-38 344 246
0.032392833 0.73900002 -0.0077742799 1.8531678e-38 345 246
0.033779722 0.741 -0.0077953199 1.8163268e-38 346 246
-0.024352046 0.73100001 -0.0089718066 1.6595922e-38 301 247
-0.02307036 0.73100001 -0.0089718066 1.7054377e-38 302 247
-0.021758866 0.73000002 -0.0089595336 1.6962181e-38 303 247
-0.020198401 0.72000003 -0.0088367993 1.7146197e-38 304 247
-0.018909698 0.71899998 -0.0088245263 1.7238393e-38 305 247
-0.017575413 0.71600002 -0.0087877065 1.7513535e-38 306 247
-0.016274439 0.71399999 -0.0087631596 1.7421339e-38 307 247
-0.015022559 0.71399999 -0.0087631596 1.8160719e-38 308 247
-0.013751393 0.713 -0.0087508867 1.8345469e-38 309 247
-0.012501267 0.713 -0.0087508867 1.8253286e-38 310 247
-0.01121958 0.71100003 -0.0087263398 1.8253286e-38 311 247
-0.0099589331 0.70999998 -0.0087140659 1.7886661e-38 312 247
-0.0087140659 0.70999998 -0.0087140659 1.7886661e-38 313 247
-0.0074691991 0.70999998 -0.0087140659 1.7794463e-38 314 247
-0.0062243328 0.70999998 -0.0087140659 1.7702267e-38 315 247
-0.0049794666 0.70999998 -0.0087140659 1.7609716e-38 316 247
-0.0037345996 0.70999998 -0.0087140659 1.7425324e-38 317 247
-0.0024897333 0.70999998 -0.0087140659 1.7149462e-38 318 247
-0.0012448666 0.70999998 -0.0087140659 1.7056908e-38 319 247
0 0.71100003 -0.0087263398 1.6598087e-38 320 247
0.00124662 0.71100003 -0.0087263398 1.6505892e-38 321 247
0.0024932399 0.71100003 -0.0087263398 1.6137832e-38 322 247
0.0037398601 0.71100003 -0.0087263398 1.6045635e-38 323 247
0.0049864799 0.71100003 -0.0087263398 1.5860891e-38 324 247
0.0062330998 0.71100003 -0.0087263398 1.5584305e-38 325 247
0.0074797203 0.71100003 -0.0087263398 1.5583952e-38 326 247
0.0087508867 0.713 -0.0087508867 1.5491757e-38 327 247
0.010001013 0.713 -0.0087508867 1.5400636e-38 328 247
0.011266919 0.71399999 -0.0087631596 1.5216245e-38 329 247
0.012518799 0.71399999 -0.0087631596 1.5032572e-38 330 247
0.013809253 0.71600002 -0.0087877065 1.4756345e-38 331 247
0.015085679 0.71700001 -0.0087999795 1.4661992e-38 332 247
0.016388407 0.71899998 -0.0088245263 1.4293569e-38 333 247
0.017649053 0.71899998 -0.0088245263 1.4017326e-38 334 247
0.018935999 0.72000003 -0.0088367993 1.392513e-38 335 247
0.020254506 0.722 -0.0088613462 1.410843e-38 336 247
0.021520413 0.722 -0.0088613462 1.4016234e-38 337 247
0.022786319 0.722 -0.0088613462 1.4015513e-38 338 247
0.024085538 0.72299999 -0.0088736191 1.3738924e-38 339 247
0.025353199 0.72299999 -0.0088736191 1.3921518e-38 340 247
0.026768139 0.727 -0.0089227129 1.3645291e-38 341 247
0.028158534 0.73000002 -0.0089595336 1.4014795e-38 342 247
0.029801406 0.73900002 -0.0090699932 1.5489566e-38 343 247
0.03118128 0.741 -0.0090945391 1.7701914e-38 344 247
0.032480497 0.741 -0.0090945391 1.8807903e-38 345 247
0.033779722 0.741 -0.0090945391 1.8071788e-38 346 247
-0.025423333 0.72500002 -0.010169334 1.6872879e-38 300 248
-0.024085538 0.72299999 -0.01014128 1.6688488e-38 301 248
-0.022723202 0.72000003 -0.010099201 1.6961831e-38 302 248
-0.021460801 0.72000003 -0.010099201 1.6961831e-38 303 248
-0.020170346 0.71899998 -0.010085173 1.7237323e-38 304 248
-0.018857099 0.71700001 -0.01005712 1.751355e-38 305 248
-0.017526319 0.71399999 -0.01001504 1.7605736e-38 306 248
-0.016274439 0.71399999 -0.01001504 1.8066355e-38 307 248
-0.015001519 0.713 -0.010001013 1.8620977e-38 308 248
-0.01371282 0.71100003 -0.0099729598 1.8713174e-38 309 248
-0.0124662 0.71100003 -0.0099729598 1.8162168e-38 310 248
-0.011203799 0.70999998 -0.0099589331 1.8162168e-38 311 248
-0.0099308798 0.708 -0.0099308798 1.8069974e-38 312 248
-0.008689519 0.708 -0.0099308798 1.8069974e-38 313 248
-0.0074481601 0.708 -0.0099308798 1.779411e-38 314 248
-0.0062067998 0.708 -0.0099308798 1.7701914e-38 315 248
-0.0049654399 0.708 -0.0099308798 1.742605e-38 316 248
-0.00372408 0.708 -0.0099308798 1.7333855e-38 317 248
-0.00248272 0.708 -0.0099308798 1.7057994e-38 318 248
-0.00124136 0.708 -0.0099308798 1.6873242e-38 319 248
0 0.70999998 -0.0099589331 1.650626e-38 320 248
0.0012448666 0.70999998 -0.0099589331 1.6413706e-38 321 248
0.0024897333 0.70999998 -0.0099589331 1.6046002e-38 322 248
0.0037345996 0.70999998 -0.0099589331 1.586197e-38 323 248
0.0049794666 0.70999998 -0.0099589331 1.5860538e-38 324 248
0.0062330998 0.71100003 -0.0099729598 1.5583952e-38 325 248
0.0074797203 0.71100003 -0.0099729598 1.540028e-38 326 248
0.0087263398 0.71100003 -0.0099729598 1.540028e-38 327 248
0.0099729598 0.71100003 -0.0099729598 1.5124768e-38 328 248
0.011251139 0.713 -0.010001013 1.5032572e-38 329 248
0.012518799 0.71399999 -0.01001504 1.4756345e-38 330 248
0.013809253 0.71600002 -0.010043093 1.4571595e-38 331 248
0.015085679 0.71700001 -0.01005712 1.4293923e-38 332 248
0.016388407 0.71899998 -0.010085173 1.4293923e-38 333 248
0.017649053 0.71899998 -0.010085173 1.4109877e-38 334 248
0.018935999 0.72000003 -0.010099201 1.3925486e-38 335 248
0.020254506 0.722 -0.010127253 1.4108077e-38 336 248
0.021520413 0.722 -0.010127253 1.383185e-38 337 248
0.02281788 0.72299999 -0.01014128 1.3922962e-38 338 248
0.024085538 0.72299999 -0.01014128 1.3830767e-38 339 248
0.025353199 0.72299999 -0.01014128 1.392152e-38 340 248
0.026768139 0.727 -0.010197386 1.3644935e-38 341 248
0.028158534 0.73000002 -0.010239467 1.4291026e-38 342 248
0.029882059 0.741 -0.010393759 1.5858352e-38 343 248
-0.025423333 0.72500002 -0.0114405 1.6781403e-38 300 249
-0.024085538 0.72299999 -0.01140894 1.6320424e-38 301 249
-0.022723202 0.72000003 -0.011361601 1.705438e-38 302 249
-0.021430992 0.71899998 -0.01134582 1.6961825e-38 303 249
-0.020114239 0.71700001 -0.01131426 1.7329516e-38 304 249
-0.0188308 0.71600002 -0.01129848 1.7329516e-38 305 249
-0.017526319 0.71399999 -0.011266919 1.7788692e-38 306 249
-0.016251646 0.713 -0.011251139 1.8434062e-38 307 249
-0.014959441 0.71100003 -0.01121958 1.8805369e-38 308 249
-0.013693533 0.70999998 -0.011203799 1.8713174e-38 309 249
-0.012448666 0.70999998 -0.011203799 1.8345835e-38 310 249
-0.01117224 0.708 -0.01117224 1.8345835e-38 311 249
-0.0099168532 0.70700002 -0.011156459 1.8253283e-38 312 249
-0.008677247 0.70700002 -0.011156459 1.8253283e-38 313 249
-0.0074376399 0.70700002 -0.011156459 1.7886305e-38 314 249
-0.0061980332 0.70700002 -0.011156459 1.7701914e-38 315 249
-0.0049584266 0.70700002 -0.011156459 1.7701558e-38 316 249
-0.0037188199 0.70700002 -0.011156459 1.7517167e-38 317 249
-0.00248272 0.708 -0.01117224 1.7057994e-38 318 249
-0.00124136 0.708 -0.01117224 1.6965797e-38 319 249
0 0.708 -0.01117224 1.668993e-38 320 249
0.00124136 0.708 -0.01117224 1.6505539e-38 321 249
0.0024897333 0.70999998 -0.011203799 1.586197e-38 322 249
0.0037345996 0.70999998 -0.011203799 1.586197e-38 323 249
0.0049794666 0.70999998 -0.011203799 1.5860535e-38 324 249
0.0062243328 0.70999998 -0.011203799 1.5768339e-38 325 249
0.0074691991 0.70999998 -0.011203799 1.5584308e-38 326 249
0.0087140659 0.70999998 -0.011203799 1.5492113e-38 327 249
0.0099729598 0.71100003 -0.01121958 1.5032572e-38 328 249
0.01121958 0.71100003 -0.01121958 1.4756345e-38 329 249
0.012501267 0.713 -0.011251139 1.4847462e-38 330 249
0.013809253 0.71600002 -0.01129848 1.4570877e-38 331 249
0.015085679 0.71700001 -0.01131426 1.4477951e-38 332 249
0.016388407 0.71899998 -0.01134582 1.4477951e-38 333 249
0.017649053 0.71899998 -0.01134582 1.4293187e-38 334 249
0.018935999 0.72000003 -0.011361601 1.3924764e-38 335 249
0.020254506 0.722 -0.01139316 1.3832566e-38 336 249
0.021520413 0.722 -0.01139316 1.374037e-38 337 249
0.02281788 0.72299999 -0.01140894 1.3922962e-38 338 249
0.024085538 0.72299999 -0.01140894 1.3738571e-38 339 249
0.025423333 0.72500002 -0.0114405 1.3830048e-38 340 249
0.026768139 0.727 -0.01147206 1.3553461e-38 341 249
0.028081384 0.72799999 -0.01148784 1.4658732e-38 342 249
0.029357811 0.72799999 -0.01148784 1.6594841e-38 343 249
-0.025423333 0.72500002 -0.012711667 1.6688485e-38 300 250
-0.024085538 0.72299999 -0.012676599 1.6319343e-38 301 250
-0.022723202 0.72000003 -0.012624 1.705438e-38 302 250
-0.021371379 0.71700001 -0.0125714 1.705438e-38 303 250
-0.020086186 0.71600002 -0.012553867 1.7330238e-38 304 250
-0.0188308 0.71600002 -0.012553867 1.7330238e-38 305 250
-0.017526319 0.71399999 -0.012518799 1.7881248e-38 306 250
-0.016251646 0.713 -0.012501267 1.8526617e-38 307 250
-0.014938398 0.70999998 -0.012448666 1.8806088e-38 308 250
-0.013654959 0.708 -0.0124136 1.8621697e-38 309 250
-0.0124136 0.708 -0.0124136 1.8438034e-38 310 250
-0.011156459 0.70700002 -0.012396066 1.8438034e-38 311 250
-0.0099028256 0.70599997 -0.012378532 1.8254366e-38 312 250
-0.0086649731 0.70599997 -0.012378532 1.8162171e-38 313 250
-0.0074271196 0.70599997 -0.012378532 1.8069618e-38 314 250
-0.0061892662 0.70599997 -0.012378532 1.7885226e-38 315 250
-0.0049584266 0.70700002 -0.012396066 1.742605e-38 316 250
-0.0037188199 0.70700002 -0.012396066 1.7333855e-38 317 250
-0.0024792133 0.70700002 -0.012396066 1.7242025e-38 318 250
-0.0012396066 0.70700002 -0.012396066 1.6965797e-38 319 250
0 0.708 -0.0124136 1.6597737e-38 320 250
0.00124136 0.708 -0.0124136 1.6412987e-38 321 250
0.00248272 0.708 -0.0124136 1.6045285e-38 322 250
0.00372408 0.708 -0.0124136 1.5952731e-38 323 250
0.0049794666 0.70999998 -0.012448666 1.567722e-38 324 250
0.0062243328 0.70999998 -0.012448666 1.5585024e-38 325 250
0.0074691991 0.70999998 -0.012448666 1.5768693e-38 326 250
0.0087140659 0.70999998 -0.012448666 1.5492107e-38 327 250
0.0099589331 0.70999998 -0.012448666 1.5031851e-38 328 250
0.01121958 0.71100003 -0.0124662 1.4939655e-38 329 250
0.0124662 0.71100003 -0.0124662 1.4663791e-38 330 250
0.01377068 0.71399999 -0.012518799 1.44794e-38 331 250
0.01506464 0.71600002 -0.012553867 1.4570147e-38 332 250
0.016342819 0.71700001 -0.0125714 1.4477951e-38 333 250
0.017649053 0.71899998 -0.012606465 1.4293543e-38 334 250
0.018935999 0.72000003 -0.012624 1.4201347e-38 335 250
0.020254506 0.722 -0.012659066 1.3925118e-38 336 250
0.021550218 0.72299999 -0.012676599 1.3740368e-38 337 250
0.02281788 0.72299999 -0.012676599 1.3739647e-38 338 250
0.024085538 0.72299999 -0.012676599 1.3739647e-38 339 250
0.025353199 0.72299999 -0.012676599 1.383112e-38 340 250
0.026768139 0.727 -0.012746733 1.3277946e-38 341 250
0.028081384 0.72799999 -0.012764266 1.4843124e-38 342 250
0.029357811 0.72799999 -0.012764266 1.7332406e-38 343 250
-0.025353199 0.72299999 -0.01394426 1.6688485e-38 300 251
-0.0239856 0.72000003 -0.0138864 1.6319343e-38 301 251
-0.022691639 0.71899998 -0.013867113 1.7237689e-38 302 251
-0.021371379 0.71700001 -0.013828539 1.7329886e-38 303 251
-0.020086186 0.71600002 -0.013809253 1.7330235e-38 304 251
-0.018778199 0.71399999 -0.01377068 1.7422791e-38 305 251
-0.017501773 0.713 -0.013751393 1.7974163e-38 306 251
-0.016183265 0.70999998 -0.013693533 1.8711728e-38 307 251
-0.01489632 0.708 -0.013654959 1.8806088e-38 308 251
-0.013635674 0.70700002 -0.013635674 1.8621697e-38 309 251
-0.012396066 0.70700002 -0.013635674 1.853023e-38 310 251
-0.011140679 0.70599997 -0.013616386 1.853023e-38 311 251
-0.0099028256 0.70599997 -0.013616386 1.8254369e-38 312 251
-0.0086649731 0.70599997 -0.013616386 1.8069618e-38 313 251
-0.0074060797 0.704 -0.013577812 1.7334571e-38 314 251
-0.0061717331 0.704 -0.013577812 1.7426766e-38 315 251
-0.0049514128 0.70599997 -0.013616386 1.7334573e-38 316 251
-0.0037135598 0.70599997 -0.013616386 1.7242378e-38 317 251
-0.0024757064 0.70599997 -0.013616386 1.7057991e-38 318 251
-0.0012396066 0.70700002 -0.013635674 1.6873598e-38 319 251
0 0.70700002 -0.013635674 1.6506258e-38 320 251
0.0012396066 0.70700002 -0.013635674 1.6137476e-38 321 251
0.00248272 0.708 -0.013654959 1.586197e-38 322 251
0.00372408 0.708 -0.013654959 1.5769774e-38 323 251
0.0049654399 0.708 -0.013654959 1.567722e-38 324 251
0.0062067998 0.708 -0.013654959 1.5585024e-38 325 251
0.0074691991 0.70999998 -0.013693533 1.5216598e-38 326 251
0.0087140659 0.70999998 -0.013693533 1.5124402e-38 327 251
0.0099589331 0.70999998 -0.013693533 1.475634e-38 328 251
0.01121958 0.71100003 -0.01371282 1.475634e-38 329 251
0.0124662 0.71100003 -0.01371282 1.457267e-38 330 251
0.01377068 0.71399999 -0.01377068 1.4388639e-38 331 251
0.01506464 0.71600002 -0.013809253 1.4296436e-38 332 251
0.016342819 0.71700001 -0.013828539 1.401985e-38 333 251
0.017649053 0.71899998 -0.013867113 1.4109875e-38 334 251
0.018935999 0.72000003 -0.0138864 1.4017679e-38 335 251
0.020254506 0.722 -0.013924973 1.3925118e-38 336 251
0.021520413 0.722 -0.013924973 1.3740368e-38 337 251
0.02281788 0.72299999 -0.01394426 1.3739647e-38 338 251
0.024085538 0.72299999 -0.01394426 1.3739647e-38 339 251
0.025353199 0.72299999 -0.01394426 1.3830764e-38 340 251
0.026768139 0.727 -0.014021406 1.3277949e-38 341 251
0.028081384 0.72799999 -0.014040692 1.4843844e-38 342 251
0.029357811 0.72799999 -0.014040692 1.7702267e-38 343 251
-0.026694499 0.72500002 -0.015254001 1.7886675e-38 299 252
-0.025248 0.72000003 -0.0151488 1.7239854e-38 300 252
-0.023952285 0.71899998 -0.01512776 1.6502289e-38 301 252
-0.02262852 0.71700001 -0.015085679 1.7238045e-38 302 252
-0.021341572 0.71600002 -0.01506464 1.7238045e-38 303 252
-0.020030079 0.71399999 -0.015022559 1.7513903e-38 304 252
-0.018751899 0.713 -0.015001519 1.76061e-38 305 252
-0.017428132 0.70999998 -0.014938398 1.8343302e-38 306 252
-0.01613768 0.708 -0.01489632 1.8896475e-38 307 252
-0.01487528 0.70700002 -0.01487528 1.8713177e-38 308 252
-0.013616386 0.70599997 -0.014854239 1.8713177e-38 309 252
-0.012378532 0.70599997 -0.014854239 1.853023e-38 310 252
-0.011109119 0.704 -0.014812159 1.853023e-38 311 252
-0.0098747732 0.704 -0.014812159 1.8438032e-38 312 252
-0.0086404262 0.704 -0.014812159 1.8253639e-38 313 252
-0.0074060797 0.704 -0.014812159 1.7518596e-38 314 252
-0.0061717331 0.704 -0.014812159 1.7518596e-38 315 252
-0.0049373866 0.704 -0.014812159 1.7518602e-38 316 252
-0.0037030398 0.704 -0.014812159 1.7333852e-38 317 252
-0.0024686933 0.704 -0.014812159 1.7241659e-38 318 252
-0.0012378532 0.70599997 -0.014854239 1.7056908e-38 319 252
0 0.70599997 -0.014854239 1.6505536e-38 320 252
0.0012378532 0.70599997 -0.014854239 1.641334e-38 321 252
0.0024792133 0.70700002 -0.01487528 1.6045279e-38 322 252
0.00372408 0.708 -0.01489632 1.5953084e-38 323 252
0.0049654399 0.708 -0.01489632 1.5768337e-38 324 252
0.0062067998 0.708 -0.01489632 1.549211e-38 325 252
0.0074481601 0.708 -0.01489632 1.5215522e-38 326 252
0.0087140659 0.70999998 -0.014938398 1.5122967e-38 327 252
0.0099589331 0.70999998 -0.014938398 1.4939655e-38 328 252
0.01121958 0.71100003 -0.014959441 1.4939655e-38 329 252
0.012501267 0.713 -0.015001519 1.4664866e-38 330 252
0.01377068 0.71399999 -0.015022559 1.4664866e-38 331 252
0.01506464 0.71600002 -0.01506464 1.4571584e-38 332 252
0.016320027 0.71600002 -0.01506464 1.4202443e-38 333 252
0.017599959 0.71700001 -0.015085679 1.4293187e-38 334 252
0.018909698 0.71899998 -0.01512776 1.4200991e-38 335 252
0.020254506 0.722 -0.015190879 1.410843e-38 336 252
0.021520413 0.722 -0.015190879 1.3832203e-38 337 252
0.02281788 0.72299999 -0.015211919 1.3832203e-38 338 252
0.024085538 0.72299999 -0.015211919 1.3832203e-38 339 252
0.025353199 0.72299999 -0.015211919 1.3740003e-38 340 252
0.026620859 0.72299999 -0.015211919 1.3370862e-38 341 252
0.028158534 0.73000002 -0.0153592 1.5395576e-38 342 252
-0.026694499 0.72500002 -0.016525166 1.8439129e-38 299 253
-0.025248 0.72000003 -0.0164112 1.7700113e-38 300 253
-0.023952285 0.71899998 -0.016388407 1.6593766e-38 301 253
-0.02262852 0.71700001 -0.016342819 1.7145491e-38 302 253
-0.021252153 0.713 -0.016251646 1.7330242e-38 303 253
-0.01994592 0.71100003 -0.01620606 1.7698296e-38 304 253
-0.018672999 0.70999998 -0.016183265 1.7883046e-38 305 253
-0.017379038 0.708 -0.01613768 1.8528415e-38 306 253
-0.016114887 0.70700002 -0.016114887 1.8620611e-38 307 253
-0.014854239 0.70599997 -0.016092092 1.8620979e-38 308 253
-0.013577812 0.704 -0.016046507 1.8713177e-38 309 253
-0.012343466 0.704 -0.016046507 1.853023e-38 310 253
-0.011109119 0.704 -0.016046507 1.853023e-38 311 253
-0.0098747732 0.704 -0.016046507 1.8346918e-38 312 253
-0.0086404262 0.704 -0.016046507 1.8162168e-38 313 253
-0.0073955595 0.70300001 -0.016023712 1.7795182e-38 314 253
-0.0061629666 0.70300001 -0.016023712 1.7702986e-38 315 253
-0.0049373866 0.704 -0.016046507 1.7518602e-38 316 253
-0.0037030398 0.704 -0.016046507 1.7333852e-38 317 253
-0.0024686933 0.704 -0.016046507 1.7057991e-38 318 253
-0.0012343467 0.704 -0.016046507 1.6873598e-38 319 253
0 0.704 -0.016046507 1.6597734e-38 320 253
0.0012343467 0.704 -0.016046507 1.6321147e-38 321 253
0.0024757064 0.70599997 -0.016092092 1.586197e-38 322 253
0.0037188199 0.70700002 -0.016114887 1.567722e-38 323 253
0.0049654399 0.708 -0.01613768 1.5492476e-38 324 253
0.0062067998 0.708 -0.01613768 1.5216249e-38 325 253
0.0074481601 0.708 -0.01613768 1.5214447e-38 326 253
0.008689519 0.708 -0.01613768 1.5214447e-38 327 253
0.0099589331 0.70999998 -0.016183265 1.4939292e-38 328 253
0.01121958 0.71100003 -0.01620606 1.4939292e-38 329 253
0.0124662 0.71100003 -0.01620606 1.4571949e-38 330 253
0.01377068 0.71399999 -0.016274439 1.4479752e-38 331 253
0.01506464 0.71600002 -0.016320027 1.4569784e-38 332 253
0.016320027 0.71600002 -0.016320027 1.4385034e-38 333 253
0.017599959 0.71700001 -0.016342819 1.4202074e-38 334 253
0.018909698 0.71899998 -0.016388407 1.4017682e-38 335 253
0.020198401 0.72000003 -0.0164112 1.3924767e-38 336 253
0.021550218 0.72299999 -0.01647958 1.3832213e-38 337 253
0.02281788 0.72299999 -0.01647958 1.3832569e-38 338 253
0.024085538 0.72299999 -0.01647958 1.3740373e-38 339 253
0.025423333 0.72500002 -0.016525166 1.3647452e-38 340 253
0.026804959 0.72799999 -0.016593546 1.3739647e-38 341 253
0.028158534 0.73000002 -0.016639132 1.6317178e-38 342 253
0.029438468 0.73000002 -0.016639132 1.8714624e-38 343 253
-0.0251428 0.71700001 -0.017599959 1.8251848e-38 300 254
-0.02388566 0.71700001 -0.017599959 1.7329892e-38 301 254
-0.02262852 0.71700001 -0.017599959 1.7145847e-38 302 254
-0.021252153 0.713 -0.017501773 1.7514631e-38 303 254
-0.019917866 0.70999998 -0.017428132 1.8066358e-38 304 254
-0.018594101 0.70700002 -0.017354494 1.8250749e-38 305 254
-0.017354494 0.70700002 -0.017354494 1.8436583e-38 306 254
-0.016092092 0.70599997 -0.017329946 1.8528778e-38 307 254
-0.014812159 0.704 -0.017280852 1.86217e-38 308 254
-0.013577812 0.704 -0.017280852 1.8713895e-38 309 254
-0.012325933 0.70300001 -0.017256306 1.8805738e-38 310 254
-0.01109334 0.70300001 -0.017256306 1.8805738e-38 311 254
-0.0098607466 0.70300001 -0.017256306 1.853023e-38 312 254
-0.0086281532 0.70300001 -0.017256306 1.8438034e-38 313 254
-0.0073955595 0.70300001 -0.017256306 1.8162168e-38 314 254
-0.0061629666 0.70300001 -0.017256306 1.8069971e-38 315 254
-0.0049303733 0.70300001 -0.017256306 1.7794107e-38 316 254
-0.0036977797 0.70300001 -0.017256306 1.7609716e-38 317 254
-0.0024651866 0.70300001 -0.017256306 1.7424968e-38 318 254
-0.0012343467 0.704 -0.017280852 1.714874e-38 319 254
0 0.704 -0.017280852 1.6505892e-38 320 254
0.0012343467 0.704 -0.017280852 1.6413696e-38 321 254
0.0024686933 0.704 -0.017280852 1.5769772e-38 322 254
0.0037135598 0.70599997 -0.017329946 1.5677576e-38 323 254
0.0049584266 0.70700002 -0.017354494 1.5492829e-38 324 254
0.0062067998 0.708 -0.017379038 1.5124405e-38 325 254
0.0074481601 0.708 -0.017379038 1.5306998e-38 326 254
0.008689519 0.708 -0.017379038 1.5122248e-38 327 254
0.0099308798 0.708 -0.017379038 1.4846738e-38 328 254
0.011203799 0.70999998 -0.017428132 1.4846738e-38 329 254
0.0124662 0.71100003 -0.01745268 1.4662345e-38 330 254
0.013751393 0.713 -0.017501773 1.4477954e-38 331 254
0.015022559 0.71399999 -0.017526319 1.4569784e-38 332 254
0.016320027 0.71600002 -0.017575413 1.4477588e-38 333 254
0.017599959 0.71700001 -0.017599959 1.4109877e-38 334 254
0.018909698 0.71899998 -0.017649053 1.3925486e-38 335 254
0.020198401 0.72000003 -0.017673599 1.4108077e-38 336 254
0.021520413 0.722 -0.017722692 1.4108077e-38 337 254
0.02281788 0.72299999 -0.017747238 1.4015881e-38 338 254
0.024085538 0.72299999 -0.017747238 1.383185e-38 339 254
0.025493465 0.727 -0.017845426 1.3648173e-38 340 254
0.026804959 0.72799999 -0.017869972 1.4662685e-38 341 254
0.028158534 0.73000002 -0.017919067 1.7054744e-38 342 254
0.029438468 0.73000002 -0.017919067 1.8529874e-38 343 254
-0.023652466 0.70999998 -0.018672999 1.7513927e-38 301 255
-0.019917866 0.70999998 -0.018672999 1.8065636e-38 304 255
-0.018515198 0.704 -0.018515198 1.8434418e-38 305 255
-0.017280852 0.704 -0.018515198 1.8435864e-38 306 255
-0.016023712 0.70300001 -0.018488899 1.8804645e-38 307 255
-0.014791119 0.70300001 -0.018488899 1.86217e-38 308 255
-0.013558527 0.70300001 -0.018488899 1.8806091e-38 309 255
-0.012290866 0.70099998 -0.018436298 1.8623142e-38 310 255
-0.011061779 0.70099998 -0.018436298 1.8623142e-38 311 255
-0.0098326923 0.70099998 -0.018436298 1.8346918e-38 312 255
-0.0086036054 0.70099998 -0.018436298 1.8254363e-38 313 255
-0.0073745195 0.70099998 -0.018436298 1.8162889e-38 314 255
-0.0061629666 0.70300001 -0.018488899 1.7886661e-38 315 255
-0.0049303733 0.70300001 -0.018488899 1.7702633e-38 316 255
-0.0036977797 0.70300001 -0.018488899 1.7518602e-38 317 255
-0.0024651866 0.70300001 -0.018488899 1.7242378e-38 318 255
-0.0012325933 0.70300001 -0.018488899 1.67814e-38 319 255
0 0.704 -0.018515198 1.623075e-38 320 255
0.0012343467 0.704 -0.018515198 1.6046e-38 321 255
0.0024686933 0.704 -0.018515198 1.5677939e-38 322 255
0.0037030398 0.704 -0.018515198 1.5585743e-38 323 255
0.0049514128 0.70599997 -0.018567799 1.5400636e-38 324 255
0.0061892662 0.70599997 -0.018567799 1.5216245e-38 325 255
0.0074376399 0.70700002 -0.018594101 1.4939658e-38 326 255
0.008677247 0.70700002 -0.018594101 1.4847462e-38 327 255
0.0099308798 0.708 -0.0186204 1.4755261e-38 328 255
0.011203799 0.70999998 -0.018672999 1.4571228e-38 329 255
0.012448666 0.70999998 -0.018672999 1.4661979e-38 330 255
0.013751393 0.713 -0.018751899 1.4569784e-38 331 255
0.015022559 0.71399999 -0.018778199 1.4569784e-38 332 255
0.016274439 0.71399999 -0.018778199 1.4385034e-38 333 255
0.017575413 0.71600002 -0.0188308 1.4202077e-38 334 255
0.018857099 0.71700001 -0.018857099 1.4017326e-38 335 255
0.020198401 0.72000003 -0.018935999 1.4016963e-38 336 255
0.021520413 0.722 -0.0189886 1.3924767e-38 337 255
0.02281788 0.72299999 -0.019014901 1.4015881e-38 338 255
0.024085538 0.72299999 -0.019014901 1.3647457e-38 339 255
0.025493465 0.727 -0.019120099 1.3922599e-38 340 255
0.026804959 0.72799999 -0.0191464 1.6134936e-38 341 255
0.028158534 0.73000002 -0.019199001 1.7514649e-38 342 255
0.029438468 0.73000002 -0.019199001 1.8344409e-38 343 255
-0.019749546 0.704 -0.019749546 1.8342222e-38 304 256
-0.018488899 0.70300001 -0.019721493 1.8526615e-38 305 256
-0.017256306 0.70300001 -0.019721493 1.8436939e-38 306 256
-0.015978126 0.70099998 -0.019665385 1.8713527e-38 307 256
-0.014749039 0.70099998 -0.019665385 1.8347268e-38 308 256
-0.013462093 0.69800001 -0.019581227 1.8531299e-38 309 256
-0.012238266 0.69800001 -0.019581227 1.8439829e-38 310 256
-0.01101444 0.69800001 -0.019581227 1.8255438e-38 311 256
-0.0097906133 0.69800001 -0.019581227 1.8346918e-38 312 256
-0.0085667865 0.69800001 -0.019581227 1.8254363e-38 313 256
-0.0073639993 0.69999999 -0.019637333 1.8162168e-38 314 256
-0.0061366665 0.69999999 -0.019637333 1.8162168e-38 315 256
-0.0049163462 0.70099998 -0.019665385 1.7794107e-38 316 256
-0.0036872597 0.70099998 -0.019665385 1.7609716e-38 317 256
-0.0024651866 0.70300001 -0.019721493 1.7058347e-38 318 256
-0.0012325933 0.70300001 -0.019721493 1.6873595e-38 319 256
0 0.70300001 -0.019721493 1.6138551e-38 320 256
0.0012325933 0.70300001 -0.019721493 1.6046356e-38 321 256
0.0024686933 0.704 -0.019749546 1.5678295e-38 322 256
0.0037030398 0.704 -0.019749546 1.5401709e-38 323 256
0.0049373866 0.704 -0.019749546 1.5400636e-38 324 256
0.0061717331 0.704 -0.019749546 1.5216245e-38 325 256
0.0074271196 0.70599997 -0.019805651 1.4939658e-38 326 256
0.008677247 0.70700002 -0.019833706 1.4847462e-38 327 256
0.0099308798 0.708 -0.01986176 1.4571228e-38 328 256
0.011203799 0.70999998 -0.019917866 1.4386837e-38 329 256
0.012448666 0.70999998 -0.019917866 1.4478307e-38 330 256
0.013751393 0.713 -0.020002026 1.4293917e-38 331 256
0.015022559 0.71399999 -0.020030079 1.4660897e-38 332 256
0.016274439 0.71399999 -0.020030079 1.4660897e-38 333 256
0.017575413 0.71600002 -0.020086186 1.4110242e-38 334 256
0.018857099 0.71700001 -0.020114239 1.3926209e-38 335 256
0.020170346 0.71899998 -0.020170346 1.4016963e-38 336 256
0.021520413 0.722 -0.020254506 1.3924767e-38 337 256
0.02281788 0.72299999 -0.020282559 1.4107714e-38 338 256
0.024085538 0.72299999 -0.020282559 1.3738571e-38 339 256
0.025493465 0.727 -0.020394772 1.4566534e-38 340 256
0.026804959 0.72799999 -0.020422826 1.696398e-38 341 256
0.028158534 0.73000002 -0.020478934 1.7516451e-38 342 256
-0.019665385 0.70099998 -0.020894472 1.83433e-38 304 257
-0.018436298 0.70099998 -0.020894472 1.8619526e-38 305 257
-0.017207211 0.70099998 -0.020894472 1.8529131e-38 306 257
-0.015909746 0.69800001 -0.020805053 1.8713524e-38 307 257
-0.01468592 0.69800001 -0.020805053 1.8623495e-38 308 257
-0.013462093 0.69800001 -0.020805053 1.8623495e-38 309 257
-0.012238266 0.69800001 -0.020805053 1.8346912e-38 310 257
-0.01101444 0.69800001 -0.020805053 1.8254716e-38 311 257
-0.0097765867 0.69700003 -0.020775247 1.8254719e-38 312 257
-0.0085545136 0.69700003 -0.020775247 1.8162522e-38 313 257
-0.0073429602 0.69800001 -0.020805053 1.8069974e-38 314 257
-0.006119133 0.69800001 -0.020805053 1.7977778e-38 315 257
-0.0049093333 0.69999999 -0.020864666 1.7518246e-38 316 257
-0.0036819996 0.69999999 -0.020864666 1.7333855e-38 317 257
-0.0024581731 0.70099998 -0.020894472 1.6873961e-38 318 257
-0.0012290865 0.70099998 -0.020894472 1.6505539e-38 319 257
0 0.70300001 -0.020954086 1.6137476e-38 320 257
0.0012325933 0.70300001 -0.020954086 1.6045279e-38 321 257
0.0024651866 0.70300001 -0.020954086 1.567722e-38 322 257
0.0036977797 0.70300001 -0.020954086 1.5585024e-38 323 257
0.0049373866 0.704 -0.020983893 1.5400633e-38 324 257
0.0061717331 0.704 -0.020983893 1.5124405e-38 325 257
0.0074060797 0.704 -0.020983893 1.5031851e-38 326 257
0.0086649731 0.70599997 -0.021043506 1.4847459e-38 327 257
0.0099308798 0.708 -0.021103119 1.4662701e-38 328 257
0.011203799 0.70999998 -0.021162732 1.429392e-38 329 257
0.0124662 0.71100003 -0.021192541 1.4294273e-38 330 257
0.013751393 0.713 -0.021252153 1.4294273e-38 331 257
0.015022559 0.71399999 -0.021281958 1.4570137e-38 332 257
0.016274439 0.71399999 -0.021281958 1.4570137e-38 333 257
0.017575413 0.71600002 -0.021341572 1.4202074e-38 334 257
0.018857099 0.71700001 -0.021371379 1.4017682e-38 335 257
0.020170346 0.71899998 -0.021430992 1.3925486e-38 336 257
0.021520413 0.722 -0.021520413 1.3832932e-38 337 257
0.02281788 0.72299999 -0.021550218 1.4015878e-38 338 257
0.024085538 0.72299999 -0.021550218 1.373965e-38 339 257
0.025528532 0.72799999 -0.021699252 1.5303749e-38 340 257
0.026878599 0.73000002 -0.021758866 1.7516804e-38 341 257
0.028158534 0.73000002 -0.021758866 1.7241672e-38 342 257
0.029478792 0.73100001 -0.021788673 1.705764e-38 343 257
-0.019553173 0.69700003 -0.02199732 1.8344374e-38 304 258
-0.018331099 0.69700003 -0.02199732 1.8528766e-38 305 258
-0.017109027 0.69700003 -0.02199732 1.8345819e-38 306 258
-0.015886955 0.69700003 -0.02199732 1.8622047e-38 307 258
-0.01466488 0.69700003 -0.02199732 1.8530578e-38 308 258
-0.013442807 0.69700003 -0.02199732 1.8530578e-38 309 258
-0.012220734 0.69700003 -0.02199732 1.8346188e-38 310 258
-0.010982879 0.69599998 -0.021965759 1.8069602e-38 311 258
-0.0097625591 0.69599998 -0.021965759 1.7977772e-38 312 258
-0.0085422397 0.69599998 -0.021965759 1.7885577e-38 313 258
-0.0073219193 0.69599998 -0.021965759 1.7608994e-38 314 258
-0.0061103669 0.69700003 -0.02199732 1.7516798e-38 315 258
-0.0048953067 0.69800001 -0.02202888 1.6965791e-38 316 258
-0.0036714801 0.69800001 -0.02202888 1.6965791e-38 317 258
-0.0024546667 0.69999999 -0.022091998 1.6597734e-38 318 258
-0.0012290865 0.70099998 -0.022123558 1.6505539e-38 319 258
0 0.70099998 -0.022123558 1.6138198e-38 320 258
0.0012325933 0.70300001 -0.02218668 1.5769774e-38 321 258
0.0024651866 0.70300001 -0.02218668 1.5585024e-38 322 258
0.0036977797 0.70300001 -0.02218668 1.5492829e-38 323 258
0.0049303733 0.70300001 -0.02218668 1.5400633e-38 324 258
0.0061717331 0.704 -0.022218239 1.5124405e-38 325 258
0.0074060797 0.704 -0.022218239 1.494073e-38 326 258
0.0086404262 0.704 -0.022218239 1.475634e-38 327 258
0.0099308798 0.708 -0.022344479 1.4662701e-38 328 258
0.01117224 0.708 -0.022344479 1.4477951e-38 329 258
0.012448666 0.70999998 -0.022407599 1.420244e-38 330 258
0.013751393 0.713 -0.022502279 1.4294636e-38 331 258
0.015022559 0.71399999 -0.022533838 1.4662698e-38 332 258
0.016274439 0.71399999 -0.022533838 1.4478307e-38 333 258
0.017575413 0.71600002 -0.022596961 1.4385034e-38 334 258
0.018857099 0.71700001 -0.02262852 1.401661e-38 335 258
0.020170346 0.71899998 -0.022691639 1.3924411e-38 336 258
0.021520413 0.722 -0.022786319 1.3832216e-38 337 258
0.02281788 0.72299999 -0.02281788 1.4107358e-38 338 258
0.024085538 0.72299999 -0.02281788 1.4752727e-38 339 258
0.025493465 0.727 -0.022944121 1.5948402e-38 340 258
0.026878599 0.73000002 -0.023038799 1.7607563e-38 341 258
0.028197108 0.73100001 -0.02307036 1.6873248e-38 342 258
0.029478792 0.73100001 -0.02307036 1.6873248e-38 343 258
-0.021902639 0.69400001 -0.023119451 1.797416e-38 302 259
-0.020685827 0.69400001 -0.023119451 1.8158551e-38 303 259
-0.019525118 0.69599998 -0.023186078 1.8160709e-38 304 259
-0.018304799 0.69599998 -0.023186078 1.8529131e-38 305 259
-0.017084479 0.69599998 -0.023186078 1.8345466e-38 306 259
-0.015864158 0.69599998 -0.023186078 1.8437662e-38 307 259
-0.014643839 0.69599998 -0.023186078 1.8345113e-38 308 259
-0.013423519 0.69599998 -0.023186078 1.8345113e-38 309 259
-0.0122032 0.69599998 -0.023186078 1.7977053e-38 310 259
-0.01095132 0.69400001 -0.023119451 1.7792662e-38 311 259
-0.0097345067 0.69400001 -0.023119451 1.751752e-38 312 259
-0.0085176928 0.69400001 -0.023119451 1.7425324e-38 313 259
-0.0073008798 0.69400001 -0.023119451 1.7240939e-38 314 259
-0.0061015999 0.69599998 -0.023186078 1.7056189e-38 315 259
-0.0048882933 0.69700003 -0.023219392 1.7056913e-38 316 259
-0.00366622 0.69700003 -0.023219392 1.6872882e-38 317 259
-0.0024476533 0.69800001 -0.023252707 1.6505539e-38 318 259
-0.0012273333 0.69999999 -0.023319334 1.6505539e-38 319 259
0 0.70099998 -0.023352645 1.6045279e-38 320 259
0.0012290865 0.70099998 -0.023352645 1.5953084e-38 321 259
0.0024581731 0.70099998 -0.023352645 1.5860888e-38 322 259
0.0036872597 0.70099998 -0.023352645 1.5584661e-38 323 259
0.0049303733 0.70300001 -0.023419274 1.5492107e-38 324 259
0.0061629666 0.70300001 -0.023419274 1.539991e-38 325 259
0.0073955595 0.70300001 -0.023419274 1.5124755e-38 326 259
0.0086404262 0.704 -0.023452586 1.4940005e-38 327 259
0.0099028256 0.70599997 -0.023519212 1.5030036e-38 328 259
0.01117224 0.708 -0.023585839 1.493784e-38 329 259
0.012448666 0.70999998 -0.023652466 1.4570856e-38 330 259
0.01371282 0.71100003 -0.023685781 1.4570856e-38 331 259
0.015022559 0.71399999 -0.02378572 1.4295711e-38 332 259
0.016274439 0.71399999 -0.02378572 1.4111679e-38 333 259
0.017575413 0.71600002 -0.023852346 1.4384669e-38 334 259
0.018857099 0.71700001 -0.02388566 1.4200278e-38 335 259
0.020170346 0.71899998 -0.023952285 1.4108077e-38 336 259
0.021460801 0.72000003 -0.0239856 1.383185e-38 337 259
0.02281788 0.72299999 -0.024085538 1.3831494e-38 338 259
0.024085538 0.72299999 -0.024085538 1.4845645e-38 339 259
0.025423333 0.72500002 -0.024152167 1.6133882e-38 340 259
0.026804959 0.72799999 -0.024252106 1.6871447e-38 341 259
0.028158534 0.73000002 -0.024318734 1.6779977e-38 342 259
0.029438468 0.73000002 -0.024318734 1.6872173e-38 343 259
-0.023119451 0.69400001 -0.024336265 1.6871429e-38 301 260
-0.021871079 0.69300002 -0.024301201 1.8065636e-38 302 260
-0.020656019 0.69300002 -0.024301201 1.8342222e-38 303 260
-0.019469013 0.69400001 -0.024336265 1.815927e-38 304 260
-0.0182522 0.69400001 -0.024336265 1.8436217e-38 305 260
-0.017035386 0.69400001 -0.024336265 1.8528059e-38 306 260
-0.015864158 0.69599998 -0.0244064 1.8528059e-38 307 260
-0.014643839 0.69599998 -0.0244064 1.8253273e-38 308 260
-0.013423519 0.69599998 -0.0244064 1.7792295e-38 309 260
-0.0122032 0.69599998 -0.0244064 1.7699746e-38 310 260
-0.01095132 0.69400001 -0.024336265 1.7699746e-38 311 260
-0.0097204801 0.69300002 -0.024301201 1.7424604e-38 312 260
-0.0085054198 0.69300002 -0.024301201 1.7239854e-38 313 260
-0.0072903596 0.69300002 -0.024301201 1.7056545e-38 314 260
-0.0060753003 0.69300002 -0.024301201 1.7056545e-38 315 260
-0.0048672534 0.69400001 -0.024336265 1.67814e-38 316 260
-0.0036609597 0.69599998 -0.0244064 1.67814e-38 317 260
-0.0024441467 0.69700003 -0.024441468 1.6505536e-38 318 260
-0.0012238267 0.69800001 -0.024476532 1.641334e-38 319 260
0 0.69800001 -0.024476532 1.6046e-38 320 260
0.0012290865 0.70099998 -0.024581732 1.5769772e-38 321 260
0.0024581731 0.70099998 -0.024581732 1.567722e-38 322 260
0.0036872597 0.70099998 -0.024581732 1.5585024e-38 323 260
0.0049303733 0.70300001 -0.024651866 1.530916e-38 324 260
0.0061629666 0.70300001 -0.024651866 1.5216965e-38 325 260
0.0073955595 0.70300001 -0.024651866 1.5216598e-38 326 260
0.0086404262 0.704 -0.024686933 1.5124402e-38 327 260
0.0099028256 0.70599997 -0.024757065 1.5398465e-38 328 260
0.01117224 0.708 -0.024827199 1.5122238e-38 329 260
0.012448666 0.70999998 -0.024897331 1.4296436e-38 330 260
0.01371282 0.71100003 -0.024932399 1.4204241e-38 331 260
0.015022559 0.71399999 -0.025037598 1.4112761e-38 332 260
0.016274439 0.71399999 -0.025037598 1.3744339e-38 333 260
0.017575413 0.71600002 -0.025107734 1.4293192e-38 334 260
0.018857099 0.71700001 -0.0251428 1.4016607e-38 335 260
0.020170346 0.71899998 -0.025212931 1.3924764e-38 336 260
0.021460801 0.72000003 -0.025248 1.3832569e-38 337 260
0.02281788 0.72299999 -0.025353199 1.3924414e-38 338 260
0.024085538 0.72299999 -0.025353199 1.484601e-38 339 260
0.025423333 0.72500002 -0.025423333 1.5673626e-38 340 260
0.026804959 0.72799999 -0.025528532 1.6318995e-38 341 260
0.028081384 0.72799999 -0.025528532 1.6687782e-38 342 260
-0.024301201 0.69300002 -0.02551626 1.7700099e-38 300 261
-0.02308614 0.69300002 -0.02551626 1.7423154e-38 301 261
-0.021807959 0.69099998 -0.025442619 1.8066711e-38 302 261
-0.020596405 0.69099998 -0.025442619 1.8158907e-38 303 261
-0.01944096 0.69300002 -0.02551626 1.825147e-38 304 261
-0.018225901 0.69300002 -0.02551626 1.8343665e-38 305 261
-0.01701084 0.69300002 -0.02551626 1.8436229e-38 306 261
-0.015818574 0.69400001 -0.025553079 1.8436229e-38 307 261
-0.01460176 0.69400001 -0.025553079 1.7977053e-38 308 261
-0.013384946 0.69400001 -0.025553079 1.7792662e-38 309 261
-0.012168133 0.69400001 -0.025553079 1.7424601e-38 310 261
-0.010935539 0.69300002 -0.02551626 1.7332406e-38 311 261
-0.0097204801 0.69300002 -0.02551626 1.7423885e-38 312 261
-0.0085054198 0.69300002 -0.02551626 1.7423885e-38 313 261
-0.0072903596 0.69300002 -0.02551626 1.7241292e-38 314 261
-0.0060753003 0.69300002 -0.02551626 1.7056542e-38 315 261
-0.00486024 0.69300002 -0.02551626 1.6505892e-38 316 261
-0.0036451798 0.69300002 -0.02551626 1.6413696e-38 317 261
-0.0024406398 0.69599998 -0.025626717 1.6229675e-38 318 261
-0.0012220733 0.69700003 -0.025663542 1.6045282e-38 319 261
0 0.69800001 -0.025700359 1.5861967e-38 320 261
0.0012238267 0.69800001 -0.025700359 1.5861967e-38 321 261
0.0024546667 0.69999999 -0.025773998 1.5677576e-38 322 261
0.0036819996 0.69999999 -0.025773998 1.5677576e-38 323 261
0.0049163462 0.70099998 -0.025810819 1.5401712e-38 324 261
0.0061629666 0.70300001 -0.025884461 1.5309516e-38 325 261
0.0073955595 0.70300001 -0.025884461 1.540063e-38 326 261
0.0086281532 0.70300001 -0.025884461 1.5124402e-38 327 261
0.0098747732 0.704 -0.02592128 1.512332e-38 328 261
0.011156459 0.70700002 -0.02603174 1.4939289e-38 329 261
0.012448666 0.70999998 -0.026142199 1.4572305e-38 330 261
0.01371282 0.71100003 -0.026179021 1.4479749e-38 331 261
0.015022559 0.71399999 -0.026289478 1.4295355e-38 332 261
0.016274439 0.71399999 -0.026289478 1.4111324e-38 333 261
0.017575413 0.71600002 -0.026363119 1.4017682e-38 334 261
0.018909698 0.71899998 -0.02647358 1.3832932e-38 335 261
0.020198401 0.72000003 -0.026510401 1.383185e-38 336 261
