# .PCD v.7 - Point Cloud Data file format
FIELDS x y z rgb imX imY
SIZE 4 4 4 4 4 4
TYPE F F F F F F
COUNT 1 1 1 1 1 1
WIDTH 830
HEIGHT 1
VIEWPOINT 0 0 0 1 0 0 0
POINTS 830
DATA ascii
-0.0024757064 0.70599997 -0.0074271196 8.4675632e-39 318 246
-0.0012396066 0.70700002 -0.0074376399 8.6519558e-39 319 246
0 0.70999998 -0.0074691991 7.7343309e-39 320 246
0.00124662 0.71100003 -0.0074797203 7.0889615e-39 321 246
0.0024932399 0.71100003 -0.0074797203 4.2456905e-39 322 246
0.0037398601 0.71100003 -0.0074797203 7.5647332e-39 323 246
-0.033469379 0.70700002 -0.008677247 8.7607554e-39 293 247
-0.032229774 0.70700002 -0.008677247 6.1724157e-39 294 247
-0.030946331 0.70599997 -0.0086649731 7.9244928e-39 295 247
-0.029708479 0.70599997 -0.0086649731 9.5764289e-39 296 247
-0.028470624 0.70599997 -0.0086649731 9.2076463e-39 297 247
-0.027155625 0.704 -0.0086404262 9.2058513e-39 298 247
-0.02592128 0.704 -0.0086404262 8.9296231e-39 299 247
-0.024651866 0.70300001 -0.0086281532 8.5637315e-39 300 247
-0.023352645 0.70099998 -0.0086036054 8.7477626e-39 301 247
-0.022123558 0.70099998 -0.0086036054 9.5728513e-39 302 247
-0.020894472 0.70099998 -0.0086036054 9.8497984e-39 303 247
-0.019637333 0.69999999 -0.0085913334 9.5746394e-39 304 247
-0.0183574 0.69800001 -0.0085667865 9.2054982e-39 305 247
-0.017133573 0.69800001 -0.0085667865 8.7459423e-39 306 247
-0.015909746 0.69800001 -0.0085667865 8.4697156e-39 307 247
-0.01468592 0.69800001 -0.0085667865 8.0105157e-39 308 247
-0.013462093 0.69800001 -0.0085667865 7.8257657e-39 309 247
-0.012238266 0.69800001 -0.0085667865 7.8243237e-39 310 247
-0.01101444 0.69800001 -0.0085667865 7.4555412e-39 311 247
-0.0097906133 0.69800001 -0.0085667865 7.1789739e-39 312 247
-0.0086036054 0.70099998 -0.0086036054 7.0867783e-39 313 247
-0.0073745195 0.70099998 -0.0086036054 6.9045535e-39 314 247
-0.0061629666 0.70300001 -0.0086281532 7.0889447e-39 315 247
-0.0049303733 0.70300001 -0.0086281532 7.4566552e-39 316 247
-0.0036977797 0.70300001 -0.0086281532 7.5488509e-39 317 247
-0.0024686933 0.704 -0.0086404262 7.91656e-39 318 247
-0.0012378532 0.70599997 -0.0086649731 8.1009527e-39 319 247
0 0.70999998 -0.0087140659 8.2864187e-39 320 247
0.00124662 0.71100003 -0.0087263398 8.1020275e-39 321 247
0.0024897333 0.70999998 -0.0087140659 5.9872859e-39 322 247
0.0037345996 0.70999998 -0.0087140659 5.9872859e-39 323 247
0.0049794666 0.70999998 -0.0087140659 6.9182848e-39 324 247
-0.034708988 0.70700002 -0.0099168532 1.0972722e-38 292 248
-0.033469379 0.70700002 -0.0099168532 5.4409841e-39 293 248
-0.032229774 0.70700002 -0.0099168532 6.8167005e-39 294 248
-0.030946331 0.70599997 -0.0099028256 8.1074393e-39 295 248
-0.029624319 0.704 -0.0098747732 9.3913173e-39 296 248
-0.028389972 0.704 -0.0098747732 9.3913173e-39 297 248
-0.027117053 0.70300001 -0.0098607466 9.1147318e-39 298 248
-0.025884461 0.70300001 -0.0098607466 8.9303406e-39 299 248
-0.024581732 0.70099998 -0.0098326923 8.8381436e-39 300 248
-0.023319334 0.69999999 -0.0098186666 8.9303406e-39 301 248
-0.022091998 0.69999999 -0.0098186666 9.2054855e-39 302 248
-0.020864666 0.69999999 -0.0098186666 9.4817123e-39 303 248
-0.019581227 0.69800001 -0.0097906133 9.2976784e-39 304 248
-0.018331099 0.69700003 -0.0097765867 9.1132857e-39 305 248
-0.017109027 0.69700003 -0.0097765867 8.5626301e-39 306 248
-0.015886955 0.69700003 -0.0097765867 8.3782388e-39 307 248
-0.01466488 0.69700003 -0.0097765867 8.103447e-39 308 248
-0.013442807 0.69700003 -0.0097765867 7.8272202e-39 309 248
-0.012220734 0.69700003 -0.0097765867 7.8250622e-39 310 248
-0.01099866 0.69700003 -0.0097765867 7.3644428e-39 311 248
-0.0097765867 0.69700003 -0.0097765867 7.1793425e-39 312 248
-0.0085667865 0.69800001 -0.0097906133 7.0871469e-39 313 248
-0.0073429602 0.69800001 -0.0097906133 7.0871469e-39 314 248
-0.0061366665 0.69999999 -0.0098186666 7.1793425e-39 315 248
-0.0049163462 0.70099998 -0.0098326923 7.4552091e-39 316 248
-0.0036872597 0.70099998 -0.0098326923 7.5474047e-39 317 248
-0.0024581731 0.70099998 -0.0098326923 7.6403234e-39 318 248
-0.0012325933 0.70300001 -0.0098607466 7.8247147e-39 319 248
0 0.70599997 -0.0099028256 8.1002226e-39 320 248
0.00124136 0.708 -0.0099308798 8.3771696e-39 321 248
0.0024897333 0.70999998 -0.0099589331 8.4700841e-39 322 248
0.0037345996 0.70999998 -0.0099589331 8.009106e-39 323 248
0.0049794666 0.70999998 -0.0099589331 5.8969078e-39 324 248
0.0062243328 0.70999998 -0.0099589331 6.7266684e-39 325 248
-0.035897743 0.70599997 -0.011140679 1.7516095e-38 291 249
-0.034659892 0.70599997 -0.011140679 1.0784718e-38 292 249
-0.03332736 0.704 -0.011109119 4.331024e-39 293 249
-0.032093015 0.704 -0.011109119 7.5510159e-39 294 249
-0.030858666 0.704 -0.011109119 8.3811353e-39 295 249
-0.029624319 0.704 -0.011109119 8.8399428e-39 296 249
-0.028349647 0.70300001 -0.01109334 8.7477472e-39 297 249
-0.027117053 0.70300001 -0.01109334 8.7477416e-39 298 249
-0.025810819 0.70099998 -0.011061779 8.5633489e-39 299 249
-0.024581732 0.70099998 -0.011061779 8.7459451e-39 300 249
-0.023319334 0.69999999 -0.011045999 8.7459451e-39 301 249
-0.022091998 0.69999999 -0.011045999 8.7459479e-39 302 249
-0.020805053 0.69800001 -0.01101444 8.8381436e-39 303 249
-0.019553173 0.69700003 -0.01099866 9.0210901e-39 304 249
-0.018331099 0.69700003 -0.01099866 9.0210901e-39 305 249
-0.017084479 0.69599998 -0.010982879 8.6541026e-39 306 249
-0.015864158 0.69599998 -0.010982879 8.4697128e-39 307 249
-0.014643839 0.69599998 -0.010982879 8.2860432e-39 308 249
-0.013423519 0.69599998 -0.010982879 8.0094563e-39 309 249
-0.012220734 0.69700003 -0.01099866 8.0069424e-39 310 249
-0.01099866 0.69700003 -0.01099866 7.6377997e-39 311 249
-0.0097765867 0.69700003 -0.01099866 7.1782705e-39 312 249
-0.0085545136 0.69700003 -0.01099866 7.0860749e-39 313 249
-0.00733244 0.69700003 -0.01099866 6.9034815e-39 314 249
-0.006119133 0.69800001 -0.01101444 6.9034815e-39 315 249
-0.0049093333 0.69999999 -0.011045999 7.0867965e-39 316 249
-0.0036819996 0.69999999 -0.011045999 7.0867965e-39 317 249
-0.0024581731 0.70099998 -0.011061779 6.995324e-39 318 249
-0.0012290865 0.70099998 -0.011061779 7.2719109e-39 319 249
0 0.70300001 -0.01109334 7.3641093e-39 320 249
0.0012396066 0.70700002 -0.011156459 7.6406962e-39 321 249
0.0024792133 0.70700002 -0.011156459 8.009829e-39 322 249
0.0037188199 0.70700002 -0.011156459 8.1942203e-39 323 249
0.0049654399 0.708 -0.01117224 7.6424716e-39 324 249
0.0062067998 0.708 -0.01117224 6.6283211e-39 325 249
0.0074481601 0.708 -0.01117224 4.8010097e-39 326 249
0.008689519 0.708 -0.01117224 9.595181e-39 327 249
-0.037135597 0.70599997 -0.012378532 1.7423898e-38 290 250
-0.035897743 0.70599997 -0.012378532 1.7608649e-38 291 250
-0.034659892 0.70599997 -0.012378532 1.0783632e-38 292 250
-0.03332736 0.704 -0.012343466 5.0671429e-39 293 250
-0.032093015 0.704 -0.012343466 7.9187096e-39 294 250
-0.030858666 0.704 -0.012343466 8.4718834e-39 295 250
-0.029582238 0.70300001 -0.012325933 8.3789647e-39 296 250
-0.028268991 0.70099998 -0.012290866 8.3789647e-39 297 250
-0.027039904 0.70099998 -0.012290866 8.2874879e-39 298 250
-0.025773998 0.69999999 -0.012273333 8.1952923e-39 299 250
-0.024546666 0.69999999 -0.012273333 8.3778885e-39 300 250
-0.023252707 0.69800001 -0.012238266 8.2853341e-39 301 250
-0.02202888 0.69800001 -0.012238266 8.4682862e-39 302 250
-0.020805053 0.69800001 -0.012238266 8.6526775e-39 303 250
-0.019553173 0.69700003 -0.012220734 8.4697184e-39 304 250
-0.018304799 0.69599998 -0.0122032 8.4697184e-39 305 250
-0.017084479 0.69599998 -0.0122032 8.1945706e-39 306 250
-0.015864158 0.69599998 -0.0122032 8.1945706e-39 307 250
-0.014643839 0.69599998 -0.0122032 8.284974e-39 308 250
-0.013423519 0.69599998 -0.0122032 8.008027e-39 309 250
-0.0122032 0.69599998 -0.0122032 7.821842e-39 310 250
-0.010982879 0.69599998 -0.0122032 7.6374494e-39 311 250
-0.0097625591 0.69599998 -0.0122032 7.0860749e-39 312 250
-0.0085422397 0.69599998 -0.0122032 7.0860749e-39 313 250
-0.0073219193 0.69599998 -0.0122032 6.9945981e-39 314 250
-0.0061103669 0.69700003 -0.012220734 6.810567e-39 315 250
-0.0048953067 0.69800001 -0.012238266 6.9016864e-39 316 250
-0.0036714801 0.69800001 -0.012238266 6.9016864e-39 317 250
-0.0024546667 0.69999999 -0.012273333 6.6265415e-39 318 250
-0.0012273333 0.69999999 -0.012273333 6.7187371e-39 319 250
0 0.70099998 -0.012290866 6.8109355e-39 320 250
0.0012343467 0.704 -0.012343466 7.2715549e-39 321 250
0.0024757064 0.70599997 -0.012378532 7.2737087e-39 322 250
0.0037135598 0.70599997 -0.012378532 7.550297e-39 323 250
0.0049584266 0.70700002 -0.012396066 8.1938672e-39 324 250
0.0061980332 0.70700002 -0.012396066 7.9172803e-39 325 250
0.0074481601 0.708 -0.0124136 5.6210439e-39 326 250
0.008689519 0.708 -0.0124136 5.9898251e-39 327 250
0.0099308798 0.708 -0.0124136 7.4840534e-39 328 250
-0.037135597 0.70599997 -0.013616386 1.7331702e-38 290 251
-0.035897743 0.70599997 -0.013616386 1.7608649e-38 291 251
-0.034561705 0.704 -0.013577812 1.0783629e-38 292 251
-0.03332736 0.704 -0.013577812 4.883109e-39 293 251
-0.032047424 0.70300001 -0.013558527 7.4588062e-39 294 251
-0.030727165 0.70099998 -0.013519952 8.01198e-39 295 251
-0.029498078 0.70099998 -0.013519952 8.1016589e-39 296 251
-0.028228667 0.69999999 -0.013500666 8.1016589e-39 297 251
-0.027001332 0.69999999 -0.013500666 8.0098262e-39 298 251
-0.025773998 0.69999999 -0.013500666 7.9176292e-39 299 251
-0.024476532 0.69800001 -0.013462093 7.7335981e-39 300 251
-0.023252707 0.69800001 -0.013462093 7.7335981e-39 301 251
-0.02199732 0.69700003 -0.013442807 8.0080242e-39 302 251
-0.020775247 0.69700003 -0.013442807 8.1005785e-39 303 251
-0.019525118 0.69599998 -0.013423519 8.2842509e-39 304 251
-0.018304799 0.69599998 -0.013423519 8.2842509e-39 305 251
-0.017084479 0.69599998 -0.013423519 8.2842481e-39 306 251
-0.015864158 0.69599998 -0.013423519 8.2842481e-39 307 251
-0.014643839 0.69599998 -0.013423519 8.1005785e-39 308 251
-0.013384946 0.69400001 -0.013384946 7.7317974e-39 309 251
-0.012168133 0.69400001 -0.013384946 7.6388843e-39 310 251
-0.01095132 0.69400001 -0.013384946 7.5463299e-39 311 251
-0.0097345067 0.69400001 -0.013384946 6.9038374e-39 312 251
-0.0085176928 0.69400001 -0.013384946 6.9038374e-39 313 251
-0.0073008798 0.69400001 -0.013384946 6.8109201e-39 314 251
-0.0061103669 0.69700003 -0.013442807 6.7187231e-39 315 251
-0.0048882933 0.69700003 -0.013442807 6.6261743e-39 316 251
-0.0036714801 0.69800001 -0.013462093 6.53362e-39 317 251
-0.0024476533 0.69800001 -0.013462093 6.3503133e-39 318 251
-0.0012273333 0.69999999 -0.013500666 6.3503133e-39 319 251
0 0.70099998 -0.013519952 6.3506734e-39 320 251
0.0012325933 0.70300001 -0.013558527 6.6276205e-39 321 251
0.0024686933 0.704 -0.013577812 6.8130865e-39 322 251
0.0037030398 0.704 -0.013577812 7.1815103e-39 323 251
0.0049514128 0.70599997 -0.013616386 8.0087542e-39 324 251
0.0061980332 0.70700002 -0.013635674 8.1013086e-39 325 251
0.0074376399 0.70700002 -0.013635674 7.4584503e-39 326 251
0.008677247 0.70700002 -0.013635674 6.2602673e-39 327 251
0.0099168532 0.70700002 -0.013635674 4.2539498e-39 328 251
0.011156459 0.70700002 -0.013635674 8.4949487e-39 329 251
-0.037135597 0.70599997 -0.014854239 1.760721e-38 290 252
-0.035897743 0.70599997 -0.014854239 1.7791962e-38 291 252
-0.034561705 0.704 -0.014812159 1.1889255e-38 292 252
-0.03318534 0.70099998 -0.014749039 5.6195922e-39 293 252
-0.031956252 0.70099998 -0.014749039 6.9063555e-39 294 252
-0.030727165 0.70099998 -0.014749039 7.4591692e-39 295 252
-0.029455997 0.69999999 -0.014727999 7.457021e-39 296 252
-0.028228667 0.69999999 -0.014727999 7.457021e-39 297 252
-0.027001332 0.69999999 -0.014727999 6.8152543e-39 298 252
-0.025700359 0.69800001 -0.01468592 6.6305043e-39 299 252
-0.024476532 0.69800001 -0.01468592 6.7223342e-39 300 252
-0.023219392 0.69700003 -0.01466488 6.9063653e-39 301 252
-0.02199732 0.69700003 -0.01466488 7.1807914e-39 302 252
-0.020745439 0.69599998 -0.014643839 7.4573769e-39 303 252
-0.019469013 0.69400001 -0.01460176 7.63962e-39 304 252
-0.0182522 0.69400001 -0.01460176 7.4552301e-39 305 252
-0.017035386 0.69400001 -0.01460176 7.180088e-39 306 252
-0.015818574 0.69400001 -0.01460176 7.2722836e-39 307 252
-0.01460176 0.69400001 -0.01460176 7.3641093e-39 308 252
-0.013384946 0.69400001 -0.01460176 7.2715549e-39 309 252
-0.012168133 0.69400001 -0.01460176 7.1797082e-39 310 252
-0.01095132 0.69400001 -0.01460176 7.1797082e-39 311 252
-0.0097345067 0.69400001 -0.01460176 6.9960302e-39 312 252
-0.0085176928 0.69400001 -0.01460176 6.811639e-39 313 252
-0.0073008798 0.69400001 -0.01460176 6.7190874e-39 314 252
-0.0061015999 0.69599998 -0.014643839 6.5346947e-39 315 252
-0.0048812795 0.69599998 -0.014643839 6.3503105e-39 316 252
-0.00366622 0.69700003 -0.01466488 6.1659192e-39 317 252
-0.0024441467 0.69700003 -0.01466488 5.9822538e-39 318 252
-0.0012238267 0.69800001 -0.01468592 5.9822538e-39 319 252
0 0.69999999 -0.014727999 5.7993045e-39 320 252
0.0012273333 0.69999999 -0.014727999 5.9833356e-39 321 252
0.0024651866 0.70300001 -0.014791119 6.2606456e-39 322 252
0.0037030398 0.704 -0.014812159 6.5375912e-39 323 252
0.0049514128 0.70599997 -0.014854239 6.9978449e-39 324 252
0.0061892662 0.70599997 -0.014854239 7.2744304e-39 325 252
0.0074376399 0.70700002 -0.01487528 7.5510215e-39 326 252
0.008677247 0.70700002 -0.01487528 7.0900433e-39 327 252
0.0099168532 0.70700002 -0.01487528 4.4250343e-39 328 252
0.011156459 0.70700002 -0.01487528 5.7157731e-39 329 252
0.0124136 0.708 -0.01489632 9.9665041e-39 330 252
-0.034365334 0.69999999 -0.015955333 1.318071e-38 292 253
-0.033137999 0.69999999 -0.015955333 6.0820053e-39 293 253
-0.031910665 0.69999999 -0.015955333 5.6156167e-39 294 253
-0.030683333 0.69999999 -0.015955333 6.8137998e-39 295 253
-0.029455997 0.69999999 -0.015955333 7.0893175e-39 296 253
-0.028148014 0.69800001 -0.015909746 6.9049276e-39 297 253
-0.026924185 0.69800001 -0.015909746 6.90385e-39 298 253
-0.025700359 0.69800001 -0.015909746 6.8116544e-39 299 253
-0.024476532 0.69800001 -0.015909746 6.9034997e-39 300 253
-0.023219392 0.69700003 -0.015886955 6.9956953e-39 301 253
-0.021965759 0.69599998 -0.015864158 6.9063709e-39 302 253
-0.020745439 0.69599998 -0.015864158 6.4453928e-39 303 253
-0.019469013 0.69400001 -0.015818574 6.441074e-39 304 253
-0.0182522 0.69400001 -0.015818574 6.0726516e-39 305 253
-0.017035386 0.69400001 -0.015818574 6.9917268e-39 306 253
-0.015818574 0.69400001 -0.015818574 7.2686739e-39 307 253
-0.014580719 0.69300002 -0.015795778 7.4519833e-39 308 253
-0.01336566 0.69300002 -0.015795778 7.544179e-39 309 253
-0.012150601 0.69300002 -0.015795778 7.1782705e-39 310 253
-0.010935539 0.69300002 -0.015795778 7.1782705e-39 311 253
-0.0097204801 0.69300002 -0.015795778 6.8120047e-39 312 253
-0.0085054198 0.69300002 -0.015795778 6.6279736e-39 313 253
-0.0072903596 0.69300002 -0.015795778 6.5343388e-39 314 253
-0.0060840664 0.69400001 -0.015818574 6.3503077e-39 315 253
-0.0048672534 0.69400001 -0.015818574 6.2581149e-39 316 253
-0.0036609597 0.69599998 -0.015864158 6.1659192e-39 317 253
-0.0024406398 0.69599998 -0.015864158 5.7982227e-39 318 253
-0.0012220733 0.69700003 -0.015886955 5.7060271e-39 319 253
0 0.69800001 -0.015909746 6.0733705e-39 320 253
0.0012238267 0.69800001 -0.015909746 6.2577617e-39 321 253
0.0024546667 0.69999999 -0.015955333 6.3506734e-39 322 253
0.0036977797 0.70300001 -0.016023712 6.8116516e-39 323 253
0.0049373866 0.704 -0.016046507 7.2719081e-39 324 253
0.0061717331 0.704 -0.016046507 7.4566581e-39 325 253
0.0074271196 0.70599997 -0.016092092 7.7332421e-39 326 253
0.0086649731 0.70599997 -0.016092092 7.7332421e-39 327 253
0.0099168532 0.70700002 -0.016114887 6.905299e-39 328 253
0.01117224 0.708 -0.01613768 5.7067558e-39 329 253
0.0124136 0.708 -0.01613768 5.9084489e-39 330 253
-0.034365334 0.69999999 -0.017182667 1.4103378e-38 292 254
-0.033043321 0.69800001 -0.017133573 7.3727385e-39 293 254
-0.031819493 0.69800001 -0.017133573 5.5209001e-39 294 254
-0.030683333 0.69999999 -0.017182667 6.7194433e-39 295 254
-0.029371841 0.69800001 -0.017133573 6.6301414e-39 296 254
-0.028148014 0.69800001 -0.017133573 6.44539e-39 297 254
-0.026924185 0.69800001 -0.017133573 6.352128e-39 298 254
-0.025700359 0.69800001 -0.017133573 6.167378e-39 299 254
-0.024441468 0.69700003 -0.017109027 6.1691759e-39 300 254
-0.023186078 0.69599998 -0.017084479 6.630154e-39 301 254
-0.021965759 0.69599998 -0.017084479 7.3677036e-39 302 254
-0.020685827 0.69400001 -0.017035386 8.013073e-39 303 254
-0.019469013 0.69400001 -0.017035386 8.009829e-39 304 254
-0.0182522 0.69400001 -0.017035386 7.1797082e-39 305 254
-0.01701084 0.69300002 -0.01701084 7.3601408e-39 306 254
-0.015795778 0.69300002 -0.01701084 6.9913583e-39 307 254
-0.014580719 0.69300002 -0.01701084 6.441074e-39 308 254
-0.01336566 0.69300002 -0.01701084 6.441074e-39 309 254
-0.012150601 0.69300002 -0.01701084 6.3503231e-39 310 254
-0.010935539 0.69300002 -0.01701084 6.4425201e-39 311 254
-0.0097204801 0.69300002 -0.01701084 6.2602771e-39 312 254
-0.0085054198 0.69300002 -0.01701084 6.1680814e-39 313 254
-0.0072903596 0.69300002 -0.01701084 6.5343388e-39 314 254
-0.0060840664 0.69400001 -0.017035386 6.2581121e-39 315 254
-0.0048672534 0.69400001 -0.017035386 6.1666381e-39 316 254
-0.0036504399 0.69400001 -0.017035386 5.9822482e-39 317 254
-0.0024406398 0.69599998 -0.017084479 5.7060299e-39 318 254
-0.0012220733 0.69700003 -0.017109027 5.5219974e-39 319 254
0 0.69700003 -0.017109027 5.3390522e-39 320 254
0.0012238267 0.69800001 -0.017133573 5.4312479e-39 321 254
0.0024476533 0.69800001 -0.017133573 5.7996703e-39 322 254
0.0036819996 0.69999999 -0.017182667 6.0766173e-39 323 254
0.0049163462 0.70099998 -0.017207211 6.2617246e-39 324 254
0.0061629666 0.70300001 -0.017256306 6.5383115e-39 325 254
0.0074060797 0.704 -0.017280852 6.7230559e-39 326 254
0.0086404262 0.704 -0.017280852 7.0914783e-39 327 254
0.0099168532 0.70700002 -0.017354494 7.0900405e-39 328 254
0.01117224 0.708 -0.017379038 5.9836916e-39 329 254
0.012501267 0.713 -0.017501773 3.1378954e-39 330 254
0.01377068 0.71399999 -0.017526319 6.9179162e-39 331 254
0.015022559 0.71399999 -0.017526319 1.3372354e-38 332 254
-0.034365334 0.69999999 -0.018409999 1.4748397e-38 292 255
-0.033043321 0.69800001 -0.0183574 1.0138616e-38 293 255
-0.031819493 0.69800001 -0.0183574 5.7031404e-39 294 255
-0.030595668 0.69800001 -0.0183574 6.7172909e-39 295 255
-0.029371841 0.69800001 -0.0183574 6.6301386e-39 296 255
-0.028148014 0.69800001 -0.0183574 6.3535503e-39 297 255
-0.026924185 0.69800001 -0.0183574 6.0766117e-39 298 255
-0.025663542 0.69700003 -0.018331099 6.0766117e-39 299 255
-0.024441468 0.69700003 -0.018331099 6.352844e-39 300 255
-0.023186078 0.69599998 -0.018304799 6.9060178e-39 301 255
-0.021902639 0.69400001 -0.0182522 8.9336056e-39 302 255
-0.020685827 0.69400001 -0.0182522 1.1238136e-38 303 255
-0.01944096 0.69300002 -0.018225901 1.1147726e-38 304 255
-0.018225901 0.69300002 -0.018225901 1.0594553e-38 305 255
-0.01701084 0.69300002 -0.018225901 9.2955316e-39 306 255
-0.015795778 0.69300002 -0.018225901 7.8200428e-39 307 255
-0.014580719 0.69300002 -0.018225901 6.1666381e-39 308 255
-0.01336566 0.69300002 -0.018225901 5.70566e-39 309 255
-0.012150601 0.69300002 -0.018225901 6.0737208e-39 310 255
-0.010935539 0.69300002 -0.018225901 6.2581121e-39 311 255
-0.0097204801 0.69300002 -0.018225901 6.2588337e-39 312 255
-0.0085054198 0.69300002 -0.018225901 6.1666381e-39 313 255
-0.0072903596 0.69300002 -0.018225901 6.2577589e-39 314 255
-0.0060753003 0.69300002 -0.018225901 6.1655633e-39 315 255
-0.00486024 0.69300002 -0.018225901 5.982251e-39 316 255
-0.0036504399 0.69400001 -0.0182522 5.8900554e-39 317 255
-0.0024336267 0.69400001 -0.0182522 5.522712e-39 318 255
-0.0012203199 0.69599998 -0.018304799 5.430515e-39 319 255
0 0.69700003 -0.018331099 5.4301619e-39 320 255
0.0012220733 0.69700003 -0.018331099 5.6149133e-39 321 255
0.0024441467 0.69700003 -0.018331099 5.7993045e-39 322 255
0.0036714801 0.69800001 -0.0183574 6.1677283e-39 323 255
0.0049093333 0.69999999 -0.018409999 6.2609987e-39 324 255
0.0061366665 0.69999999 -0.018409999 6.5379444e-39 325 255
0.0073745195 0.70099998 -0.018436298 6.7226901e-39 326 255
0.0086281532 0.70300001 -0.018488899 6.9067213e-39 327 255
0.0099168532 0.70700002 -0.018594101 7.273343e-39 328 255
0.011203799 0.70999998 -0.018672999 7.1811474e-39 329 255
0.0124662 0.71100003 -0.0186993 3.1335766e-39 330 255
0.013751393 0.713 -0.018751899 3.226131e-39 331 255
0.015001519 0.713 -0.018751899 9.6877662e-39 332 255
0.016251646 0.713 -0.018751899 1.4205352e-38 333 255
-0.034365334 0.69999999 -0.019637333 1.5577443e-38 292 256
-0.033043321 0.69800001 -0.019581227 1.2074368e-38 293 256
-0.031819493 0.69800001 -0.019581227 5.7034963e-39 294 256
-0.030595668 0.69800001 -0.019581227 6.2563114e-39 295 256
-0.029371841 0.69800001 -0.019581227 6.7216041e-39 296 256
-0.028148014 0.69800001 -0.019581227 6.6294085e-39 297 256
-0.026885614 0.69700003 -0.019553173 6.3531944e-39 298 256
-0.025663542 0.69700003 -0.019553173 6.0769676e-39 299 256
-0.024441468 0.69700003 -0.019553173 5.9865825e-39 300 256
-0.023119451 0.69400001 -0.019469013 6.355365e-39 301 256
-0.021902639 0.69400001 -0.019469013 7.5510313e-39 302 256
-0.020685827 0.69400001 -0.019469013 8.657739e-39 303 256
-0.01944096 0.69300002 -0.01944096 9.0286669e-39 304 256
-0.018225901 0.69300002 -0.01944096 9.4896436e-39 305 256
-0.01701084 0.69300002 -0.01944096 8.5619266e-39 306 256
-0.015795778 0.69300002 -0.01944096 7.2711878e-39 307 256
-0.014538639 0.69099998 -0.019384852 6.2577589e-39 308 256
-0.013327086 0.69099998 -0.019384852 5.888975e-39 309 256
-0.012115533 0.69099998 -0.019384852 5.5219946e-39 310 256
-0.01090398 0.69099998 -0.019384852 5.7060271e-39 311 256
-0.0096924258 0.69099998 -0.019384852 5.8897023e-39 312 256
-0.008480873 0.69099998 -0.019384852 5.8897023e-39 313 256
-0.0072903596 0.69300002 -0.01944096 5.8896995e-39 314 256
-0.0060753003 0.69300002 -0.01944096 5.7975039e-39 315 256
-0.00486024 0.69300002 -0.01944096 5.7060243e-39 316 256
-0.0036451798 0.69300002 -0.01944096 5.5219918e-39 317 256
-0.0024336267 0.69400001 -0.019469013 5.5219918e-39 318 256
-0.0012203199 0.69599998 -0.019525118 5.5219918e-39 319 256
0 0.69599998 -0.019525118 5.4301619e-39 320 256
0.0012220733 0.69700003 -0.019553173 5.5227176e-39 321 256
0.0024441467 0.69700003 -0.019553173 5.706753e-39 322 256
0.0036714801 0.69800001 -0.019581227 6.0755341e-39 323 256
0.0048953067 0.69800001 -0.019581227 5.7092739e-39 324 256
0.0061366665 0.69999999 -0.019637333 6.078055e-39 325 256
0.0073639993 0.69999999 -0.019637333 6.0794843e-39 326 256
0.0086036054 0.70099998 -0.019665385 6.1716814e-39 327 256
0.0098607466 0.70300001 -0.019721493 6.8134508e-39 328 256
0.011156459 0.70700002 -0.019833706 6.8134508e-39 329 256
0.012448666 0.70999998 -0.019917866 5.8915198e-39 330 256
0.01371282 0.71100003 -0.01994592 4.7851722e-39 331 256
0.014959441 0.71100003 -0.01994592 6.7338977e-39 332 256
0.01620606 0.71100003 -0.01994592 1.2450025e-38 333 256
0.01745268 0.71100003 -0.01994592 1.677998e-38 334 256
-0.035592664 0.69999999 -0.020864666 1.7238788e-38 291 257
-0.034365334 0.69999999 -0.020864666 1.6591957e-38 292 257
-0.033043321 0.69800001 -0.020805053 1.3549141e-38 293 257
-0.031819493 0.69800001 -0.020805053 6.7151231e-39 294 257
-0.030595668 0.69800001 -0.020805053 6.2541464e-39 295 257
-0.029371841 0.69800001 -0.020805053 6.3538978e-39 296 257
-0.028148014 0.69800001 -0.020805053 6.3538978e-39 297 257
-0.026885614 0.69700003 -0.020775247 6.0773305e-39 298 257
-0.025663542 0.69700003 -0.020775247 6.0773305e-39 299 257
-0.0244064 0.69599998 -0.020745439 5.8940211e-39 300 257
-0.023119451 0.69400001 -0.020685827 6.0780522e-39 301 257
-0.021902639 0.69400001 -0.020685827 5.8932952e-39 302 257
-0.020685827 0.69400001 -0.020685827 5.8932952e-39 303 257
-0.01944096 0.69300002 -0.020656019 6.632305e-39 304 257
-0.018225901 0.69300002 -0.020656019 7.2776744e-39 305 257
-0.016961746 0.69099998 -0.020596405 7.5510187e-39 306 257
-0.015750192 0.69099998 -0.020596405 6.7212566e-39 307 257
-0.014538639 0.69099998 -0.020596405 5.9833202e-39 308 257
-0.013327086 0.69099998 -0.020596405 5.4301465e-39 309 257
-0.012115533 0.69099998 -0.020596405 5.3368844e-39 310 257
-0.01090398 0.69099998 -0.020596405 5.5209156e-39 311 257
-0.0096924258 0.69099998 -0.020596405 5.6127581e-39 312 257
-0.008480873 0.69099998 -0.020596405 5.6127581e-39 313 257
-0.0072693196 0.69099998 -0.020596405 5.429443e-39 314 257
-0.0060753003 0.69300002 -0.020656019 5.5219974e-39 315 257
-0.00486024 0.69300002 -0.020656019 5.4297989e-39 316 257
-0.0036451798 0.69300002 -0.020656019 5.4297989e-39 317 257
-0.00243012 0.69300002 -0.020656019 5.4301619e-39 318 257
-0.0012168133 0.69400001 -0.020685827 5.4301619e-39 319 257
0 0.69599998 -0.020745439 5.2468496e-39 320 257
0.0012203199 0.69599998 -0.020745439 5.3390466e-39 321 257
0.0024441467 0.69700003 -0.020775247 5.6145573e-39 322 257
0.00366622 0.69700003 -0.020775247 5.7993073e-39 323 257
0.0048953067 0.69800001 -0.020805053 5.8929421e-39 324 257
0.006119133 0.69800001 -0.020805053 6.0773333e-39 325 257
0.0073639993 0.69999999 -0.020864666 5.9880076e-39 326 257
0.0085913334 0.69999999 -0.020864666 6.0802046e-39 327 257
0.0098607466 0.70300001 -0.020954086 6.4461117e-39 328 257
0.011109119 0.704 -0.020983893 6.2620805e-39 329 257
0.012396066 0.70700002 -0.021073313 6.537608e-39 330 257
0.013654959 0.708 -0.021103119 6.4454124e-39 331 257
0.014938398 0.70999998 -0.021162732 4.148823e-39 332 257
0.016183265 0.70999998 -0.021162732 9.4961695e-39 333 257
0.017428132 0.70999998 -0.021162732 1.6227175e-38 334 257
0.018672999 0.70999998 -0.021162732 1.6595599e-38 335 257
-0.034267146 0.69800001 -0.02202888 1.7790144e-38 292 258
-0.033043321 0.69800001 -0.02202888 1.5393058e-38 293 258
-0.031819493 0.69800001 -0.02202888 8.4671974e-39 294 258
-0.030595668 0.69800001 -0.02202888 6.2541436e-39 295 258
-0.029371841 0.69800001 -0.02202888 6.1691394e-39 296 258
-0.028107686 0.69700003 -0.02199732 6.6297588e-39 297 258
-0.026885614 0.69700003 -0.02199732 6.2606456e-39 298 258
-0.025626717 0.69599998 -0.021965759 6.0766145e-39 299 258
-0.0244064 0.69599998 -0.021965759 5.8014723e-39 300 258
-0.023119451 0.69400001 -0.021902639 5.7092767e-39 301 258
-0.021902639 0.69400001 -0.021902639 6.0755341e-39 302 258
-0.020685827 0.69400001 -0.021902639 6.2599267e-39 303 258
-0.01944096 0.69300002 -0.021871079 6.8134536e-39 304 258
-0.0181733 0.69099998 -0.021807959 7.4588231e-39 305 258
-0.016961746 0.69099998 -0.021807959 7.3666232e-39 306 258
-0.015750192 0.69099998 -0.021807959 6.4450271e-39 307 258
-0.014538639 0.69099998 -0.021807959 5.7074592e-39 308 258
-0.013327086 0.69099998 -0.021807959 5.1542854e-39 309 258
-0.012115533 0.69099998 -0.021807959 5.2443329e-39 310 258
-0.01090398 0.69099998 -0.021807959 5.3365285e-39 311 258
-0.0096924258 0.69099998 -0.021807959 5.2450517e-39 312 258
-0.008480873 0.69099998 -0.021807959 5.3372474e-39 313 258
-0.0072693196 0.69099998 -0.021807959 5.3376033e-39 314 258
-0.0060753003 0.69300002 -0.021871079 5.3376033e-39 315 258
-0.00486024 0.69300002 -0.021871079 5.5209156e-39 316 258
-0.0036451798 0.69300002 -0.021871079 5.5209156e-39 317 258
-0.00243012 0.69300002 -0.021871079 5.3383222e-39 318 258
-0.0012168133 0.69400001 -0.021902639 5.3383222e-39 319 258
0 0.69599998 -0.021965759 5.3379662e-39 320 258
0.0012203199 0.69599998 -0.021965759 5.4301619e-39 321 258
0.0024406398 0.69599998 -0.021965759 5.7060299e-39 322 258
0.00366622 0.69700003 -0.02199732 6.0748124e-39 323 258
0.0048882933 0.69700003 -0.02199732 5.8007395e-39 324 258
0.006119133 0.69800001 -0.02202888 6.0776865e-39 325 258
0.0073429602 0.69800001 -0.02202888 5.895456e-39 326 258
0.0085913334 0.69999999 -0.022091998 5.9876516e-39 327 258
0.0098186666 0.69999999 -0.022091998 5.894384e-39 328 258
0.01109334 0.70300001 -0.02218668 5.8021884e-39 329 258
0.012343466 0.704 -0.022218239 6.4446865e-39 330 258
0.013635674 0.70700002 -0.022312919 6.7216336e-39 331 258
0.014938398 0.70999998 -0.022407599 2.3974619e-39 332 258
0.016183265 0.70999998 -0.022407599 5.624309e-39 333 258
0.017428132 0.70999998 -0.022407599 1.4750973e-38 334 258
0.018672999 0.70999998 -0.022407599 1.6502331e-38 335 258
-0.033043321 0.69800001 -0.023252707 1.6961106e-38 293 259
-0.031819493 0.69800001 -0.023252707 1.225044e-38 294 259
-0.030595668 0.69800001 -0.023252707 7.3637113e-39 295 259
-0.029371841 0.69800001 -0.023252707 6.8108935e-39 296 259
-0.028107686 0.69700003 -0.023219392 7.1800333e-39 297 259
-0.026885614 0.69700003 -0.023219392 6.9953268e-39 298 259
-0.025626717 0.69599998 -0.023186078 6.7187399e-39 299 259
-0.0244064 0.69599998 -0.023186078 5.9851405e-39 300 259
-0.023119451 0.69400001 -0.023119451 5.9851405e-39 301 259
-0.021902639 0.69400001 -0.023119451 5.9851405e-39 302 259
-0.020685827 0.69400001 -0.023119451 6.0773362e-39 303 259
-0.01944096 0.69300002 -0.02308614 5.9865853e-39 304 259
-0.0181733 0.69099998 -0.023019511 6.355009e-39 305 259
-0.016961746 0.69099998 -0.023019511 6.4457585e-39 306 259
-0.015750192 0.69099998 -0.023019511 5.8003891e-39 307 259
-0.014538639 0.69099998 -0.023019511 5.5219946e-39 308 259
-0.013327086 0.69099998 -0.023019511 5.2450489e-39 309 259
-0.012115533 0.69099998 -0.023019511 4.6936772e-39 310 259
-0.01090398 0.69099998 -0.023019511 4.7862316e-39 311 259
-0.0096783992 0.69 -0.022986198 4.7862316e-39 312 259
-0.0084686 0.69 -0.022986198 4.9702627e-39 313 259
-0.0072693196 0.69099998 -0.023019511 5.0617367e-39 314 259
-0.0060577663 0.69099998 -0.023019511 5.0617367e-39 315 259
-0.00486024 0.69300002 -0.02308614 5.2450517e-39 316 259
-0.0036451798 0.69300002 -0.02308614 5.2450517e-39 317 259
-0.00243012 0.69300002 -0.02308614 4.9699068e-39 318 259
-0.0012168133 0.69400001 -0.023119451 4.9699068e-39 319 259
0 0.69400001 -0.023119451 5.0621052e-39 320 259
0.0012203199 0.69599998 -0.023186078 5.1543009e-39 321 259
0.0024406398 0.69599998 -0.023186078 5.4312479e-39 322 259
0.0036609597 0.69599998 -0.023186078 5.7074746e-39 323 259
0.0048882933 0.69700003 -0.023219392 5.6170769e-39 324 259
0.0061103669 0.69700003 -0.023219392 5.8014695e-39 325 259
0.0073429602 0.69800001 -0.023252707 5.6188789e-39 326 259
0.0085667865 0.69800001 -0.023252707 5.7110746e-39 327 259
0.0098186666 0.69999999 -0.023319334 5.7096396e-39 328 259
0.011061779 0.70099998 -0.023352645 5.7096396e-39 329 259
0.012343466 0.704 -0.023452586 5.7107186e-39 330 259
0.013635674 0.70700002 -0.023552528 5.9873041e-39 331 259
0.01489632 0.708 -0.023585839 3.407644e-39 332 259
0.01613768 0.708 -0.023585839 3.5920366e-39 333 259
0.017428132 0.70999998 -0.023652466 1.254042e-38 334 259
-0.031819493 0.69800001 -0.024476532 1.6494694e-38 294 260
-0.030595668 0.69800001 -0.024476532 1.1423936e-38 295 260
-0.029371841 0.69800001 -0.024476532 7.635978e-39 296 260
-0.028107686 0.69700003 -0.024441468 7.3590366e-39 297 260
-0.026885614 0.69700003 -0.024441468 6.4442956e-39 298 260
-0.025626717 0.69599998 -0.0244064 6.6290456e-39 299 260
-0.0244064 0.69599998 -0.0244064 5.8940211e-39 300 260
-0.023119451 0.69400001 -0.024336265 5.8940211e-39 301 260
-0.021902639 0.69400001 -0.024336265 5.8018255e-39 302 260
-0.020685827 0.69400001 -0.024336265 5.8018255e-39 303 260
-0.019384852 0.69099998 -0.024231065 6.0773362e-39 304 260
-0.0181733 0.69099998 -0.024231065 6.1695318e-39 305 260
-0.016961746 0.69099998 -0.024231065 6.3521224e-39 306 260
-0.015727401 0.69 -0.024195999 5.9833385e-39 307 260
-0.014517599 0.69 -0.024195999 5.2468496e-39 308 260
-0.013327086 0.69099998 -0.024231065 4.7862316e-39 309 260
-0.012115533 0.69099998 -0.024231065 4.6014802e-39 310 260
-0.010888199 0.69 -0.024195999 4.6936772e-39 311 260
-0.0096783992 0.69 -0.024195999 4.786226e-39 312 260
-0.0084686 0.69 -0.024195999 4.9702571e-39 313 260
-0.0072587994 0.69 -0.024195999 4.9702571e-39 314 260
-0.0060577663 0.69099998 -0.024231065 4.9702571e-39 315 260
-0.0048462129 0.69099998 -0.024231065 4.9699068e-39 316 260
-0.0036451798 0.69300002 -0.024301201 4.7858757e-39 317 260
-0.00243012 0.69300002 -0.024301201 5.1528561e-39 318 260
-0.00121506 0.69300002 -0.024301201 5.1528561e-39 319 260
0 0.69400001 -0.024336265 5.1521372e-39 320 260
0.0012203199 0.69599998 -0.0244064 5.5205596e-39 321 260
0.0024406398 0.69599998 -0.0244064 5.5227176e-39 322 260
0.0036609597 0.69599998 -0.0244064 5.7993045e-39 323 260
0.0048812795 0.69599998 -0.0244064 5.7078278e-39 324 260
0.0061103669 0.69700003 -0.024441468 5.892219e-39 325 260
0.00733244 0.69700003 -0.024441468 5.7092739e-39 326 260
0.0085667865 0.69800001 -0.024476532 5.7092739e-39 327 260
0.0097906133 0.69800001 -0.024476532 5.6167237e-39 328 260
0.011061779 0.70099998 -0.024581732 5.5245281e-39 329 260
0.012325933 0.70300001 -0.024651866 5.7092767e-39 330 260
0.013577812 0.704 -0.024686933 5.893668e-39 331 260
0.014854239 0.70599997 -0.024757065 5.518787e-39 332 260
0.016114887 0.70700002 -0.024792133 5.3343957e-39 333 260
0.017354494 0.70700002 -0.024792133 9.8685449e-39 334 260
-0.031910665 0.69999999 -0.025773998 1.7879799e-38 294 261
-0.030595668 0.69800001 -0.025700359 1.4745148e-38 295 261
-0.029371841 0.69800001 -0.025700359 1.0863536e-38 296 261
-0.028148014 0.69800001 -0.025700359 7.8210839e-39 297 261
-0.026885614 0.69700003 -0.025663542 6.3517174e-39 298 261
-0.025626717 0.69599998 -0.025626717 7.1811179e-39 299 261
-0.0244064 0.69599998 -0.025626717 6.6294113e-39 300 261
-0.023119451 0.69400001 -0.025553079 6.4453802e-39 301 261
-0.021902639 0.69400001 -0.025553079 5.9851349e-39 302 261
-0.020685827 0.69400001 -0.025553079 5.9851349e-39 303 261
-0.019384852 0.69099998 -0.025442619 5.6188789e-39 304 261
-0.0181733 0.69099998 -0.025442619 5.6188789e-39 305 261
-0.016961746 0.69099998 -0.025442619 5.7114277e-39 306 261
-0.015727401 0.69 -0.025405798 5.4344821e-39 307 261
-0.014517599 0.69 -0.025405798 5.4326674e-39 308 261
-0.013327086 0.69099998 -0.025442619 4.9716892e-39 309 261
-0.012115533 0.69099998 -0.025442619 4.7865819e-39 310 261
-0.010888199 0.69 -0.025405798 4.6943863e-39 311 261
-0.0096783992 0.69 -0.025405798 4.4188882e-39 312 261
-0.0084686 0.69 -0.025405798 4.5110838e-39 313 261
-0.0072587994 0.69 -0.025405798 4.6032795e-39 314 261
-0.0060577663 0.69099998 -0.025442619 4.7873106e-39 315 261
-0.0048462129 0.69099998 -0.025442619 4.7865973e-39 316 261
-0.0036451798 0.69300002 -0.02551626 4.6944017e-39 317 261
-0.00243012 0.69300002 -0.02551626 4.6933269e-39 318 261
-0.00121506 0.69300002 -0.02551626 4.6011313e-39 319 261
0 0.69300002 -0.02551626 4.6018501e-39 320 261
0.0012168133 0.69400001 -0.025553079 4.878437e-39 321 261
0.0024336267 0.69400001 -0.025553079 5.1550225e-39 322 261
0.0036609597 0.69599998 -0.025626717 5.3394152e-39 323 261
0.0048812795 0.69599998 -0.025626717 5.2490202e-39 324 261
0.0061015999 0.69599998 -0.025626717 5.2490202e-39 325 261
0.00733244 0.69700003 -0.025663542 5.5245309e-39 326 261
0.0085667865 0.69800001 -0.025700359 5.4319766e-39 327 261
0.0097906133 0.69800001 -0.025700359 5.4319794e-39 328 261
0.011061779 0.70099998 -0.025810819 5.2479482e-39 329 261
0.012290866 0.70099998 -0.025810819 5.2486699e-39 330 261
0.013577812 0.704 -0.02592128 5.3408655e-39 331 261
0.014854239 0.70599997 -0.025994917 4.9710208e-39 332 261
0.016114887 0.70700002 -0.02603174 4.3256514e-39 333 261
0.017379038 0.708 -0.026068559 6.825013e-39 334 261
-0.030595668 0.69800001 -0.026924185 1.677455e-38 295 262
-0.029371841 0.69800001 -0.026924185 1.4463854e-38 296 262
-0.028148014 0.69800001 -0.026924185 9.6696811e-39 297 262
-0.026885614 0.69700003 -0.026885614 7.2689948e-39 298 262
-0.025663542 0.69700003 -0.026885614 7.8221601e-39 299 262
-0.0244064 0.69599998 -0.026847038 6.7230377e-39 300 262
-0.023119451 0.69400001 -0.026769891 6.538645e-39 301 262
-0.021902639 0.69400001 -0.026769891 6.3531944e-39 302 262
-0.020685827 0.69400001 -0.026769891 6.2609987e-39 303 262
-0.01944096 0.69300002 -0.02673132 5.6188761e-39 304 262
-0.0181733 0.69099998 -0.026654173 5.7110718e-39 305 262
-0.016961746 0.69099998 -0.026654173 5.7128654e-39 306 262
-0.015727401 0.69 -0.026615599 5.5284756e-39 307 262
-0.014517599 0.69 -0.026615599 5.1611252e-39 308 262
-0.0133078 0.69 -0.026615599 4.5157558e-39 309 262
-0.012115533 0.69099998 -0.026654173 4.6969128e-39 310 262
-0.010888199 0.69 -0.026615599 4.3284904e-39 311 262
-0.0096783992 0.69 -0.026615599 4.5110838e-39 312 262
-0.0084686 0.69 -0.026615599 4.6032795e-39 313 262
-0.0072587994 0.69 -0.026615599 4.6032795e-39 314 262
-0.0060577663 0.69099998 -0.026654173 4.6032795e-39 315 262
-0.0048462129 0.69099998 -0.026654173 4.6032851e-39 316 262
-0.0036451798 0.69300002 -0.02673132 4.5107307e-39 317 262
-0.00243012 0.69300002 -0.02673132 4.6011313e-39 318 262
-0.00121506 0.69300002 -0.02673132 4.5089342e-39 319 262
0 0.69300002 -0.02673132 4.6011271e-39 320 262
0.0012168133 0.69400001 -0.026769891 4.7858785e-39 321 262
0.0024336267 0.69400001 -0.026769891 5.0621052e-39 322 262
0.0036609597 0.69599998 -0.026847038 5.3390522e-39 323 262
0.0048812795 0.69599998 -0.026847038 5.1561057e-39 324 262
0.0061015999 0.69599998 -0.026847038 5.2483014e-39 325 262
0.00733244 0.69700003 -0.026885614 5.2479454e-39 326 262
0.0085545136 0.69700003 -0.026885614 5.2479454e-39 327 262
0.0097906133 0.69800001 -0.026924185 5.0642758e-39 328 262
0.011045999 0.69999999 -0.027001332 4.9717215e-39 329 262
0.012290866 0.70099998 -0.027039904 5.063201e-39 330 262
0.013558527 0.70300001 -0.027117053 5.1553967e-39 331 262
0.014854239 0.70599997 -0.027232772 5.1550491e-39 332 262
0.016114887 0.70700002 -0.027271347 4.7859065e-39 333 262
0.017379038 0.708 -0.027309919 3.8740339e-39 334 262
0.0186204 0.708 -0.027309919 1.0972737e-38 335 262
-0.029371841 0.69800001 -0.028148014 1.7506685e-38 296 263
-0.028148014 0.69800001 -0.028148014 1.38185e-38 297 263
-0.026924185 0.69800001 -0.028148014 1.0494024e-38 298 263
-0.025663542 0.69700003 -0.028107686 8.0973079e-39 299 263
-0.0244064 0.69599998 -0.028067358 6.904538e-39 300 263
-0.023119451 0.69400001 -0.027986705 7.5499075e-39 301 263
-0.021902639 0.69400001 -0.027986705 6.5379444e-39 302 263
-0.020685827 0.69400001 -0.027986705 6.3531944e-39 303 263
-0.01944096 0.69300002 -0.027946379 5.7117934e-39 304 263
-0.0181733 0.69099998 -0.027865725 5.7117934e-39 305 263
-0.016961746 0.69099998 -0.027865725 5.8039891e-39 306 263
-0.015727401 0.69 -0.027825398 5.8039891e-39 307 263
-0.014517599 0.69 -0.027825398 5.619595e-39 308 263
-0.0133078 0.69 -0.027825398 5.1586169e-39 309 263
-0.012115533 0.69099998 -0.027865725 4.8813083e-39 310 263
-0.010888199 0.69 -0.027825398 4.7891127e-39 311 263
-0.0096783992 0.69 -0.027825398 4.879509e-39 312 263
-0.0084686 0.69 -0.027825398 4.879509e-39 313 263
-0.0072587994 0.69 -0.027825398 4.879509e-39 314 263
-0.0060577663 0.69099998 -0.027865725 4.879509e-39 315 263
-0.0048462129 0.69099998 -0.027865725 4.7873134e-39 316 263
-0.0036346598 0.69099998 -0.027865725 4.5110866e-39 317 263
-0.0024231065 0.69099998 -0.027865725 4.325622e-39 318 263
-0.0012115532 0.69099998 -0.027865725 4.325622e-39 319 263
0 0.69300002 -0.027946379 4.6011313e-39 320 263
0.0012168133 0.69400001 -0.027986705 4.6933269e-39 321 263
0.0024336267 0.69400001 -0.027986705 4.9695537e-39 322 263
0.0036504399 0.69400001 -0.027986705 5.1543037e-39 323 263
0.0048812795 0.69599998 -0.028067358 4.9713585e-39 324 263
0.0061015999 0.69599998 -0.028067358 5.1557498e-39 325 263
0.00733244 0.69700003 -0.028107686 5.064273e-39 326 263
0.0085545136 0.69700003 -0.028107686 4.9720774e-39 327 263
0.0097906133 0.69800001 -0.028148014 4.7876931e-39 328 263
0.01101444 0.69800001 -0.028148014 4.6954961e-39 329 263
0.012273333 0.69999999 -0.028228667 4.6951458e-39 330 263
0.013558527 0.70300001 -0.028349647 4.7873428e-39 331 263
0.014854239 0.70599997 -0.028470624 5.0635724e-39 332 263
0.016114887 0.70700002 -0.028510952 4.971018e-39 333 263
0.017379038 0.708 -0.02855128 2.5825763e-39 334 263
0.018672999 0.70999998 -0.028631933 8.9437146e-39 335 263
-0.028228667 0.69999999 -0.029455997 1.6679836e-38 297 264
-0.026924185 0.69800001 -0.029371841 1.4370206e-38 298 264
-0.025663542 0.69700003 -0.02932976 9.8529807e-39 299 264
-0.0244064 0.69599998 -0.029287677 7.3615477e-39 300 264
-0.023119451 0.69400001 -0.029203519 8.1912958e-39 301 264
-0.021902639 0.69400001 -0.029203519 6.3556985e-39 302 264
-0.020685827 0.69400001 -0.029203519 6.3556985e-39 303 264
-0.01944096 0.69300002 -0.029161438 6.0791312e-39 304 264
-0.0181733 0.69099998 -0.029077278 6.0791312e-39 305 264
-0.016961746 0.69099998 -0.029077278 5.8036401e-39 306 264
-0.015727401 0.69 -0.029035198 5.7114431e-39 307 264
-0.014517599 0.69 -0.029035198 5.6192419e-39 308 264
-0.0133078 0.69 -0.029035198 5.3430151e-39 309 264
-0.012115533 0.69099998 -0.029077278 5.0667772e-39 310 264
-0.010888199 0.69 -0.029035198 4.8820272e-39 311 264
-0.0096783992 0.69 -0.029035198 5.0649793e-39 312 264
-0.0084686 0.69 -0.029035198 4.9724249e-39 313 264
-0.0072587994 0.69 -0.029035198 4.9727809e-39 314 264
-0.0060577663 0.69099998 -0.029077278 4.9727809e-39 315 264
-0.0048462129 0.69099998 -0.029077278 4.7887455e-39 316 264
-0.0036346598 0.69099998 -0.029077278 4.5117999e-39 317 264
-0.0024231065 0.69099998 -0.029077278 4.6022005e-39 318 264
-0.0012115532 0.69099998 -0.029077278 4.6022005e-39 319 264
0 0.69099998 -0.029077278 4.6022005e-39 320 264
0.00121506 0.69300002 -0.029161438 4.6943961e-39 321 264
0.00243012 0.69300002 -0.029161438 4.9699096e-39 322 264
0.0036504399 0.69400001 -0.029203519 4.9699096e-39 323 264
0.0048672534 0.69400001 -0.029203519 4.7869659e-39 324 264
0.0061015999 0.69599998 -0.029287677 4.8791615e-39 325 264
0.00733244 0.69700003 -0.02932976 4.7880463e-39 326 264
0.0085545136 0.69700003 -0.02932976 4.6954905e-39 327 264
0.0097906133 0.69800001 -0.029371841 4.7869659e-39 328 264
0.01101444 0.69800001 -0.029371841 4.7869659e-39 329 264
0.012273333 0.69999999 -0.029455997 4.6029446e-39 330 264
0.013558527 0.70300001 -0.029582238 4.6951402e-39 331 264
0.01487528 0.70700002 -0.029750559 4.8802545e-39 332 264
0.016114887 0.70700002 -0.029750559 4.7880589e-39 333 264
0.017379038 0.708 -0.02979264 2.8566352e-39 334 264
0.0186204 0.708 -0.02979264 8.1117861e-39 335 264
0.01994592 0.71100003 -0.029918881 1.5855497e-38 336 264
-0.026847038 0.69599998 -0.030507999 1.7599619e-38 298 265
-0.025626717 0.69599998 -0.030507999 1.4925946e-38 299 265
-0.0244064 0.69599998 -0.030507999 1.1603621e-38 300 265
-0.023119451 0.69400001 -0.030420333 7.5470138e-39 301 265
-0.021902639 0.69400001 -0.030420333 5.6184684e-39 302 265
-0.020685827 0.69400001 -0.030420333 6.4478689e-39 303 265
-0.01944096 0.69300002 -0.0303765 6.1724002e-39 304 265
-0.0181733 0.69099998 -0.030288832 6.0802046e-39 305 265
-0.016961746 0.69099998 -0.030288832 5.8039863e-39 306 265
-0.015727401 0.69 -0.030244999 5.7117906e-39 307 265
-0.014517599 0.69 -0.030244999 5.5284784e-39 308 265
-0.0133078 0.69 -0.030244999 5.4362827e-39 309 265
-0.012097999 0.69 -0.030244999 5.3433682e-39 310 265
-0.010888199 0.69 -0.030244999 5.0664212e-39 311 265
-0.0096783992 0.69 -0.030244999 5.2490146e-39 312 265
-0.0084686 0.69 -0.030244999 5.156819e-39 313 265
-0.0072587994 0.69 -0.030244999 4.9738627e-39 314 265
-0.0060577663 0.69099998 -0.030288832 4.8813083e-39 315 265
-0.0048462129 0.69099998 -0.030288832 4.7894658e-39 316 265
-0.0036346598 0.69099998 -0.030288832 4.6972688e-39 317 265
-0.0024231065 0.69099998 -0.030288832 4.4206833e-39 318 265
-0.0012115532 0.69099998 -0.030288832 4.4206833e-39 319 265
0 0.69099998 -0.030288832 4.3292065e-39 320 265
0.00121506 0.69300002 -0.0303765 4.3292065e-39 321 265
0.00243012 0.69300002 -0.0303765 4.7873106e-39 322 265
0.0036504399 0.69400001 -0.030420333 4.7873106e-39 323 265
0.0048672534 0.69400001 -0.030420333 4.878437e-39 324 265
0.0061015999 0.69599998 -0.030507999 4.878437e-39 325 265
0.00733244 0.69700003 -0.030551834 4.9713557e-39 326 265
0.0085545136 0.69700003 -0.030551834 4.8791587e-39 327 265
0.0097906133 0.69800001 -0.030595668 4.6036508e-39 328 265
0.01101444 0.69800001 -0.030595668 4.6036508e-39 329 265
0.012273333 0.69999999 -0.030683333 4.6040137e-39 330 265
0.013558527 0.70300001 -0.030814834 4.6962108e-39 331 265
0.014812159 0.704 -0.030858666 4.6972954e-39 332 265
0.016092092 0.70599997 -0.030946331 4.8813265e-39 333 265
0.017354494 0.70700002 -0.030990168 4.0501407e-39 334 265
0.0186204 0.708 -0.031034 8.4755296e-39 335 265
0.01994592 0.71100003 -0.031165501 1.5485995e-38 336 265
-0.025626717 0.69599998 -0.031728316 1.6773494e-38 299 266
-0.0244064 0.69599998 -0.031728316 1.538763e-38 300 266
-0.023119451 0.69400001 -0.031637147 9.7633383e-39 301 266
-0.021902639 0.69400001 -0.031637147 6.8130459e-39 302 266
-0.020685827 0.69400001 -0.031637147 7.1818228e-39 303 266
-0.01944096 0.69300002 -0.031591557 6.7219545e-39 304 266
-0.0181733 0.69099998 -0.031500384 6.6297588e-39 305 266
-0.016961746 0.69099998 -0.031500384 6.5386618e-39 306 266
-0.015727401 0.69 -0.031454802 6.4464648e-39 307 266
-0.014517599 0.69 -0.031454802 5.8958119e-39 308 266
-0.0133078 0.69 -0.031454802 5.7114221e-39 309 266
-0.012097999 0.69 -0.031454802 5.3437214e-39 310 266
-0.010888199 0.69 -0.031454802 5.251167e-39 311 266
-0.0096783992 0.69 -0.031454802 5.61743e-39 312 266
-0.008480873 0.69099998 -0.031500384 5.43268e-39 313 266
-0.0072693196 0.69099998 -0.031500384 5.0660527e-39 314 266
-0.0060577663 0.69099998 -0.031500384 4.9738571e-39 315 266
-0.0048462129 0.69099998 -0.031500384 5.1575224e-39 316 266
-0.0036346598 0.69099998 -0.031500384 4.9731312e-39 317 266
-0.0024231065 0.69099998 -0.031500384 4.7898189e-39 318 266
-0.0012115532 0.69099998 -0.031500384 4.7898189e-39 319 266
0 0.69099998 -0.031500384 4.8820117e-39 320 266
0.00121506 0.69300002 -0.031591557 4.7898161e-39 321 266
0.00243012 0.69300002 -0.031591557 4.7890987e-39 322 266
0.0036451798 0.69300002 -0.031591557 4.696903e-39 323 266
0.0048672534 0.69400001 -0.031637147 4.879509e-39 324 266
0.0061015999 0.69599998 -0.031728316 4.879509e-39 325 266
0.0073219193 0.69599998 -0.031728316 4.9713557e-39 326 266
0.0085545136 0.69700003 -0.03177391 4.8791587e-39 327 266
0.0097906133 0.69800001 -0.031819493 4.8791587e-39 328 266
0.01101444 0.69800001 -0.031819493 4.7869631e-39 329 266
0.012273333 0.69999999 -0.031910665 4.6043697e-39 330 266
0.013558527 0.70300001 -0.032047424 4.7887623e-39 331 266
0.014812159 0.704 -0.032093015 4.8813293e-39 332 266
0.016092092 0.70599997 -0.032184184 5.1579176e-39 333 266
0.017354494 0.70700002 -0.032229774 4.8777364e-39 334 266
0.018594101 0.70700002 -0.032229774 8.2889761e-39 335 266
0.019833706 0.70700002 -0.032229774 1.5025732e-38 336 266
-0.02639994 0.71700001 -0.033942781 1.5855488e-38 299 267
-0.0251428 0.71700001 -0.033942781 1.5572044e-38 300 267
-0.02388566 0.71700001 -0.033942781 1.3543382e-38 301 267
-0.02262852 0.71700001 -0.033942781 1.1700531e-38 302 267
-0.020685827 0.69400001 -0.032853961 1.0132847e-38 303 267
-0.019469013 0.69400001 -0.032853961 8.196021e-39 304 267
-0.0181733 0.69099998 -0.032711938 7.1815103e-39 305 267
-0.016961746 0.69099998 -0.032711938 6.2653175e-39 306 267
-0.015750192 0.69099998 -0.032711938 5.8965364e-39 307 267
-0.014538639 0.69099998 -0.032711938 5.8039863e-39 308 267
-0.013327086 0.69099998 -0.032711938 5.7117906e-39 309 267
-0.012115533 0.69099998 -0.032711938 5.5274022e-39 310 267
-0.01090398 0.69099998 -0.032711938 5.3430123e-39 311 267
-0.0096924258 0.69099998 -0.032711938 5.1586169e-39 312 267
-0.008480873 0.69099998 -0.032711938 5.1586169e-39 313 267
-0.0072693196 0.69099998 -0.032711938 4.9742256e-39 314 267
-0.0060577663 0.69099998 -0.032711938 4.88203e-39 315 267
-0.0048462129 0.69099998 -0.032711938 4.9742284e-39 316 267
-0.0036346598 0.69099998 -0.032711938 4.8820328e-39 317 267
-0.0024231065 0.69099998 -0.032711938 4.8820328e-39 318 267
-0.0012115532 0.69099998 -0.032711938 4.8820328e-39 319 267
0 0.69099998 -0.032711938 4.6987149e-39 320 267
0.00121506 0.69300002 -0.03280662 4.6987149e-39 321 267
0.00243012 0.69300002 -0.03280662 4.8823831e-39 322 267
0.0036451798 0.69300002 -0.03280662 4.698352e-39 323 267
