# .PCD v.7 - Point Cloud Data file format
FIELDS x y z rgb imX imY
SIZE 4 4 4 4 4 4
TYPE F F F F F F
COUNT 1 1 1 1 1 1
WIDTH 841
HEIGHT 1
VIEWPOINT 0 0 0 1 0 0 0
POINTS 841
DATA ascii
-0.042355273 0.833 -0 1.152736e-38 291 240
-0.040992931 0.83499998 -0 1.4020945e-38 292 240
-0.039528899 0.83499998 -0 1.475851e-38 293 240
-0.038064864 0.83499998 -0 1.447508e-38 294 240
-0.036600832 0.83499998 -0 1.4198853e-38 295 240
-0.035136797 0.83499998 -0 1.2176682e-38 296 240
-0.033672765 0.83499998 -0 1.2452909e-38 297 240
-0.03220873 0.83499998 -0 1.4755657e-38 298 240
-0.030744698 0.83499998 -0 1.6783961e-38 299 240
-0.029280664 0.83499998 -0 1.7516845e-38 300 240
-0.027816633 0.83499998 -0 1.2630117e-38 301 240
-0.026352599 0.83499998 -0 1.1535979e-38 302 240
-0.024828954 0.833 -0 1.5684423e-38 303 240
-0.023368426 0.833 -0 1.9267798e-38 304 240
-0.0219079 0.833 -0 1.9359993e-38 305 240
-0.020447372 0.833 -0 1.6692075e-38 306 240
-0.019032432 0.83499998 -0 1.364962e-38 307 240
-0.017568398 0.83499998 -0 1.5301979e-38 308 240
-0.016104365 0.83499998 -0 1.7883456e-38 309 240
-0.014640332 0.83499998 -0 1.8622486e-38 310 240
-0.013207859 0.83700001 -0 1.8622486e-38 311 240
-0.011740319 0.83700001 -0 1.8621725e-38 312 240
-0.01027278 0.83700001 -0 1.6132443e-38 313 240
-0.0088052405 0.83700001 -0 1.8067104e-38 314 240
-0.0073376996 0.83700001 -0 2.1754569e-38 315 240
-0.0058701597 0.83700001 -0 2.2220572e-38 316 240
-0.0044026203 0.83700001 -0 2.2220572e-38 317 240
-0.0029280665 0.83499998 -0 1.7512131e-38 318 240
-0.0014640333 0.83499998 -0 1.5668219e-38 319 240
0 0.83499998 -0 2.0838013e-38 320 240
0.0014640333 0.83499998 -0 2.3326215e-38 321 240
0.0029280665 0.83499998 -0 2.3508409e-38 322 240
0.0043920996 0.83499998 -0 2.1385388e-38 323 240
0.0058561331 0.83499998 -0 1.5034743e-38 324 240
0.0073201661 0.83499998 -0 1.7063047e-38 325 240
0.0087841991 0.83499998 -0 2.1668153e-38 326 240
0.010248233 0.83499998 -0 2.203693e-38 327 240
0.011684213 0.833 -0 2.2586487e-38 328 240
0.01314474 0.833 -0 1.9912814e-38 329 240
0.014570199 0.83099997 -0 1.6878284e-38 330 240
0.01602722 0.83099997 -0 1.8169023e-38 331 240
0.017526319 0.833 -0 2.056107e-38 332 240
0.018986847 0.833 -0 2.0653266e-38 333 240
0.020447372 0.833 -0 2.0929504e-38 334 240
0.0219079 0.833 -0 1.8716807e-38 335 240
0.023368426 0.833 -0 1.5767636e-38 336 240
0.024888566 0.83499998 -0 1.7427517e-38 337 240
0.026352599 0.83499998 -0 2.0554233e-38 338 240
0.027816633 0.83499998 -0 2.0185452e-38 339 240
0.029140398 0.83099997 -0 2.0459148e-38 340 240
0.030523779 0.829 -0 1.8707431e-38 341 240
0.031977292 0.829 -0 1.5220191e-38 342 240
0.033350151 0.82700002 -0 1.586556e-38 343 240
0.034715999 0.82499999 -0 1.7421747e-38 344 240
0.036162499 0.82499999 -0 1.6961127e-38 345 240
0.037608996 0.82499999 -0 1.7425324e-38 346 240
0.040600184 0.82700002 -0 1.6682364e-38 348 240
0.041948497 0.82499999 -0 1.548418e-38 349 240
0.043394998 0.82499999 -0 1.3281578e-38 350 240
0.044841498 0.82499999 -0 1.3373774e-38 351 240
0.060752995 0.82499999 -0 1.1983652e-38 362 240
0.062048711 0.82300001 -0 1.4196349e-38 363 240
0.06349171 0.82300001 -0 1.7423157e-38 364 240
0.064776897 0.82099998 -0 1.6132418e-38 365 240
0.066216379 0.82099998 -0 1.2631835e-38 366 240
0.067655869 0.82099998 -0 1.1986466e-38 367 240
0.069095351 0.82099998 -0 1.3920053e-38 368 240
0.070534848 0.82099998 -0 1.7423489e-38 369 240
0.083896995 0.82499999 -0 9.8648904e-39 378 240
0.085343495 0.82499999 -0 1.0418064e-38 379 240
0.086579598 0.82300001 -0 9.6002005e-39 380 240
0.08802259 0.82300001 -0 1.4025232e-38 381 240
0.089465588 0.82300001 -0 1.5668923e-38 382 240
0.090908572 0.82300001 -0 1.1335368e-38 383 240
0.092351571 0.82300001 -0 8.9479787e-39 384 240
0.093794569 0.82300001 -0 1.0238718e-38 385 240
0.10364304 0.82099998 -0 1.1427567e-38 392 240
0.10508252 0.82099998 -0 1.3548066e-38 393 240
0.10626251 0.81900001 -0 1.3721662e-38 394 240
0.10769849 0.81900001 -0 8.2821181e-39 395 240
-0.12883492 0.83499998 -0.0014640333 2.3415519e-38 232 241
-0.12737089 0.83499998 -0.0014640333 2.3509886e-38 233 241
-0.12590685 0.83499998 -0.0014640333 2.3509886e-38 234 241
-0.12444282 0.83499998 -0.0014640333 1.7795574e-38 235 241
-0.12297879 0.83499998 -0.0014640333 1.2272103e-38 236 241
-0.12209687 0.83899999 -0.0014710466 1.1441982e-38 237 241
-0.12062582 0.83899999 -0.0014710466 1.4199925e-38 238 241
-0.11915477 0.83899999 -0.0014710466 1.4015175e-38 239 241
-0.11768372 0.83899999 -0.0014710466 1.52112e-38 240 241
-0.11621268 0.83899999 -0.0014710466 1.5580343e-38 241 241
-0.11474164 0.83899999 -0.0014710466 1.3833666e-38 242 241
-0.11327058 0.83899999 -0.0014710466 1.355672e-38 243 241
-0.11179955 0.83899999 -0.0014710466 1.5302326e-38 244 241
-0.1103285 0.83899999 -0.0014710466 1.5487076e-38 245 241
-0.10885745 0.83899999 -0.0014710466 1.3372297e-38 246 241
-0.1073864 0.83899999 -0.0014710466 1.1436189e-38 247 241
-0.10591535 0.83899999 -0.0014710466 1.2541438e-38 248 241
-0.10419534 0.83700001 -0.0014675399 1.2910222e-38 249 241
-0.10272779 0.83700001 -0.0014675399 1.4101243e-38 250 241
-0.10126026 0.83700001 -0.0014675399 1.4746612e-38 251 241
-0.099792719 0.83700001 -0.0014675399 1.4844941e-38 252 241
-0.098325178 0.83700001 -0.0014675399 1.4291767e-38 253 241
-0.096857637 0.83700001 -0.0014675399 1.3369811e-38 254 241
-0.095618032 0.83899999 -0.0014710466 1.447616e-38 255 241
-0.094371416 0.84100002 -0.0014745534 1.5120802e-38 256 241
-0.092896856 0.84100002 -0.0014745534 1.4199206e-38 257 241
-0.090987481 0.83700001 -0.0014675399 1.3464878e-38 258 241
-0.089519933 0.83700001 -0.0014675399 1.4202443e-38 259 241
-0.087841995 0.83499998 -0.0014640333 1.5303396e-38 260 241
-0.086377963 0.83499998 -0.0014640333 1.4197407e-38 261 241
-0.084913932 0.83499998 -0.0014640333 1.3556355e-38 262 241
-0.083449893 0.83499998 -0.0014640333 1.4570147e-38 263 241
-0.081789486 0.833 -0.0014605266 1.4474361e-38 264 241
-0.080328964 0.833 -0.0014605266 1.3736796e-38 265 241
-0.078868434 0.833 -0.0014605266 1.5305916e-38 266 241
-0.077407911 0.833 -0.0014605266 1.5305916e-38 267 241
-0.075947389 0.833 -0.0014605266 1.3737871e-38 268 241
-0.074486859 0.833 -0.0014605266 1.4475436e-38 269 241
-0.073026337 0.833 -0.0014605266 1.4937856e-38 270 241
-0.071737625 0.83499998 -0.0014640333 1.3831509e-38 271 241
-0.070105277 0.833 -0.0014605266 1.3556002e-38 272 241
-0.068644755 0.833 -0.0014605266 1.4662348e-38 273 241
-0.067184225 0.833 -0.0014605266 1.466055e-38 274 241
-0.065881498 0.83499998 -0.0014640333 1.3554202e-38 275 241
-0.064263172 0.833 -0.0014605266 1.3924064e-38 276 241
-0.062802643 0.833 -0.0014605266 1.484566e-38 277 241
-0.061342116 0.833 -0.0014605266 1.4567635e-38 278 241
-0.05988159 0.833 -0.0014605266 1.3461288e-38 279 241
-0.058421064 0.833 -0.0014605266 1.4199572e-38 280 241
-0.056960538 0.833 -0.0014605266 1.4937137e-38 281 241
-0.055500012 0.833 -0.0014605266 1.3832581e-38 282 241
-0.054039486 0.833 -0.0014605266 1.3371962e-38 283 241
-0.05257896 0.833 -0.0014605266 1.475239e-38 284 241
-0.051118433 0.833 -0.0014605266 1.475239e-38 285 241
-0.049538679 0.83099997 -0.0014570199 1.2913149e-38 286 241
-0.048081655 0.83099997 -0.0014570199 1.2820953e-38 287 241
-0.046624638 0.83099997 -0.0014570199 1.4843143e-38 288 241
-0.045276325 0.833 -0.0014605266 1.4843143e-38 289 241
-0.043815799 0.833 -0.0014605266 1.4106304e-38 290 241
-0.042355273 0.833 -0.0014605266 1.4382531e-38 291 241
-0.040894743 0.833 -0.0014605266 1.4936786e-38 292 241
-0.039434217 0.833 -0.0014605266 1.3738245e-38 293 241
-0.038064864 0.83499998 -0.0014640333 1.2358546e-38 294 241
-0.036600832 0.83499998 -0.0014640333 1.4294654e-38 295 241
-0.035136797 0.83499998 -0.0014640333 1.5303048e-38 296 241
-0.033672765 0.83499998 -0.0014640333 1.3551332e-38 297 241
-0.03220873 0.83499998 -0.0014640333 1.2267079e-38 298 241
-0.030744698 0.83499998 -0.0014640333 1.4018796e-38 299 241
-0.029280664 0.83499998 -0.0014640333 1.420067e-38 300 241
-0.027750006 0.833 -0.0014605266 1.2632985e-38 301 241
-0.02628948 0.833 -0.0014605266 1.4292137e-38 302 241
-0.024828954 0.833 -0.0014605266 1.484531e-38 303 241
-0.023368426 0.833 -0.0014605266 1.3458066e-38 304 241
-0.0219079 0.833 -0.0014605266 1.3642097e-38 305 241
-0.020447372 0.833 -0.0014605266 1.5677226e-38 306 241
-0.018986847 0.833 -0.0014605266 1.4754911e-38 307 241
-0.017526319 0.833 -0.0014605266 1.2446425e-38 308 241
-0.016065793 0.833 -0.0014605266 1.3921557e-38 309 241
-0.014605266 0.833 -0.0014605266 1.5302345e-38 310 241
-0.01314474 0.833 -0.0014605266 1.3735379e-38 311 241
-0.01165616 0.83099997 -0.0014570199 1.2818086e-38 312 241
-0.01019914 0.83099997 -0.0014570199 1.4477247e-38 313 241
-0.0087421201 0.83099997 -0.0014570199 1.4014474e-38 314 241
-0.0072850995 0.83099997 -0.0014570199 1.198617e-38 315 241
-0.0058561331 0.83499998 -0.0014640333 1.2545814e-38 316 241
-0.0043920996 0.83499998 -0.0014640333 1.4020945e-38 317 241
-0.0029210532 0.833 -0.0014605266 1.1805372e-38 318 241
-0.0014605266 0.833 -0.0014605266 1.1529145e-38 319 241
0 0.833 -0.0014605266 1.530916e-38 320 241
0.0014640333 0.83499998 -0.0014640333 1.5401715e-38 321 241
0.0029280665 0.83499998 -0.0014640333 1.5670739e-38 322 241
0.0043815798 0.833 -0.0014605266 1.502537e-38 323 241
0.0058421064 0.833 -0.0014605266 1.1901535e-38 324 241
0.0072850995 0.83099997 -0.0014570199 1.1809339e-38 325 241
0.0087421201 0.83099997 -0.0014570199 1.4023831e-38 326 241
0.010223686 0.833 -0.0014605266 1.808044e-38 327 241
0.01165616 0.83099997 -0.0014570199 2.0185823e-38 328 241
0.013113179 0.83099997 -0.0014570199 1.6682391e-38 329 241
0.014535133 0.829 -0.0014535133 1.392803e-38 330 241
0.015988646 0.829 -0.0014535133 1.5864138e-38 331 241
0.01748424 0.83099997 -0.0014570199 1.9641638e-38 332 241
0.018941259 0.83099997 -0.0014570199 2.0379203e-38 333 241
0.02039828 0.83099997 -0.0014570199 2.1020606e-38 334 241
0.021855298 0.83099997 -0.0014570199 1.7609368e-38 335 241
0.023368426 0.833 -0.0014605266 1.4566915e-38 336 241
0.024828954 0.833 -0.0014605266 1.9637316e-38 337 241
0.02628948 0.833 -0.0014605266 2.3509168e-38 338 241
0.027616752 0.829 -0.0014535133 2.3508809e-38 339 241
0.029070266 0.829 -0.0014535133 2.3498371e-38 340 241
0.030523779 0.829 -0.0014535133 1.9624716e-38 341 241
0.031977292 0.829 -0.0014535133 1.4771807e-38 342 241
0.033350151 0.82700002 -0.0014500066 1.8826263e-38 343 241
0.034715999 0.82499999 -0.0014465 2.3231504e-38 344 241
0.036162499 0.82499999 -0.0014465 2.3323699e-38 345 241
0.037608996 0.82499999 -0.0014465 2.1945086e-38 346 241
0.039150178 0.82700002 -0.0014500066 1.9455444e-38 347 241
0.040600184 0.82700002 -0.0014500066 2.0740795e-38 348 241
0.041948497 0.82499999 -0.0014465 2.2953492e-38 349 241
0.043394998 0.82499999 -0.0014465 2.222383e-38 350 241
0.044732794 0.82300001 -0.0014429933 2.2499695e-38 351 241
0.046175785 0.82300001 -0.0014429933 2.2492124e-38 352 241
0.04761878 0.82300001 -0.0014429933 1.8988331e-38 353 241
0.048942544 0.82099998 -0.0014394866 1.8717861e-38 354 241
0.050382029 0.82099998 -0.0014394866 2.1944708e-38 355 241
0.051821519 0.82099998 -0.0014394866 2.2770895e-38 356 241
0.053261004 0.82099998 -0.0014394866 2.2125526e-38 357 241
0.054966997 0.82499999 -0.0014465 1.9171318e-38 358 241
0.056550261 0.82700002 -0.0014500066 1.7696188e-38 359 241
0.058000267 0.82700002 -0.0014500066 1.9548736e-38 360 241
0.059450272 0.82700002 -0.0014500066 2.0655083e-38 361 241
0.060752995 0.82499999 -0.0014465 2.1110651e-38 362 241
0.062048711 0.82300001 -0.0014429933 2.028089e-38 363 241
0.06349171 0.82300001 -0.0014429933 1.6972278e-38 364 241
0.064934701 0.82300001 -0.0014429933 1.7525451e-38 365 241
0.066216379 0.82099998 -0.0014394866 2.019084e-38 366 241
0.067655869 0.82099998 -0.0014394866 2.0098645e-38 367 241
0.069095351 0.82099998 -0.0014394866 1.9727348e-38 368 241
0.070534848 0.82099998 -0.0014394866 1.862064e-38 369 241
0.072149664 0.82300001 -0.0014429933 1.6970114e-38 370 241
0.075400345 0.82700002 -0.0014500066 1.7979572e-38 372 241
0.076664492 0.82499999 -0.0014465 1.7057614e-38 373 241
0.078110993 0.82499999 -0.0014465 1.640721e-38 374 241
0.079557501 0.82499999 -0.0014465 1.6315014e-38 375 241
0.081004001 0.82499999 -0.0014465 1.5950197e-38 376 241
0.082450494 0.82499999 -0.0014465 1.4475067e-38 377 241
0.083896995 0.82499999 -0.0014465 1.3182528e-38 378 241
0.0851366 0.82300001 -0.0014429933 1.1983984e-38 379 241
0.086369194 0.82099998 -0.0014394866 1.0709073e-38 380 241
0.087808676 0.82099998 -0.0014394866 1.4765321e-38 381 241
0.089465588 0.82300001 -0.0014429933 1.5394146e-38 382 241
0.090908572 0.82300001 -0.0014429933 1.1245703e-38 383 241
0.092127144 0.82099998 -0.0014394866 8.762175e-39 384 241
0.093566626 0.82099998 -0.0014394866 8.762175e-39 385 241
0.10364304 0.82099998 -0.0014394866 9.8595178e-39 392 241
0.10508252 0.82099998 -0.0014394866 1.7327724e-38 393 241
0.10626251 0.81900001 -0.00143598 1.6579e-38 394 241
0.10769849 0.81900001 -0.00143598 5.7924704e-39 395 241
0.10913447 0.81900001 -0.00143598 1.8449608e-39 396 241
-0.13029896 0.83499998 -0.0029280665 2.2852252e-38 231 242
-0.12852634 0.833 -0.0029210532 2.3509886e-38 232 242
-0.12706582 0.833 -0.0029210532 2.3509886e-38 233 242
-0.12560529 0.833 -0.0029210532 2.0382814e-38 234 242
-0.12414476 0.833 -0.0029210532 1.2177401e-38 235 242
-0.12297879 0.83499998 -0.0029280665 1.1348714e-38 236 242
-0.12151476 0.83499998 -0.0029280665 1.3008234e-38 237 242
-0.12005073 0.83499998 -0.0029280665 1.4290323e-38 238 242
-0.11858669 0.83499998 -0.0029280665 1.4013736e-38 239 242
-0.11712266 0.83499998 -0.0029280665 1.5489592e-38 240 242
-0.11593566 0.83700001 -0.0029350799 1.5397396e-38 241 242
-0.11446812 0.83700001 -0.0029350799 1.3646401e-38 242 242
-0.11300057 0.83700001 -0.0029350799 1.410702e-38 243 242
-0.11153304 0.83700001 -0.0029350799 1.6039897e-38 244 242
-0.1100655 0.83700001 -0.0029350799 1.4933189e-38 245 242
-0.10859796 0.83700001 -0.0029350799 1.2174823e-38 246 242
-0.10713042 0.83700001 -0.0029350799 1.1345062e-38 247 242
-0.10566287 0.83700001 -0.0029350799 1.2079703e-38 248 242
-0.10419534 0.83700001 -0.0029350799 1.2171898e-38 249 242
-0.10272779 0.83700001 -0.0029350799 1.5115006e-38 250 242
-0.10126026 0.83700001 -0.0029350799 1.6221354e-38 251 242
-0.099554263 0.83499998 -0.0029280665 1.3924064e-38 252 242
-0.097855285 0.833 -0.0029210532 1.3831509e-38 253 242
-0.096394755 0.833 -0.0029210532 1.4566915e-38 254 242
-0.095162161 0.83499998 -0.0029280665 1.4935339e-38 255 242
-0.093698129 0.83499998 -0.0029280665 1.4292842e-38 256 242
-0.092234097 0.83499998 -0.0029280665 1.3924061e-38 257 242
-0.090770066 0.83499998 -0.0029280665 1.456691e-38 258 242
-0.089306027 0.83499998 -0.0029280665 1.4843496e-38 259 242
-0.087841995 0.83499998 -0.0029280665 1.3741465e-38 260 242
-0.086377963 0.83499998 -0.0029280665 1.3649269e-38 261 242
-0.084913932 0.83499998 -0.0029280665 1.4567635e-38 262 242
-0.083250016 0.833 -0.0029210532 1.4567635e-38 263 242
-0.081789486 0.833 -0.0029210532 1.401518e-38 264 242
-0.080328964 0.833 -0.0029210532 1.3831149e-38 265 242
-0.07867907 0.83099997 -0.0029140399 1.4937856e-38 266 242
-0.077222057 0.83099997 -0.0029140399 1.4661629e-38 267 242
-0.075582691 0.829 -0.0029070266 1.4013743e-38 268 242
-0.074129179 0.829 -0.0029070266 1.4659112e-38 269 242
-0.072324999 0.82499999 -0.0028929999 1.4662348e-38 270 242
-0.070878498 0.82499999 -0.0028929999 1.3648197e-38 271 242
-0.069936961 0.83099997 -0.0029140399 1.3831515e-38 272 242
-0.068479933 0.83099997 -0.0029140399 1.5122254e-38 273 242
-0.067022912 0.83099997 -0.0029140399 1.447616e-38 274 242
-0.065723702 0.833 -0.0029210532 1.3369811e-38 275 242
-0.064263172 0.833 -0.0029210532 1.4016613e-38 276 242
-0.062802643 0.833 -0.0029210532 1.5122601e-38 277 242
-0.061342116 0.833 -0.0029210532 1.4566912e-38 278 242
-0.059737816 0.83099997 -0.0029140399 1.3276174e-38 279 242
-0.058280796 0.83099997 -0.0029140399 1.4752743e-38 280 242
-0.056960538 0.833 -0.0029210532 1.5029688e-38 281 242
-0.055500012 0.833 -0.0029210532 1.3460558e-38 282 242
-0.053909738 0.83099997 -0.0029140399 1.38297e-38 283 242
-0.052452717 0.83099997 -0.0029140399 1.5120805e-38 284 242
-0.050995696 0.83099997 -0.0029140399 1.4106654e-38 285 242
-0.049538679 0.83099997 -0.0029140399 1.2908833e-38 286 242
-0.048081655 0.83099997 -0.0029140399 1.4107376e-38 287 242
-0.046624638 0.83099997 -0.0029140399 1.4842424e-38 288 242
-0.045167617 0.83099997 -0.0029140399 1.4289251e-38 289 242
-0.043710597 0.83099997 -0.0029140399 1.4381449e-38 290 242
-0.042253576 0.83099997 -0.0029140399 1.4934623e-38 291 242
-0.040894743 0.833 -0.0029210532 1.4199219e-38 292 242
-0.039434217 0.833 -0.0029210532 1.3553849e-38 293 242
-0.037973695 0.833 -0.0029210532 1.3646048e-38 294 242
-0.036513168 0.833 -0.0029210532 1.4291417e-38 295 242
-0.035052639 0.833 -0.0029210532 1.4107373e-38 296 242
-0.033592112 0.833 -0.0029210532 1.3646754e-38 297 242
-0.032131586 0.833 -0.0029210532 1.4106301e-38 298 242
-0.030671058 0.833 -0.0029210532 1.4382887e-38 299 242
-0.029210532 0.833 -0.0029210532 1.3004996e-38 300 242
-0.027750006 0.833 -0.0029210532 1.2728407e-38 301 242
-0.02628948 0.833 -0.0029210532 1.4751674e-38 302 242
-0.024828954 0.833 -0.0029210532 1.4659478e-38 303 242
-0.023368426 0.833 -0.0029210532 1.2174517e-38 304 242
-0.021855298 0.83099997 -0.0029140399 1.2358549e-38 305 242
-0.02039828 0.83099997 -0.0029140399 1.5214094e-38 306 242
-0.018941259 0.83099997 -0.0029140399 1.484531e-38 307 242
-0.017442159 0.829 -0.0029070266 1.3459856e-38 308 242
-0.015988646 0.829 -0.0029070266 1.4474366e-38 309 242
-0.014535133 0.829 -0.0029070266 1.5029686e-38 310 242
-0.01308162 0.829 -0.0029070266 1.346236e-38 311 242
-0.011628106 0.829 -0.0029070266 1.3002831e-38 312 242
-0.010174593 0.829 -0.0029070266 1.5215166e-38 313 242
-0.0087210797 0.829 -0.0029070266 1.4109171e-38 314 242
-0.0072675664 0.829 -0.0029070266 1.1896476e-38 315 242
-0.0058280798 0.83099997 -0.0029140399 1.38315e-38 316 242
-0.0043815798 0.833 -0.0029210532 1.530627e-38 317 242
-0.0029210532 0.833 -0.0029210532 1.2819881e-38 318 242
-0.0014605266 0.833 -0.0029210532 1.2358543e-38 319 242
0 0.833 -0.0029210532 1.5673973e-38 320 242
0.0014640333 0.83499998 -0.0029280665 1.4752377e-38 321 242
0.0029280665 0.83499998 -0.0029280665 1.3089612e-38 322 242
0.0043815798 0.833 -0.0029210532 1.4288155e-38 323 242
0.0058421064 0.833 -0.0029210532 1.4936045e-38 324 242
0.0072850995 0.83099997 -0.0029140399 1.2999937e-38 325 242
0.0087421201 0.83099997 -0.0029140399 1.1439818e-38 326 242
0.01019914 0.83099997 -0.0029140399 1.5496426e-38 327 242
0.011628106 0.829 -0.0029070266 1.6960772e-38 328 242
0.01308162 0.829 -0.0029070266 1.4102707e-38 329 242
0.014535133 0.829 -0.0029070266 1.2914225e-38 330 242
0.015988646 0.829 -0.0029070266 1.4573746e-38 331 242
0.017442159 0.829 -0.0029070266 1.5124768e-38 332 242
0.018895673 0.829 -0.0029070266 1.5677942e-38 333 242
0.02039828 0.83099997 -0.0029140399 1.6873595e-38 334 242
0.021855298 0.83099997 -0.0029140399 1.530627e-38 335 242
0.023312319 0.83099997 -0.0029140399 1.2174515e-38 336 242
0.024828954 0.833 -0.0029210532 1.4755992e-38 337 242
0.02628948 0.833 -0.0029210532 1.8989798e-38 338 242
0.027616752 0.829 -0.0029070266 1.8621016e-38 339 242
0.029070266 0.829 -0.0029070266 1.7975624e-38 340 242
0.030523779 0.829 -0.0029070266 1.5117918e-38 341 242
0.031900145 0.82700002 -0.0029000132 1.4476884e-38 342 242
0.033350151 0.82700002 -0.0029000132 1.7242753e-38 343 242
0.034715999 0.82499999 -0.0028929999 1.8439848e-38 344 242
0.036162499 0.82499999 -0.0028929999 1.8808632e-38 345 242
0.037700173 0.82700002 -0.0029000132 1.8252585e-38 346 242
0.039150178 0.82700002 -0.0029000132 1.5947696e-38 347 242
0.040502001 0.82499999 -0.0028929999 1.6687081e-38 348 242
0.041948497 0.82499999 -0.0028929999 1.9176004e-38 349 242
0.043289799 0.82300001 -0.0028859866 1.9272872e-38 350 242
0.044732794 0.82300001 -0.0028859866 1.9180676e-38 351 242
0.046175785 0.82300001 -0.0028859866 1.9361063e-38 352 242
0.04761878 0.82300001 -0.0028859866 1.604202e-38 353 242
0.048942544 0.82099998 -0.0028789733 1.5224488e-38 354 242
0.050382029 0.82099998 -0.0028789733 1.9280736e-38 355 242
0.051821519 0.82099998 -0.0028789733 2.2128046e-38 356 242
0.053261004 0.82099998 -0.0028789733 2.203585e-38 357 242
0.054966997 0.82499999 -0.0028929999 1.7330651e-38 358 242
0.056413498 0.82499999 -0.0028929999 1.4656619e-38 359 242
0.057859998 0.82499999 -0.0028929999 1.75226e-38 360 242
0.059306499 0.82499999 -0.0028929999 2.0380663e-38 361 242
0.060752995 0.82499999 -0.0028929999 2.1849665e-38 362 242
0.062048711 0.82300001 -0.0028859866 2.0374534e-38 363 242
0.06349171 0.82300001 -0.0028859866 1.6048899e-38 364 242
0.064934701 0.82300001 -0.0028859866 1.5311334e-38 365 242
0.066216379 0.82099998 -0.0028789733 1.7800609e-38 366 242
0.067655869 0.82099998 -0.0028789733 1.946049e-38 367 242
0.069095351 0.82099998 -0.0028789733 2.0835153e-38 368 242
0.070534848 0.82099998 -0.0028789733 1.917599e-38 369 242
0.07197433 0.82099998 -0.0028789733 1.6324763e-38 370 242
0.073592655 0.82300001 -0.0028859866 1.7522947e-38 371 242
0.075217992 0.82499999 -0.0028929999 2.0656137e-38 372 242
0.076478645 0.82300001 -0.0028859866 2.1393702e-38 373 242
0.077921636 0.82300001 -0.0028859866 2.2489958e-38 374 242
0.079364628 0.82300001 -0.0028859866 2.0553849e-38 375 242
0.080807626 0.82300001 -0.0028859866 1.7426406e-38 376 242
0.082250617 0.82300001 -0.0028859866 1.8716786e-38 377 242
0.083693616 0.82300001 -0.0028859866 2.074078e-38 378 242
0.084929712 0.82099998 -0.0028789733 2.0002856e-38 379 242
0.086369194 0.82099998 -0.0028789733 1.9265644e-38 380 242
0.087808676 0.82099998 -0.0028789733 1.8804666e-38 381 242
0.089248173 0.82099998 -0.0028789733 1.6782846e-38 382 242
0.090687655 0.82099998 -0.0028789733 1.6230031e-38 383 242
0.092127144 0.82099998 -0.0028789733 1.6228248e-38 384 242
0.093566626 0.82099998 -0.0028789733 1.5582879e-38 385 242
0.095006108 0.82099998 -0.0028789733 1.7242751e-38 386 242
0.096210659 0.81900001 -0.0028719599 1.8533489e-38 387 242
0.097646639 0.81900001 -0.0028719599 1.8251122e-38 388 242
0.099082619 0.81900001 -0.0028719599 1.6222818e-38 389 242
0.10076406 0.82099998 -0.0028789733 1.3375184e-38 390 242
0.10220355 0.82099998 -0.0028789733 1.217664e-38 391 242
0.10364304 0.82099998 -0.0028789733 1.400979e-38 392 242
0.10508252 0.82099998 -0.0028789733 1.714444e-38 393 242
0.10652201 0.82099998 -0.0028789733 1.7791216e-38 394 242
0.10796149 0.82099998 -0.0028789733 1.2812653e-38 395 242
0.10966749 0.82300001 -0.0028859866 1.0138613e-38 396 242
-0.12998687 0.833 -0.0043815798 2.3508413e-38 231 243
-0.12852634 0.833 -0.0043815798 2.3509886e-38 232 243
-0.12706582 0.833 -0.0043815798 2.3325138e-38 233 243
-0.12560529 0.833 -0.0043815798 1.7250309e-38 234 243
-0.12414476 0.833 -0.0043815798 9.0448995e-39 235 243
-0.12297879 0.83499998 -0.0043920996 1.1807527e-38 236 243
-0.12122371 0.833 -0.0043815798 1.3558885e-38 237 243
-0.11976318 0.833 -0.0043815798 1.4198853e-38 238 243
-0.11830266 0.833 -0.0043815798 1.4659831e-38 239 243
-0.11684213 0.833 -0.0043815798 1.5305919e-38 240 243
-0.1153816 0.833 -0.0043815798 1.466055e-38 241 243
-0.11392108 0.833 -0.0043815798 1.4014108e-38 242 243
-0.11246055 0.833 -0.0043815798 1.4659478e-38 243 243
-0.11100002 0.833 -0.0043815798 1.5579987e-38 244 243
-0.1098025 0.83499998 -0.0043920996 1.4104855e-38 245 243
-0.10807897 0.833 -0.0043815798 1.309393e-38 246 243
-0.10661845 0.833 -0.0043815798 1.3370159e-38 247 243
-0.1054104 0.83499998 -0.0043920996 1.3276501e-38 248 243
-0.10394637 0.83499998 -0.0043920996 1.3368697e-38 249 243
-0.10223687 0.833 -0.0043815798 1.5944784e-38 250 243
-0.10077634 0.833 -0.0043815798 1.6590153e-38 251 243
-0.099077359 0.83099997 -0.0043710601 1.3831149e-38 252 243
-0.097385392 0.829 -0.0043605398 1.3738595e-38 253 243
-0.09593188 0.829 -0.0043605398 1.5120449e-38 254 243
-0.094478361 0.829 -0.0043605398 1.4659831e-38 255 243
-0.093249276 0.83099997 -0.0043710601 1.4015178e-38 256 243
-0.091792248 0.83099997 -0.0043710601 1.4199569e-38 257 243
-0.09055265 0.833 -0.0043815798 1.5027166e-38 258 243
-0.089092121 0.833 -0.0043815798 1.4842773e-38 259 243
-0.087631598 0.833 -0.0043815798 1.2362849e-38 260 243
-0.086171068 0.833 -0.0043815798 1.3376642e-38 261 243
-0.084710546 0.833 -0.0043815798 1.5395244e-38 262 243
-0.083250016 0.833 -0.0043815798 1.4381093e-38 263 243
-0.081593119 0.83099997 -0.0043710601 1.3830793e-38 264 243
-0.080136091 0.83099997 -0.0043710601 1.475239e-38 265 243
-0.078489713 0.829 -0.0043605398 1.4569077e-38 266 243
-0.077036202 0.829 -0.0043605398 1.3923708e-38 267 243
-0.075400345 0.82700002 -0.0043500196 1.3556002e-38 268 243
-0.073950343 0.82700002 -0.0043500196 1.4477598e-38 269 243
-0.072149664 0.82300001 -0.0043289801 1.4569428e-38 270 243
-0.070706673 0.82300001 -0.0043289801 1.3739667e-38 271 243
-0.069600314 0.82700002 -0.0043500196 1.3741115e-38 272 243
-0.068150312 0.82700002 -0.0043500196 1.4570877e-38 273 243
-0.066861607 0.829 -0.0043605398 1.4383964e-38 274 243
-0.065408096 0.829 -0.0043605398 1.3554202e-38 275 243
-0.063954584 0.829 -0.0043605398 1.4475789e-38 276 243
-0.062651858 0.83099997 -0.0043710601 1.4844573e-38 277 243
-0.061194837 0.83099997 -0.0043710601 1.4382165e-38 278 243
-0.059737816 0.83099997 -0.0043710601 1.3736796e-38 279 243
-0.058280796 0.83099997 -0.0043710601 1.5028609e-38 280 243
-0.056823779 0.83099997 -0.0043710601 1.4752024e-38 281 243
-0.055366758 0.83099997 -0.0043710601 1.3551683e-38 282 243
-0.053909738 0.83099997 -0.0043710601 1.4289248e-38 283 243
-0.052452717 0.83099997 -0.0043710601 1.4936784e-38 284 243
-0.050872963 0.829 -0.0043605398 1.3553849e-38 285 243
-0.049419452 0.829 -0.0043605398 1.3919395e-38 286 243
-0.04796594 0.829 -0.0043605398 1.5025384e-38 287 243
-0.046512425 0.829 -0.0043605398 1.4199572e-38 288 243
-0.04505891 0.829 -0.0043605398 1.3462007e-38 289 243
-0.043605398 0.829 -0.0043605398 1.4658756e-38 290 243
-0.042151887 0.829 -0.0043605398 1.4842787e-38 291 243
-0.040698372 0.829 -0.0043605398 1.3461651e-38 292 243
-0.039244857 0.829 -0.0043605398 1.3461651e-38 293 243
-0.037882518 0.83099997 -0.0043710601 1.4015178e-38 294 243
-0.036337834 0.829 -0.0043605398 1.3831147e-38 295 243
-0.034884319 0.829 -0.0043605398 1.309393e-38 296 243
-0.033430804 0.829 -0.0043605398 1.3554909e-38 297 243
-0.032054439 0.83099997 -0.0043710601 1.4750212e-38 298 243
-0.030597419 0.83099997 -0.0043710601 1.4288874e-38 299 243
-0.029140398 0.83099997 -0.0043710601 1.3094298e-38 300 243
-0.027683379 0.83099997 -0.0043710601 1.3924058e-38 301 243
-0.026226358 0.83099997 -0.0043710601 1.4934617e-38 302 243
-0.02476934 0.83099997 -0.0043710601 1.401266e-38 303 243
-0.023312319 0.83099997 -0.0043710601 1.3369087e-38 304 243
-0.021802699 0.829 -0.0043605398 1.410701e-38 305 243
-0.020349186 0.829 -0.0043605398 1.4659105e-38 306 243
-0.018895673 0.829 -0.0043605398 1.392154e-38 307 243
-0.017442159 0.829 -0.0043605398 1.4472563e-38 308 243
-0.015988646 0.829 -0.0043605398 1.5302682e-38 309 243
-0.014500067 0.82700002 -0.0043500196 1.4110247e-38 310 243
-0.01305006 0.82700002 -0.0043500196 1.3464878e-38 311 243
-0.011600053 0.82700002 -0.0043500196 1.4382884e-38 312 243
-0.010150046 0.82700002 -0.0043500196 1.53052e-38 313 243
-0.0087000392 0.82700002 -0.0043500196 1.4109171e-38 314 243
-0.0072675664 0.829 -0.0043605398 1.3371606e-38 315 243
-0.0058140531 0.829 -0.0043605398 1.4844219e-38 316 243
-0.0043710601 0.83099997 -0.0043710601 1.5305198e-38 317 243
-0.0029070266 0.829 -0.0043605398 1.3830443e-38 318 243
-0.0014535133 0.829 -0.0043605398 1.3738247e-38 319 243
0 0.829 -0.0043605398 1.5397759e-38 320 243
0.0014605266 0.833 -0.0043815798 1.429177e-38 321 243
0.0029210532 0.833 -0.0043815798 1.2999218e-38 322 243
0.0043710601 0.83099997 -0.0043710601 1.5211553e-38 323 243
0.0058140531 0.829 -0.0043605398 1.6498699e-38 324 243
0.0072675664 0.829 -0.0043605398 1.4470395e-38 325 243
0.0087210797 0.829 -0.0043605398 1.2819881e-38 326 243
0.010174593 0.829 -0.0043605398 1.475599e-38 327 243
0.011600053 0.82700002 -0.0043500196 1.4382887e-38 328 243
0.01305006 0.82700002 -0.0043500196 1.2723367e-38 329 243
0.014500067 0.82700002 -0.0043500196 1.3926579e-38 330 243
0.015950073 0.82700002 -0.0043500196 1.5032925e-38 331 243
0.017400078 0.82700002 -0.0043500196 1.1714257e-38 332 243
0.018895673 0.829 -0.0043605398 1.097669e-38 333 243
0.020349186 0.829 -0.0043605398 1.4477603e-38 334 243
0.021802699 0.829 -0.0043605398 1.4569799e-38 335 243
0.023256212 0.829 -0.0043605398 1.1898644e-38 336 243
0.02476934 0.83099997 -0.0043710601 1.2359982e-38 337 243
0.026226358 0.83099997 -0.0043710601 1.4658759e-38 338 243
0.027616752 0.829 -0.0043605398 1.2906682e-38 339 243
0.029070266 0.829 -0.0043605398 9.9672048e-39 340 243
0.030450139 0.82700002 -0.0043500196 1.2548682e-38 341 243
0.031900145 0.82700002 -0.0043500196 1.4197424e-38 342 243
0.033350151 0.82700002 -0.0043500196 1.2261315e-38 343 243
0.034715999 0.82499999 -0.0043394999 1.1990474e-38 344 243
0.036162499 0.82499999 -0.0043394999 1.3465604e-38 345 243
0.037608996 0.82499999 -0.0043394999 1.3552402e-38 346 243
0.039055496 0.82499999 -0.0043394999 1.2446413e-38 347 243
0.040502001 0.82499999 -0.0043394999 1.2265634e-38 348 243
0.041846808 0.82300001 -0.0043289801 1.3648569e-38 349 243
0.043289799 0.82300001 -0.0043289801 1.3007162e-38 350 243
0.044732794 0.82300001 -0.0043289801 1.2453988e-38 351 243
0.046175785 0.82300001 -0.0043289801 1.3002833e-38 352 243
0.04761878 0.82300001 -0.0043289801 1.1896126e-38 353 243
0.048942544 0.82099998 -0.0043184594 1.1441985e-38 354 243
0.050382029 0.82099998 -0.0043184594 1.3378093e-38 355 243
0.051821519 0.82099998 -0.0043184594 1.5583971e-38 356 243
0.053261004 0.82099998 -0.0043184594 1.5491775e-38 357 243
0.05470049 0.82099998 -0.0043184594 1.3643181e-38 358 243
0.05613998 0.82099998 -0.0043184594 1.281306e-38 359 243
0.057719734 0.82300001 -0.0043289801 1.4018793e-38 360 243
0.059162725 0.82300001 -0.0043289801 1.5309532e-38 361 243
0.06060572 0.82300001 -0.0043289801 1.7333517e-38 362 243
0.061897919 0.82099998 -0.0043184594 1.6965095e-38 363 243
0.063337415 0.82099998 -0.0043184594 1.3927301e-38 364 243
0.064776897 0.82099998 -0.0043184594 1.1253628e-38 365 243
0.066055074 0.81900001 -0.0043079397 1.2457934e-38 366 243
0.067491055 0.81900001 -0.0043079397 1.7713085e-38 367 243
0.068927035 0.81900001 -0.0043079397 2.0190137e-38 368 243
0.070363015 0.81900001 -0.0043079397 1.7424268e-38 369 243
0.071799003 0.81900001 -0.0043079397 1.162313e-38 370 243
0.073413812 0.82099998 -0.0043184594 9.6870221e-39 371 243
0.075217992 0.82499999 -0.0043394999 1.5867372e-38 372 243
0.076478645 0.82300001 -0.0043289801 1.9371165e-38 373 243
0.077921636 0.82300001 -0.0043289801 2.2489955e-38 374 243
0.079364628 0.82300001 -0.0043289801 2.0553847e-38 375 243
0.080807626 0.82300001 -0.0043289801 1.6044185e-38 376 243
0.082250617 0.82300001 -0.0043289801 1.8625663e-38 377 243
0.083490223 0.82099998 -0.0043184594 2.2954544e-38 378 243
0.084929712 0.82099998 -0.0043184594 2.3046741e-38 379 243
0.086369194 0.82099998 -0.0043184594 2.350303e-38 380 243
0.087808676 0.82099998 -0.0043184594 2.1658039e-38 381 243
0.089248173 0.82099998 -0.0043184594 1.7984262e-38 382 243
0.090687655 0.82099998 -0.0043184594 1.992037e-38 383 243
0.092127144 0.82099998 -0.0043184594 2.2496822e-38 384 243
0.093338698 0.81900001 -0.0043079397 2.2865961e-38 385 243
0.094774678 0.81900001 -0.0043079397 2.2683363e-38 386 243
0.096210659 0.81900001 -0.0043079397 2.0655417e-38 387 243
0.097646639 0.81900001 -0.0043079397 1.8622088e-38 388 243
0.099082619 0.81900001 -0.0043079397 2.0742948e-38 389 243
0.10076406 0.82099998 -0.0043184594 2.2591172e-38 390 243
0.10220355 0.82099998 -0.0043184594 2.2775202e-38 391 243
0.10364304 0.82099998 -0.0043184594 2.3414077e-38 392 243
0.10482653 0.81900001 -0.0043079397 2.0094675e-38 393 243
0.10626251 0.81900001 -0.0043079397 1.7433593e-38 394 243
0.10796149 0.82099998 -0.0043184594 2.0475689e-38 395 243
0.10966749 0.82300001 -0.0043289801 2.2679769e-38 396 243
0.11084047 0.82099998 -0.0043184594 2.2311345e-38 397 243
0.11227996 0.82099998 -0.0043184594 2.1108486e-38 398 243
0.11399647 0.82300001 -0.0043289801 1.9632997e-38 399 243
0.11832545 0.82300001 -0.0043289801 1.9541883e-38 402 243
0.11976844 0.82300001 -0.0043289801 1.8619927e-38 403 243
0.12121144 0.82300001 -0.0043289801 1.7240953e-38 404 243
0.12265443 0.82300001 -0.0043289801 1.7978518e-38 405 243
0.12470057 0.82700002 -0.0043500196 1.7242725e-38 406 243
0.12615058 0.82700002 -0.0043500196 1.4292824e-38 407 243
0.12729199 0.82499999 -0.0043394999 1.5013101e-38 408 243
0.12873849 0.82499999 -0.0043394999 1.2339426e-38 409 243
-0.12967478 0.83099997 -0.0058280798 2.3509879e-38 231 244
-0.12821776 0.83099997 -0.0058280798 2.3509886e-38 232 244
-0.12676074 0.83099997 -0.0058280798 1.9084148e-38 233 244
-0.12530372 0.83099997 -0.0058280798 1.3653954e-38 234 244
-0.12384669 0.83099997 -0.0058280798 1.1164673e-38 235 244
-0.12268423 0.833 -0.0058421064 1.3830066e-38 236 244
-0.12093265 0.83099997 -0.0058280798 1.4014459e-38 237 244
-0.11947563 0.83099997 -0.0058280798 1.4476879e-38 238 244
-0.11773458 0.829 -0.0058140531 1.5030053e-38 239 244
-0.11600053 0.82700002 -0.0058000265 1.4476882e-38 240 244
-0.11455052 0.82700002 -0.0058000265 1.3923708e-38 241 244
-0.11337404 0.829 -0.0058140531 1.5117935e-38 242 244
-0.11192052 0.829 -0.0058140531 1.5302326e-38 243 244
-0.11046701 0.829 -0.0058140531 1.4201727e-38 244 244
-0.10927649 0.83099997 -0.0058280798 1.3556358e-38 245 244
-0.10781948 0.83099997 -0.0058280798 1.5025016e-38 246 244
-0.10636245 0.83099997 -0.0058280798 1.5393799e-38 247 244
-0.10490543 0.83099997 -0.0058280798 1.3829698e-38 248 244
-0.10344841 0.83099997 -0.0058280798 1.4014089e-38 249 244
-0.10174593 0.829 -0.0058140531 1.5211187e-38 250 244
-0.10029241 0.829 -0.0058140531 1.5303383e-38 251 244
-0.098838903 0.829 -0.0058140531 1.382971e-38 252 244
-0.097150445 0.82700002 -0.0058000265 1.4198853e-38 253 244
-0.095700435 0.82700002 -0.0058000265 1.5305198e-38 254 244
-0.094250433 0.82700002 -0.0058000265 1.438324e-38 255 244
-0.092800424 0.82700002 -0.0058000265 1.3646751e-38 256 244
-0.091571338 0.829 -0.0058140531 1.429212e-38 257 244
-0.09011782 0.829 -0.0058140531 1.4660544e-38 258 244
-0.088878214 0.83099997 -0.0058280798 1.4107729e-38 259 244
-0.087421194 0.83099997 -0.0058280798 1.2545443e-38 260 244
-0.085964173 0.83099997 -0.0058280798 1.3928377e-38 261 244
-0.084507152 0.83099997 -0.0058280798 1.5303045e-38 262 244
-0.083050132 0.83099997 -0.0058280798 1.3920111e-38 263 244
-0.081396744 0.829 -0.0058140531 1.447508e-38 264 244
-0.079943232 0.829 -0.0058140531 1.5397396e-38 265 244
-0.078300357 0.82700002 -0.0058000265 1.4106657e-38 266 244
-0.076850355 0.82700002 -0.0058000265 1.4106657e-38 267 244
-0.075217992 0.82499999 -0.0057859998 1.456943e-38 268 244
-0.073771499 0.82499999 -0.0057859998 1.4385039e-38 269 244
-0.07197433 0.82099998 -0.0057579465 1.4199925e-38 270 244
-0.070534848 0.82099998 -0.0057579465 1.4199925e-38 271 244
-0.069095351 0.82099998 -0.0057579465 1.4109897e-38 272 244
-0.067985497 0.82499999 -0.0057859998 1.4202093e-38 273 244
-0.066538997 0.82499999 -0.0057859998 1.3464525e-38 274 244
-0.065092497 0.82499999 -0.0057859998 1.3648916e-38 275 244
-0.06380029 0.82700002 -0.0058000265 1.5025732e-38 276 244
-0.062350284 0.82700002 -0.0058000265 1.465731e-38 277 244
-0.060900278 0.82700002 -0.0058000265 1.4014459e-38 278 244
-0.059450272 0.82700002 -0.0058000265 1.4106654e-38 279 244
-0.058000267 0.82700002 -0.0058000265 1.4660547e-38 280 244
-0.05668702 0.829 -0.0058140531 1.3831147e-38 281 244
-0.055100251 0.82700002 -0.0058000265 1.3276176e-38 282 244
-0.053650245 0.82700002 -0.0058000265 1.4382165e-38 283 244
-0.052200239 0.82700002 -0.0058000265 1.4751674e-38 284 244
-0.050750233 0.82700002 -0.0058000265 1.3368739e-38 285 244
-0.049300224 0.82700002 -0.0058000265 1.4196702e-38 286 244
-0.047850218 0.82700002 -0.0058000265 1.5026463e-38 287 244
-0.046400212 0.82700002 -0.0058000265 1.4107373e-38 288 244
-0.044950206 0.82700002 -0.0058000265 1.3093582e-38 289 244
-0.043394998 0.82499999 -0.0057859998 1.4384683e-38 290 244
-0.041948497 0.82499999 -0.0057859998 1.4569433e-38 291 244
-0.040600184 0.82700002 -0.0058000265 1.2908833e-38 292 244
-0.039150178 0.82700002 -0.0058000265 1.3462007e-38 293 244
-0.037700173 0.82700002 -0.0058000265 1.4753096e-38 294 244
-0.036250167 0.82700002 -0.0058000265 1.4107726e-38 295 244
-0.034800157 0.82700002 -0.0058000265 1.3092849e-38 296 244
-0.033350151 0.82700002 -0.0058000265 1.4015165e-38 297 244
-0.031977292 0.829 -0.0058140531 1.4935321e-38 298 244
-0.030450139 0.82700002 -0.0058000265 1.3552385e-38 299 244
-0.029000133 0.82700002 -0.0058000265 1.3184328e-38 300 244
-0.027550125 0.82700002 -0.0058000265 1.5028241e-38 301 244
-0.02610012 0.82700002 -0.0058000265 1.4749862e-38 302 244
-0.024650112 0.82700002 -0.0058000265 1.3459123e-38 303 244
-0.023200106 0.82700002 -0.0058000265 1.3919379e-38 304 244
-0.021697499 0.82499999 -0.0057859998 1.474878e-38 305 244
-0.020251 0.82499999 -0.0057859998 1.3461638e-38 306 244
-0.018850086 0.82700002 -0.0058000265 1.3369443e-38 307 244
-0.017400078 0.82700002 -0.0058000265 1.4932818e-38 308 244
-0.015950073 0.82700002 -0.0058000265 1.5209765e-38 309 244
-0.014500067 0.82700002 -0.0058000265 1.2914221e-38 310 244
-0.01305006 0.82700002 -0.0058000265 1.3098614e-38 311 244
-0.011600053 0.82700002 -0.0058000265 1.5395231e-38 312 244
-0.010150046 0.82700002 -0.0058000265 1.5210481e-38 313 244
-0.0087000392 0.82700002 -0.0058000265 1.3097898e-38 314 244
-0.0072500333 0.82700002 -0.0058000265 1.3374124e-38 315 244
-0.0058140531 0.829 -0.0058140531 1.5026816e-38 316 244
-0.0043500196 0.82700002 -0.0058000265 1.4842424e-38 317 244
-0.0029000132 0.82700002 -0.0058000265 1.4197418e-38 318 244
-0.0014465 0.82499999 -0.0057859998 1.4382168e-38 319 244
0 0.82499999 -0.0057859998 1.5029332e-38 320 244
0.0014535133 0.829 -0.0058140531 1.4199572e-38 321 244
0.0029070266 0.829 -0.0058140531 1.3919742e-38 322 244
0.0043500196 0.82700002 -0.0058000265 1.5395231e-38 323 244
0.0058000265 0.82700002 -0.0058000265 1.5856206e-38 324 244
0.0072500333 0.82700002 -0.0058000265 1.3827544e-38 325 244
0.0087000392 0.82700002 -0.0058000265 1.3373411e-38 326 244
0.010150046 0.82700002 -0.0058000265 1.5124768e-38 327 244
0.011572 0.82499999 -0.0057859998 1.4200291e-38 328 244
0.013018499 0.82499999 -0.0057859998 1.2725521e-38 329 244
0.014465 0.82499999 -0.0057859998 1.4386837e-38 330 244
0.015911499 0.82499999 -0.0057859998 1.540063e-38 331 244
0.017357999 0.82499999 -0.0057859998 1.2542571e-38 332 244
0.018804498 0.82499999 -0.0057859998 1.2081234e-38 333 244
0.020251 0.82499999 -0.0057859998 1.5306998e-38 334 244
0.0217501 0.82700002 -0.0058000265 1.4569433e-38 335 244
0.023200106 0.82700002 -0.0058000265 1.2448209e-38 336 244
0.024650112 0.82700002 -0.0058000265 1.3738947e-38 337 244
0.02610012 0.82700002 -0.0058000265 1.5489945e-38 338 244
0.027550125 0.82700002 -0.0058000265 1.3184694e-38 339 244
0.029000133 0.82700002 -0.0058000265 1.1988672e-38 340 244
0.030450139 0.82700002 -0.0058000265 1.5123323e-38 341 244
0.031822998 0.82499999 -0.0057859998 1.4844938e-38 342 244
0.033269498 0.82499999 -0.0057859998 1.2263461e-38 343 244
0.034631841 0.82300001 -0.0057719732 1.3461641e-38 344 244
0.035987165 0.82099998 -0.0057579465 1.5120802e-38 345 244
0.037426651 0.82099998 -0.0057579465 1.364747e-38 346 244
0.038960818 0.82300001 -0.0057719732 1.3094298e-38 347 244
0.040403813 0.82300001 -0.0057719732 1.3924061e-38 348 244
0.041846808 0.82300001 -0.0057719732 1.4200288e-38 349 244
0.043184597 0.82099998 -0.0057579465 1.2728039e-38 350 244
0.044624086 0.82099998 -0.0057579465 1.2543648e-38 351 244
0.046175785 0.82300001 -0.0057719732 1.4289253e-38 352 244
0.047503054 0.82099998 -0.0057579465 1.456548e-38 353 244
0.048942544 0.82099998 -0.0057579465 1.2908117e-38 354 244
0.0502593 0.81900001 -0.0057439199 1.3368736e-38 355 244
0.05169528 0.81900001 -0.0057439199 1.3924074e-38 356 244
0.053131256 0.81900001 -0.0057439199 1.3647847e-38 357 244
0.054567236 0.81900001 -0.0057439199 1.3460935e-38 358 244
0.05613998 0.82099998 -0.0057579465 1.3737161e-38 359 244
0.057579465 0.82099998 -0.0057579465 1.4383964e-38 360 244
0.059018951 0.82099998 -0.0057579465 1.4199572e-38 361 244
0.060458437 0.82099998 -0.0057579465 1.3833677e-38 362 244
0.061897919 0.82099998 -0.0057579465 1.4755992e-38 363 244
0.063337415 0.82099998 -0.0057579465 1.5027522e-38 364 244
0.064776897 0.82099998 -0.0057579465 1.3275445e-38 365 244
0.066055074 0.81900001 -0.0057439199 1.3186859e-38 366 244
0.067491055 0.81900001 -0.0057439199 1.6598456e-38 367 244
0.068758719 0.81699997 -0.0057298928 1.4662695e-38 368 244
0.07019119 0.81699997 -0.0057298928 6.8260667e-39 369 244
0.071799003 0.81900001 -0.0057439199 4.3378441e-39 370 244
0.073413812 0.82099998 -0.0057579465 2.0325946e-39 371 244
0.074853301 0.82099998 -0.0057579465 3.5092199e-39 372 244
0.07629279 0.82099998 -0.0057579465 5.0761869e-39 373 244
0.07773228 0.82099998 -0.0057579465 6.5437387e-39 374 244
0.079171762 0.82099998 -0.0057579465 6.91288e-39 375 244
0.080611244 0.82099998 -0.0057579465 4.249631e-39 376 244
0.082050733 0.82099998 -0.0057579465 5.2637829e-39 377 244
0.083490223 0.82099998 -0.0057579465 9.400713e-39 378 244
0.084722817 0.81900001 -0.0057439199 8.7553436e-39 379 244
0.086158797 0.81900001 -0.0057439199 8.7607106e-39 380 244
0.087594777 0.81900001 -0.0057439199 1.0143646e-38 381 244
0.089030758 0.81900001 -0.0057439199 1.0320869e-38 382 244
0.090687655 0.82099998 -0.0057579465 1.0874042e-38 383 244
0.091902718 0.81900001 -0.0057439199 1.0615118e-38 384 244
0.093338698 0.81900001 -0.0057439199 1.2274279e-38 385 244
0.094774678 0.81900001 -0.0057439199 1.475708e-38 386 244
0.096210659 0.81900001 -0.0057439199 1.3005364e-38 387 244
0.097646639 0.81900001 -0.0057439199 9.6809349e-39 388 244
0.099082619 0.81900001 -0.0057439199 1.2815228e-38 389 244
0.10076406 0.82099998 -0.0057579465 1.6325507e-38 390 244
0.10220355 0.82099998 -0.0057579465 1.8906626e-38 391 244
0.10364304 0.82099998 -0.0057579465 2.1751332e-38 392 244
0.10482653 0.81900001 -0.0057439199 1.8155702e-38 393 244
0.10626251 0.81900001 -0.0057439199 1.246045e-38 394 244
0.10796149 0.82099998 -0.0057579465 1.4857896e-38 395 244
0.10966749 0.82300001 -0.0057719732 1.9826762e-38 396 244
0.11084047 0.82099998 -0.0057579465 2.0933469e-38 397 244
0.11227996 0.82099998 -0.0057579465 2.0187974e-38 398 244
0.11399647 0.82300001 -0.0057719732 1.779089e-38 399 244
0.11543947 0.82300001 -0.0057719732 1.3008237e-38 400 244
0.11688246 0.82300001 -0.0057719732 1.6696063e-38 401 244
0.11832545 0.82300001 -0.0057719732 2.3046403e-38 402 244
0.11976844 0.82300001 -0.0057719732 2.3046403e-38 403 244
0.12121144 0.82300001 -0.0057719732 2.3316865e-38 404 244
0.12265443 0.82300001 -0.0057719732 2.0366246e-38 405 244
0.12470057 0.82700002 -0.0058000265 1.3850924e-38 406 244
0.12615058 0.82700002 -0.0058000265 1.7907532e-38 407 244
0.12729199 0.82499999 -0.0057859998 2.3042424e-38 408 244
0.12873849 0.82499999 -0.0057859998 2.2120467e-38 409 244
0.13018499 0.82499999 -0.0057859998 2.0741849e-38 410 244
0.13163149 0.82499999 -0.0057859998 1.9358914e-38 411 244
0.13307799 0.82499999 -0.0057859998 1.8061714e-38 412 244
0.13452449 0.82499999 -0.0057859998 1.8891116e-38 413 244
0.13597099 0.82499999 -0.0057859998 1.9726265e-38 414 244
0.13708436 0.82300001 -0.0057719732 1.8159299e-38 415 244
-0.12967478 0.83099997 -0.0072850995 2.3509886e-38 231 245
-0.12729199 0.82499999 -0.0072324998 2.2958873e-38 232 245
-0.12584549 0.82499999 -0.0072324998 1.3558891e-38 233 245
-0.12439899 0.82499999 -0.0072324998 9.5083944e-39 234 245
-0.1229525 0.82499999 -0.0072324998 1.2089872e-38 235 245
-0.12180056 0.82700002 -0.0072500333 1.4199206e-38 236 245
-0.1206416 0.829 -0.0072675664 1.3553837e-38 237 245
-0.11890054 0.82700002 -0.0072500333 1.484566e-38 238 245
-0.11716649 0.82499999 -0.0072324998 1.5214803e-38 239 245
-0.11572 0.82499999 -0.0072324998 1.4106657e-38 240 245
-0.11427349 0.82499999 -0.0072324998 1.4106657e-38 241 245
-0.11310052 0.82700002 -0.0072500333 1.5028256e-38 242 245
-0.1113805 0.82499999 -0.0072324998 1.4751671e-38 243 245
-0.10993399 0.82499999 -0.0072324998 1.3095745e-38 244 245
-0.1087505 0.82700002 -0.0072500333 1.3556723e-38 245 245
-0.10781948 0.83099997 -0.0072850995 1.6038815e-38 246 245
-0.10585049 0.82700002 -0.0072500333 1.4932468e-38 247 245
-0.10440048 0.82700002 -0.0072500333 1.337089e-38 248 245
-0.10295048 0.82700002 -0.0072500333 1.4292488e-38 249 245
-0.10150047 0.82700002 -0.0072500333 1.4844219e-38 250 245
-0.10005046 0.82700002 -0.0072500333 1.419885e-38 251 245
-0.098600447 0.82700002 -0.0072500333 1.4197774e-38 252 245
-0.096915491 0.82499999 -0.0072324998 1.4843143e-38 253 245
-0.095468998 0.82499999 -0.0072324998 1.4845291e-38 254 245
-0.094022498 0.82499999 -0.0072324998 1.4015531e-38 255 245
-0.092575997 0.82499999 -0.0072324998 1.4014092e-38 256 245
-0.091129497 0.82499999 -0.0072324998 1.4659461e-38 257 245
-0.089900412 0.82700002 -0.0072500333 1.4383964e-38 258 245
-0.088450409 0.82700002 -0.0072500333 1.4107376e-38 259 245
-0.0870004 0.82700002 -0.0072500333 1.3832228e-38 260 245
-0.085757285 0.829 -0.0072675664 1.4477598e-38 261 245
-0.084303774 0.829 -0.0072675664 1.447508e-38 262 245
-0.082850255 0.829 -0.0072675664 1.3737515e-38 263 245
-0.081396744 0.829 -0.0072675664 1.4750225e-38 264 245
-0.079750367 0.82700002 -0.0072500333 1.5579987e-38 265 245
-0.078110993 0.82499999 -0.0072324998 1.4197774e-38 266 245
-0.076664492 0.82499999 -0.0072324998 1.428997e-38 267 245
-0.075035654 0.82300001 -0.0072149667 1.5029686e-38 268 245
-0.073592655 0.82300001 -0.0072149667 1.4107729e-38 269 245
-0.07197433 0.82099998 -0.0071974332 1.3463803e-38 270 245
-0.070534848 0.82099998 -0.0071974332 1.4293923e-38 271 245
-0.069095351 0.82099998 -0.0071974332 1.4477247e-38 272 245
-0.067655869 0.82099998 -0.0071974332 1.3647847e-38 273 245
-0.066216379 0.82099998 -0.0071974332 1.3646765e-38 274 245
-0.064776897 0.82099998 -0.0071974332 1.4476884e-38 275 245
-0.06349171 0.82300001 -0.0072149667 1.5485995e-38 276 245
-0.062048711 0.82300001 -0.0072149667 1.4195256e-38 277 245
-0.06060572 0.82300001 -0.0072149667 1.3831144e-38 278 245
-0.059162725 0.82300001 -0.0072149667 1.4845294e-38 279 245
-0.057859998 0.82499999 -0.0072324998 1.4199206e-38 280 245
-0.056413498 0.82499999 -0.0072324998 1.3184694e-38 281 245
-0.054833744 0.82300001 -0.0072149667 1.4746985e-38 282 245
-0.053261004 0.82099998 -0.0071974332 1.5761137e-38 283 245
-0.051821519 0.82099998 -0.0071974332 1.4565477e-38 284 245
-0.050382029 0.82099998 -0.0071974332 1.4012662e-38 285 245
-0.048942544 0.82099998 -0.0071974332 1.4565127e-38 286 245
-0.047503054 0.82099998 -0.0071974332 1.5210496e-38 287 245
-0.046063572 0.82099998 -0.0071974332 1.3924061e-38 288 245
-0.044624086 0.82099998 -0.0071974332 1.3370887e-38 289 245
-0.043289799 0.82300001 -0.0072149667 1.4476516e-38 290 245
-0.041846808 0.82300001 -0.0072149667 1.4660547e-38 291 245
-0.040403813 0.82300001 -0.0072149667 1.3186493e-38 292 245
-0.038960818 0.82300001 -0.0072149667 1.364747e-38 293 245
-0.037608996 0.82499999 -0.0072324998 1.4294626e-38 294 245
-0.036162499 0.82499999 -0.0072324998 1.3649257e-38 295 245
-0.034715999 0.82499999 -0.0072324998 1.2910258e-38 296 245
-0.033269498 0.82499999 -0.0072324998 1.4200997e-38 297 245
-0.031822998 0.82499999 -0.0072324998 1.5029683e-38 298 245
-0.030376498 0.82499999 -0.0072324998 1.3001379e-38 299 245
-0.028929999 0.82499999 -0.0072324998 1.3092501e-38 300 245
-0.027483499 0.82499999 -0.0072324998 1.5305198e-38 301 245
-0.025973879 0.82300001 -0.0072149667 1.4657679e-38 302 245
-0.024530886 0.82300001 -0.0072149667 1.3090354e-38 303 245
-0.023087893 0.82300001 -0.0072149667 1.4012662e-38 304 245
-0.0216449 0.82300001 -0.0072149667 1.5026816e-38 305 245
