# .PCD v.7 - Point Cloud Data file format
FIELDS x y z rgb imX imY
SIZE 4 4 4 4 4 4
TYPE F F F F F F
COUNT 1 1 1 1 1 1
WIDTH 837
HEIGHT 1
VIEWPOINT 0 0 0 1 0 0 0
POINTS 837
DATA ascii
-0.040733438 0.704 -0.037030395 1.1618432e-38 287 270
-0.039499093 0.704 -0.037030395 1.1525883e-38 288 270
-0.038264744 0.704 -0.037030395 1.1433687e-38 289 270
-0.036977798 0.70300001 -0.036977798 1.0974874e-38 290 270
-0.035745207 0.70300001 -0.036977798 1.0974874e-38 291 270
-0.034512613 0.70300001 -0.036977798 1.1158189e-38 292 270
-0.03318534 0.70099998 -0.036872596 1.1158189e-38 293 270
-0.031910665 0.69999999 -0.036819998 1.0974877e-38 294 270
-0.030595668 0.69800001 -0.0367148 1.1067073e-38 295 270
-0.029371841 0.69800001 -0.0367148 1.1342586e-38 296 270
-0.028148014 0.69800001 -0.0367148 1.1618813e-38 297 270
-0.026885614 0.69700003 -0.036662199 1.1711366e-38 298 270
-0.025553079 0.69400001 -0.036504399 1.1803562e-38 299 270
-0.024301201 0.69300002 -0.036451802 1.2171618e-38 300 270
-0.02308614 0.69300002 -0.036451802 1.2356009e-38 301 270
-0.021807959 0.69099998 -0.036346599 1.2997416e-38 302 270
-0.020596405 0.69099998 -0.036346599 1.2813025e-38 303 270
-0.019356798 0.69 -0.036293998 1.1800672e-38 304 270
-0.0180944 0.68800002 -0.0361888 1.1431888e-38 305 270
-0.01686356 0.68699998 -0.036136195 1.0605021e-38 306 270
-0.015659019 0.68699998 -0.036136195 1.0420271e-38 307 270
-0.014475521 0.68800002 -0.0361888 1.014406e-38 308 270
-0.013249939 0.68699998 -0.036136195 1.0236255e-38 309 270
-0.012045399 0.68699998 -0.036136195 1.0328801e-38 310 270
-0.010840859 0.68699998 -0.036136195 1.0328801e-38 311 270
-0.0096363192 0.68699998 -0.036136195 1.0605018e-38 312 270
-0.0084317802 0.68699998 -0.036136195 1.0605018e-38 313 270
-0.0072272392 0.68699998 -0.036136195 1.0880163e-38 314 270
-0.0060314666 0.68800002 -0.0361888 1.0880163e-38 315 270
-0.0048251734 0.68800002 -0.0361888 1.0788684e-38 316 270
-0.0036293997 0.69 -0.036293998 1.0973075e-38 317 270
-0.00243012 0.69300002 -0.036451802 1.1250735e-38 318 270
-0.00121506 0.69300002 -0.036451802 1.115854e-38 319 270
0 0.69700003 -0.036662199 1.1342211e-38 320 270
0.0012238267 0.69800001 -0.0367148 1.1157821e-38 321 270
0.0024546667 0.69999999 -0.036819998 1.1341502e-38 322 270
0.0036872597 0.70099998 -0.036872596 1.1434056e-38 323 270
0.0049373866 0.704 -0.037030395 1.1250391e-38 324 270
0.0061717331 0.704 -0.037030395 1.1250391e-38 325 270
0.0074060797 0.704 -0.037030395 1.1157839e-38 326 270
0.0086404262 0.704 -0.037030395 1.1157839e-38 327 270
0.0099028256 0.70599997 -0.037135597 1.0974527e-38 328 270
0.011140679 0.70599997 -0.037135597 1.1066722e-38 329 270
0.0124136 0.708 -0.0372408 1.0884126e-38 330 270
0.013693533 0.70999998 -0.037345998 1.0791931e-38 331 270
0.014959441 0.71100003 -0.037398599 1.1067076e-38 332 270
0.01620606 0.71100003 -0.037398599 1.097488e-38 333 270
0.017501773 0.713 -0.037503798 1.0880882e-38 334 270
0.018751899 0.713 -0.037503798 1.1065273e-38 335 270
0.020002026 0.713 -0.037503798 1.2079423e-38 336 270
0.021252153 0.713 -0.037503798 1.4753096e-38 337 270
-0.052578956 0.71399999 -0.038808275 1.6317905e-38 278 271
-0.05132708 0.71399999 -0.038808275 1.4658382e-38 279 271
-0.050005067 0.713 -0.038753927 1.3552388e-38 280 271
-0.048618179 0.71100003 -0.038645219 1.3460192e-38 281 271
-0.047304932 0.70999998 -0.038590867 1.3367991e-38 282 271
-0.046060063 0.70999998 -0.038590867 1.3367991e-38 283 271
-0.044688959 0.708 -0.038482159 1.3184679e-38 284 271
-0.043386232 0.70700002 -0.038427804 1.3000287e-38 285 271
-0.042146627 0.70700002 -0.038427804 1.2998488e-38 286 271
-0.040849157 0.70599997 -0.038373452 1.2537511e-38 287 271
-0.039499093 0.704 -0.038264744 1.1802466e-38 288 271
-0.038264744 0.704 -0.038264744 1.1618076e-38 289 271
-0.037030395 0.704 -0.038264744 1.1158545e-38 290 271
-0.035745207 0.70300001 -0.038210396 1.1158545e-38 291 271
-0.034512613 0.70300001 -0.038210396 1.1065994e-38 292 271
-0.03318534 0.70099998 -0.038101684 1.1065994e-38 293 271
-0.031910665 0.69999999 -0.038047329 1.0975599e-38 294 271
-0.030683333 0.69999999 -0.038047329 1.1067794e-38 295 271
-0.029371841 0.69800001 -0.037938625 1.1343302e-38 296 271
-0.028148014 0.69800001 -0.037938625 1.1527695e-38 297 271
-0.026924185 0.69800001 -0.037938625 1.1620246e-38 298 271
-0.025663542 0.69700003 -0.037884273 1.1620246e-38 299 271
-0.024336265 0.69400001 -0.037721213 1.2170902e-38 300 271
-0.02308614 0.69300002 -0.037666857 1.2263098e-38 301 271
-0.021871079 0.69300002 -0.037666857 1.2536808e-38 302 271
-0.020596405 0.69099998 -0.03755815 1.2444612e-38 303 271
-0.019384852 0.69099998 -0.03755815 1.2076902e-38 304 271
-0.0180944 0.68800002 -0.037395094 1.1708479e-38 305 271
-0.016888106 0.68800002 -0.037395094 1.0880882e-38 306 271
-0.015681813 0.68800002 -0.037395094 1.0788687e-38 307 271
-0.014475521 0.68800002 -0.037395094 1.0329155e-38 308 271
-0.013249939 0.68699998 -0.037340738 1.0513186e-38 309 271
-0.012045399 0.68699998 -0.037340738 1.0605734e-38 310 271
-0.010856641 0.68800002 -0.037395094 1.0605734e-38 311 271
-0.0096503468 0.68800002 -0.037395094 1.0880879e-38 312 271
-0.0084440531 0.68800002 -0.037395094 1.0880879e-38 313 271
-0.0072377604 0.68800002 -0.037395094 1.0880161e-38 314 271
-0.0060314666 0.68800002 -0.037395094 1.0880161e-38 315 271
-0.0048391996 0.69 -0.037503798 1.0880877e-38 316 271
-0.0036346598 0.69099998 -0.03755815 1.1065627e-38 317 271
-0.00243012 0.69300002 -0.037666857 1.1157826e-38 318 271
-0.00121506 0.69300002 -0.037666857 1.1065271e-38 319 271
0 0.69800001 -0.037938625 1.0972003e-38 320 271
0.0012273333 0.69999999 -0.038047329 1.1248589e-38 321 271
0.0024581731 0.70099998 -0.038101684 1.1157839e-38 322 271
0.0036872597 0.70099998 -0.038101684 1.1250035e-38 323 271
0.0049373866 0.704 -0.038264744 1.1250754e-38 324 271
0.0061717331 0.704 -0.038264744 1.1066722e-38 325 271
0.0074060797 0.704 -0.038264744 1.1250035e-38 326 271
0.0086404262 0.704 -0.038264744 1.1157839e-38 327 271
0.0099028256 0.70599997 -0.038373452 1.1066722e-38 328 271
0.011140679 0.70599997 -0.038373452 1.1066722e-38 329 271
0.012448666 0.70999998 -0.038590867 1.0975243e-38 330 271
0.01371282 0.71100003 -0.038645219 1.0883047e-38 331 271
0.014959441 0.71100003 -0.038645219 1.1157473e-38 332 271
0.016251646 0.713 -0.038753927 1.1065276e-38 333 271
0.017501773 0.713 -0.038753927 1.0972356e-38 334 271
0.0188308 0.71600002 -0.038916986 1.1617726e-38 335 271
0.020086186 0.71600002 -0.038916986 1.3092498e-38 336 271
0.021341572 0.71600002 -0.038916986 1.5489945e-38 337 271
-0.05132708 0.71399999 -0.040060159 1.5855488e-38 279 272
-0.050075196 0.71399999 -0.040060159 1.4471104e-38 280 272
-0.048754938 0.713 -0.040004052 1.3825735e-38 281 272
-0.047371563 0.71100003 -0.039891839 1.3090328e-38 282 272
-0.046060063 0.70999998 -0.039835732 1.3367275e-38 283 272
-0.044688959 0.708 -0.039723519 1.3091767e-38 284 272
-0.043447599 0.708 -0.039723519 1.3091767e-38 285 272
-0.042146627 0.70700002 -0.039667413 1.2814467e-38 286 272
-0.040907022 0.70700002 -0.039667413 1.2630075e-38 287 272
-0.039611302 0.70599997 -0.039611302 1.180284e-38 288 272
-0.038373452 0.70599997 -0.039611302 1.1618447e-38 289 272
-0.037030395 0.704 -0.039499093 1.1341502e-38 290 272
-0.035796054 0.704 -0.039499093 1.115747e-38 291 272
-0.034512613 0.70300001 -0.039442986 1.115747e-38 292 272
-0.033280019 0.70300001 -0.039442986 1.115747e-38 293 272
-0.031956252 0.70099998 -0.039330769 1.0974877e-38 294 272
-0.030727165 0.70099998 -0.039330769 1.1251104e-38 295 272
-0.029498078 0.70099998 -0.039330769 1.1435854e-38 296 272
-0.028228667 0.69999999 -0.039274666 1.1528051e-38 297 272
-0.026924185 0.69800001 -0.039162453 1.1986871e-38 298 272
-0.025700359 0.69800001 -0.039162453 1.1986871e-38 299 272
-0.024441468 0.69700003 -0.039106347 1.2079067e-38 300 272
-0.023186078 0.69599998 -0.039050236 1.1986871e-38 301 272
-0.021871079 0.69300002 -0.03888192 1.2078707e-38 302 272
-0.020656019 0.69300002 -0.03888192 1.1986152e-38 303 272
-0.019384852 0.69099998 -0.038769703 1.1801757e-38 304 272
-0.018146999 0.69 -0.038713597 1.152553e-38 305 272
-0.016888106 0.68800002 -0.038601387 1.0973797e-38 306 272
-0.015681813 0.68800002 -0.038601387 1.069757e-38 307 272
-0.014475521 0.68800002 -0.038601387 1.0329873e-38 308 272
-0.013269227 0.68800002 -0.038601387 1.0329873e-38 309 272
-0.012062933 0.68800002 -0.038601387 1.0880526e-38 310 272
-0.010856641 0.68800002 -0.038601387 1.0880526e-38 311 272
-0.0096783992 0.69 -0.038713597 1.0972356e-38 312 272
-0.0084686 0.69 -0.038713597 1.0972356e-38 313 272
-0.0072587994 0.69 -0.038713597 1.0880158e-38 314 272
-0.0060577663 0.69099998 -0.038769703 1.0880158e-38 315 272
-0.00486024 0.69300002 -0.03888192 1.0972709e-38 316 272
-0.0036451798 0.69300002 -0.03888192 1.115674e-38 317 272
-0.00243012 0.69300002 -0.03888192 1.124822e-38 318 272
-0.0012220733 0.69700003 -0.039106347 1.1156024e-38 319 272
0 0.69800001 -0.039162453 1.0972003e-38 320 272
0.0012273333 0.69999999 -0.039274666 1.1248589e-38 321 272
0.0024581731 0.70099998 -0.039330769 1.1157836e-38 322 272
0.0036977797 0.70300001 -0.039442986 1.1250391e-38 323 272
0.0049373866 0.704 -0.039499093 1.1251109e-38 324 272
0.0061717331 0.704 -0.039499093 1.1251109e-38 325 272
0.0074060797 0.704 -0.039499093 1.1066722e-38 326 272
0.0086649731 0.70599997 -0.039611302 1.1066722e-38 327 272
0.0099028256 0.70599997 -0.039611302 1.0975246e-38 328 272
0.011156459 0.70700002 -0.039667413 1.1067441e-38 329 272
0.012448666 0.70999998 -0.039835732 1.1067794e-38 330 272
0.01371282 0.71100003 -0.039891839 1.0883044e-38 331 272
0.015001519 0.713 -0.040004052 1.1156387e-38 332 272
0.016251646 0.713 -0.040004052 1.1433334e-38 333 272
0.017575413 0.71600002 -0.040172372 1.1434053e-38 334 272
0.018857099 0.71700001 -0.040228479 1.2356009e-38 335 272
0.020114239 0.71700001 -0.040228479 1.4380367e-38 336 272
-0.054418206 0.75700003 -0.043800019 1.6593769e-38 279 273
-0.050075196 0.71399999 -0.041312039 1.4655493e-38 280 273
-0.048823316 0.71399999 -0.041312039 1.3733536e-38 281 273
-0.047504812 0.713 -0.041254178 1.3089609e-38 282 273
-0.046124939 0.71100003 -0.041138459 1.3458391e-38 283 273
-0.044815198 0.70999998 -0.041080594 1.3182883e-38 284 273
-0.043447599 0.708 -0.040964879 1.2998132e-38 285 273
-0.042206239 0.708 -0.040964879 1.2997413e-38 286 273
-0.040907022 0.70700002 -0.040907022 1.2813022e-38 287 273
-0.039667413 0.70700002 -0.040907022 1.2261646e-38 288 273
-0.038373452 0.70599997 -0.040849157 1.216945e-38 289 273
-0.037135597 0.70599997 -0.040849157 1.1709195e-38 290 273
-0.035796054 0.704 -0.040733438 1.1617e-38 291 273
-0.034561705 0.704 -0.040733438 1.1065273e-38 292 273
-0.033280019 0.70300001 -0.040675577 1.115747e-38 293 273
-0.032047424 0.70300001 -0.040675577 1.0699735e-38 294 273
-0.030727165 0.70099998 -0.040559858 1.0884126e-38 295 273
-0.029498078 0.70099998 -0.040559858 1.1343305e-38 296 273
-0.028268991 0.70099998 -0.040559858 1.1435501e-38 297 273
-0.027001332 0.69999999 -0.040502001 1.1527695e-38 298 273
-0.025700359 0.69800001 -0.040386278 1.1620249e-38 299 273
-0.024476532 0.69800001 -0.040386278 1.1803562e-38 300 273
-0.023219392 0.69700003 -0.040328421 1.1803562e-38 301 273
-0.021902639 0.69400001 -0.040154841 1.1803915e-38 302 273
-0.020685827 0.69400001 -0.040154841 1.171136e-38 303 273
-0.01944096 0.69300002 -0.04009698 1.1893587e-38 304 273
-0.0181733 0.69099998 -0.039981257 1.1801391e-38 305 273
-0.0169372 0.69 -0.0399234 1.1617e-38 306 273
-0.015727401 0.69 -0.0399234 1.1524804e-38 307 273
-0.014517599 0.69 -0.0399234 1.1156024e-38 308 273
-0.0133078 0.69 -0.0399234 1.1156024e-38 309 273
-0.012097999 0.69 -0.0399234 1.0788687e-38 310 273
-0.01090398 0.69099998 -0.039981257 1.0788687e-38 311 273
-0.0096924258 0.69099998 -0.039981257 1.0605371e-38 312 273
-0.008480873 0.69099998 -0.039981257 1.0513176e-38 313 273
-0.0072903596 0.69300002 -0.04009698 1.0696841e-38 314 273
-0.0060840664 0.69400001 -0.040154841 1.0789037e-38 315 273
-0.0048672534 0.69400001 -0.040154841 1.0880877e-38 316 273
-0.0036504399 0.69400001 -0.040154841 1.0880877e-38 317 273
-0.0024336267 0.69400001 -0.040154841 1.0972356e-38 318 273
-0.0012238267 0.69800001 -0.040386278 1.0972356e-38 319 273
0 0.69800001 -0.040386278 1.069793e-38 320 273
0.0012273333 0.69999999 -0.040502001 1.0790484e-38 321 273
0.0024581731 0.70099998 -0.040559858 1.0790496e-38 322 273
0.0036977797 0.70300001 -0.040675577 1.088305e-38 323 273
0.0049373866 0.704 -0.040733438 1.0791577e-38 324 273
0.0061717331 0.704 -0.040733438 1.0791577e-38 325 273
0.0074271196 0.70599997 -0.040849157 1.0699379e-38 326 273
0.0086649731 0.70599997 -0.040849157 1.0884129e-38 327 273
0.0099168532 0.70700002 -0.040907022 1.0884482e-38 328 273
0.011203799 0.70999998 -0.041080594 1.0884482e-38 329 273
0.0124662 0.71100003 -0.041138459 1.1250385e-38 330 273
0.01371282 0.71100003 -0.041138459 1.1158189e-38 331 273
0.015001519 0.713 -0.041254178 1.1065627e-38 332 273
0.016251646 0.713 -0.041254178 1.143405e-38 333 273
0.017575413 0.71600002 -0.041427758 1.1986874e-38 334 273
0.018857099 0.71700001 -0.041485619 1.2448212e-38 335 273
0.020114239 0.71700001 -0.041485619 1.3831515e-38 336 273
-0.054418206 0.75700003 -0.045127295 1.7608644e-38 279 274
-0.050215468 0.71600002 -0.042683143 1.5116102e-38 280 274
-0.048823316 0.71399999 -0.042563915 1.3733168e-38 281 274
-0.047571439 0.71399999 -0.042563915 1.2904849e-38 282 274
-0.046254687 0.713 -0.042504307 1.3458023e-38 283 274
-0.044878319 0.71100003 -0.042385083 1.2999218e-38 284 274
-0.043570329 0.70999998 -0.042325463 1.2906662e-38 285 274
-0.042206239 0.708 -0.042206239 1.263151e-38 286 274
-0.040964879 0.708 -0.042206239 1.2538956e-38 287 274
-0.039667413 0.70700002 -0.042146627 1.2079054e-38 288 274
-0.038373452 0.70599997 -0.042087011 1.1894661e-38 289 274
-0.037135597 0.70599997 -0.042087011 1.1525883e-38 290 274
-0.035897743 0.70599997 -0.042087011 1.1433687e-38 291 274
-0.034561705 0.704 -0.041967787 1.097415e-38 292 274
-0.03332736 0.704 -0.041967787 1.097415e-38 293 274
-0.032047424 0.70300001 -0.041908171 1.1065991e-38 294 274
-0.030814834 0.70300001 -0.041908171 1.1250741e-38 295 274
-0.029582238 0.70300001 -0.041908171 1.1342581e-38 296 274
-0.028349647 0.70300001 -0.041908171 1.1619166e-38 297 274
-0.027039904 0.70099998 -0.041788943 1.1711366e-38 298 274
-0.025773998 0.69999999 -0.041729331 1.1711366e-38 299 274
-0.024546666 0.69999999 -0.041729331 1.1803559e-38 300 274
-0.023252707 0.69800001 -0.041610107 1.1803559e-38 301 274
-0.02202888 0.69800001 -0.041610107 1.171136e-38 302 274
-0.020775247 0.69700003 -0.041550495 1.1619163e-38 303 274
-0.019525118 0.69599998 -0.041490879 1.1801394e-38 304 274
-0.018225901 0.69300002 -0.041312039 1.1709198e-38 305 274
-0.016961746 0.69099998 -0.041192811 1.134329e-38 306 274
-0.015750192 0.69099998 -0.041192811 1.1066344e-38 307 274
-0.014538639 0.69099998 -0.041192811 1.1156387e-38 308 274
-0.013327086 0.69099998 -0.041192811 1.0880161e-38 309 274
-0.012150601 0.69300002 -0.041312039 1.0787965e-38 310 274
-0.010935539 0.69300002 -0.041312039 1.0787965e-38 311 274
-0.0097204801 0.69300002 -0.041312039 1.0695766e-38 312 274
-0.0085176928 0.69400001 -0.041371655 1.0511374e-38 313 274
-0.0073219193 0.69599998 -0.041490879 1.0513173e-38 314 274
-0.0061103669 0.69700003 -0.041550495 1.0697564e-38 315 274
-0.0048882933 0.69700003 -0.041550495 1.0697564e-38 316 274
-0.00366622 0.69700003 -0.041550495 1.0697564e-38 317 274
-0.0024441467 0.69700003 -0.041550495 1.0972359e-38 318 274
-0.0012238267 0.69800001 -0.041610107 1.1248586e-38 319 274
0 0.69800001 -0.041610107 1.0790131e-38 320 274
0.0012273333 0.69999999 -0.041729331 1.0790131e-38 321 274
0.0024581731 0.70099998 -0.041788943 1.0789775e-38 322 274
0.0036977797 0.70300001 -0.041908171 1.0882331e-38 323 274
0.0049373866 0.704 -0.041967787 1.0882694e-38 324 274
0.0061892662 0.70599997 -0.042087011 1.0882694e-38 325 274
0.0074271196 0.70599997 -0.042087011 1.0791933e-38 326 274
0.0086649731 0.70599997 -0.042087011 1.0791933e-38 327 274
0.0099168532 0.70700002 -0.042146627 1.0884482e-38 328 274
0.011203799 0.70999998 -0.042325463 1.0884482e-38 329 274
0.0124662 0.71100003 -0.042385083 1.1067073e-38 330 274
0.01371282 0.71100003 -0.042385083 1.0974877e-38 331 274
0.015022559 0.71399999 -0.042563915 1.1158192e-38 332 274
0.016274439 0.71399999 -0.042563915 1.1250388e-38 333 274
0.017575413 0.71600002 -0.042683143 1.14337e-38 334 274
0.018857099 0.71700001 -0.042742759 1.1802843e-38 335 274
0.020114239 0.71700001 -0.042742759 1.3002831e-38 336 274
-0.054418206 0.75700003 -0.046454567 1.8162536e-38 279 275
-0.050215468 0.71600002 -0.043938532 1.7143323e-38 280 275
-0.048960082 0.71600002 -0.043938532 1.5115019e-38 281 275
-0.047571439 0.71399999 -0.043815799 1.3826435e-38 282 275
-0.046319555 0.71399999 -0.043815799 1.373424e-38 283 275
-0.045004558 0.713 -0.043754432 1.3367272e-38 284 275
-0.043570329 0.70999998 -0.043570329 1.3275076e-38 285 275
-0.042325463 0.70999998 -0.043570329 1.2908089e-38 286 275
-0.040964879 0.708 -0.043447599 1.2631861e-38 287 275
-0.039723519 0.708 -0.043447599 1.2264154e-38 288 275
-0.038427804 0.70700002 -0.043386232 1.1987207e-38 289 275
-0.037188202 0.70700002 -0.043386232 1.1618429e-38 290 275
-0.035897743 0.70599997 -0.043324865 1.1526233e-38 291 275
-0.034659892 0.70599997 -0.043324865 1.1342208e-38 292 275
-0.03332736 0.704 -0.043202132 1.1342208e-38 293 275
-0.032093015 0.704 -0.043202132 1.1158542e-38 294 275
-0.030858666 0.704 -0.043202132 1.1158542e-38 295 275
-0.029624319 0.704 -0.043202132 1.1250388e-38 296 275
-0.028349647 0.70300001 -0.043140765 1.1342583e-38 297 275
-0.027117053 0.70300001 -0.043140765 1.1434779e-38 298 275
-0.025810819 0.70099998 -0.043018032 1.161881e-38 299 275
-0.024581732 0.70099998 -0.043018032 1.1435498e-38 300 275
-0.023319334 0.69999999 -0.042956665 1.1435498e-38 301 275
-0.022091998 0.69999999 -0.042956665 1.1434779e-38 302 275
-0.020805053 0.69800001 -0.042833932 1.1342583e-38 303 275
-0.019581227 0.69800001 -0.042833932 1.1525533e-38 304 275
-0.018331099 0.69700003 -0.042772565 1.1525533e-38 305 275
-0.017109027 0.69700003 -0.042772565 1.1525883e-38 306 275
-0.015886955 0.69700003 -0.042772565 1.1433687e-38 307 275
-0.01468592 0.69800001 -0.042833932 1.1341488e-38 308 275
-0.013462093 0.69800001 -0.042833932 1.1249292e-38 309 275
-0.012220734 0.69700003 -0.042772565 1.1156022e-38 310 275
-0.01099866 0.69700003 -0.042772565 1.1156022e-38 311 275
-0.0097765867 0.69700003 -0.042772565 1.1156022e-38 312 275
-0.0085667865 0.69800001 -0.042833932 1.1248217e-38 313 275
-0.0073429602 0.69800001 -0.042833932 1.1342208e-38 314 275
-0.006119133 0.69800001 -0.042833932 1.1158175e-38 315 275
-0.0048953067 0.69800001 -0.042833932 1.1065624e-38 316 275
-0.0036714801 0.69800001 -0.042833932 1.1157821e-38 317 275
-0.0024476533 0.69800001 -0.042833932 1.1065991e-38 318 275
-0.0012238267 0.69800001 -0.042833932 1.1158545e-38 319 275
0 0.69999999 -0.042956665 1.0974877e-38 320 275
0.0012290865 0.70099998 -0.043018032 1.0974877e-38 321 275
0.0024651866 0.70300001 -0.043140765 1.0974524e-38 322 275
0.0037030398 0.704 -0.043202132 1.0974524e-38 323 275
0.0049514128 0.70599997 -0.043324865 1.0883047e-38 324 275
0.0061892662 0.70599997 -0.043324865 1.0883047e-38 325 275
0.0074376399 0.70700002 -0.043386232 1.0975243e-38 326 275
0.008677247 0.70700002 -0.043386232 1.0975243e-38 327 275
0.0099308798 0.708 -0.043447599 1.106672e-38 328 275
0.011203799 0.70999998 -0.043570329 1.106672e-38 329 275
0.0124662 0.71100003 -0.043631699 1.1250391e-38 330 275
0.01371282 0.71100003 -0.043631699 1.1157836e-38 331 275
0.015022559 0.71399999 -0.043815799 1.1157117e-38 332 275
0.016274439 0.71399999 -0.043815799 1.1157117e-38 333 275
0.017575413 0.71600002 -0.043938532 1.1525896e-38 334 275
0.0188308 0.71600002 -0.043938532 1.2540408e-38 335 275
-0.054274432 0.755 -0.047655597 1.8162183e-38 279 276
-0.050075196 0.71399999 -0.045067675 1.8342612e-38 280 276
-0.048823316 0.71399999 -0.045067675 1.6959677e-38 281 276
-0.047571439 0.71399999 -0.045067675 1.4931003e-38 282 276
-0.046319555 0.71399999 -0.045067675 1.4193438e-38 283 276
-0.045004558 0.713 -0.045004558 1.3460186e-38 284 276
-0.043631699 0.71100003 -0.044878319 1.3275795e-38 285 276
-0.042325463 0.70999998 -0.044815198 1.3000287e-38 286 276
-0.041080594 0.70999998 -0.044815198 1.2908092e-38 287 276
-0.039835732 0.70999998 -0.044815198 1.2447832e-38 288 276
-0.038482159 0.708 -0.044688959 1.2171606e-38 289 276
-0.0372408 0.708 -0.044688959 1.1895015e-38 290 276
-0.035948593 0.70700002 -0.044625837 1.1618429e-38 291 276
-0.034708988 0.70700002 -0.044625837 1.1434757e-38 292 276
-0.033422034 0.70599997 -0.044562716 1.1434757e-38 293 276
-0.032184184 0.70599997 -0.044562716 1.1251091e-38 294 276
-0.030858666 0.704 -0.044436477 1.1158896e-38 295 276
-0.029624319 0.704 -0.044436477 1.1434053e-38 296 276
-0.028389972 0.704 -0.044436477 1.1434053e-38 297 276
-0.027117053 0.70300001 -0.04437336 1.1526252e-38 298 276
-0.025810819 0.70099998 -0.044247117 1.1526252e-38 299 276
-0.024581732 0.70099998 -0.044247117 1.1435135e-38 300 276
-0.023352645 0.70099998 -0.044247117 1.1342581e-38 301 276
-0.022091998 0.69999999 -0.044183996 1.14337e-38 302 276
-0.020864666 0.69999999 -0.044183996 1.1341504e-38 303 276
-0.019581227 0.69800001 -0.04405776 1.1433337e-38 304 276
-0.0183574 0.69800001 -0.04405776 1.1525533e-38 305 276
-0.017133573 0.69800001 -0.04405776 1.1434053e-38 306 276
-0.015909746 0.69800001 -0.04405776 1.1434053e-38 307 276
-0.014727999 0.69999999 -0.044183996 1.1341855e-38 308 276
-0.013500666 0.69999999 -0.044183996 1.1157824e-38 309 276
-0.012273333 0.69999999 -0.044183996 1.1157826e-38 310 276
-0.01101444 0.69800001 -0.04405776 1.1065271e-38 311 276
-0.0097906133 0.69800001 -0.04405776 1.1341504e-38 312 276
-0.0085913334 0.69999999 -0.044183996 1.1802843e-38 313 276
-0.0073639993 0.69999999 -0.044183996 1.1986871e-38 314 276
-0.0061366665 0.69999999 -0.044183996 1.1526252e-38 315 276
-0.0049093333 0.69999999 -0.044183996 1.1250738e-38 316 276
-0.0036714801 0.69800001 -0.04405776 1.1250738e-38 317 276
-0.0024476533 0.69800001 -0.04405776 1.1067429e-38 318 276
-0.0012273333 0.69999999 -0.044183996 1.1067429e-38 319 276
0 0.70099998 -0.044247117 1.0975599e-38 320 276
0.0012325933 0.70300001 -0.04437336 1.0975599e-38 321 276
0.0024686933 0.704 -0.044436477 1.0975243e-38 322 276
0.0037030398 0.704 -0.044436477 1.0975243e-38 323 276
0.0049514128 0.70599997 -0.044562716 1.0975246e-38 324 276
0.0061892662 0.70599997 -0.044562716 1.0975246e-38 325 276
0.0074376399 0.70700002 -0.044625837 1.106672e-38 326 276
0.008677247 0.70700002 -0.044625837 1.106672e-38 327 276
0.0099589331 0.70999998 -0.044815198 1.1250391e-38 328 276
0.01121958 0.71100003 -0.044878319 1.1250391e-38 329 276
0.0124662 0.71100003 -0.044878319 1.1433703e-38 330 276
0.013751393 0.713 -0.045004558 1.1433703e-38 331 276
0.015022559 0.71399999 -0.045067675 1.1157473e-38 332 276
0.016320027 0.71600002 -0.045193922 1.1065276e-38 333 276
0.017575413 0.71600002 -0.045193922 1.2540411e-38 334 276
-0.050075196 0.71399999 -0.046319555 1.7607213e-38 280 277
-0.048823316 0.71399999 -0.046319555 1.7146236e-38 281 277
-0.047571439 0.71399999 -0.046319555 1.5577096e-38 282 277
-0.046319555 0.71399999 -0.046319555 1.4470748e-38 283 277
-0.045067675 0.71399999 -0.046319555 1.3643857e-38 284 277
-0.043754432 0.713 -0.046254687 1.3643857e-38 285 277
-0.042385083 0.71100003 -0.046124939 1.3091764e-38 286 277
-0.041080594 0.70999998 -0.046060063 1.2999568e-38 287 277
-0.039835732 0.70999998 -0.046060063 1.2722621e-38 288 277
-0.038590867 0.70999998 -0.046060063 1.2630426e-38 289 277
-0.037345998 0.70999998 -0.046060063 1.1986854e-38 290 277
-0.03599944 0.708 -0.045930319 1.1894659e-38 291 277
-0.034758076 0.708 -0.045930319 1.1526952e-38 292 277
-0.033469379 0.70700002 -0.045865446 1.1342561e-38 293 277
-0.032229774 0.70700002 -0.045865446 1.1433682e-38 294 277
-0.030990168 0.70700002 -0.045865446 1.1526236e-38 295 277
-0.029708479 0.70599997 -0.04580057 1.115854e-38 296 277
-0.028389972 0.704 -0.045670826 1.1250735e-38 297 277
-0.027117053 0.70300001 -0.04560595 1.1250741e-38 298 277
-0.025884461 0.70300001 -0.04560595 1.1250741e-38 299 277
-0.024651866 0.70300001 -0.04560595 1.1250385e-38 300 277
-0.023419274 0.70300001 -0.04560595 1.1158189e-38 301 277
-0.022123558 0.70099998 -0.045476202 1.1340786e-38 302 277
-0.020894472 0.70099998 -0.045476202 1.1340786e-38 303 277
-0.019637333 0.69999999 -0.04541133 1.115747e-38 304 277
-0.018409999 0.69999999 -0.04541133 1.1341502e-38 305 277
-0.017182667 0.69999999 -0.04541133 1.1341502e-38 306 277
-0.015978126 0.70099998 -0.045476202 1.1341502e-38 307 277
-0.014791119 0.70300001 -0.04560595 1.115747e-38 308 277
-0.013558527 0.70300001 -0.04560595 1.115747e-38 309 277
-0.012290866 0.70099998 -0.045476202 1.115747e-38 310 277
-0.011061779 0.70099998 -0.045476202 1.115747e-38 311 277
-0.0098326923 0.70099998 -0.045476202 1.1157473e-38 312 277
-0.0086036054 0.70099998 -0.045476202 1.1525896e-38 313 277
-0.0073745195 0.70099998 -0.045476202 1.1619166e-38 314 277
-0.0061454331 0.70099998 -0.045476202 1.1435135e-38 315 277
-0.0049093333 0.69999999 -0.04541133 1.1435132e-38 316 277
-0.0036819996 0.69999999 -0.04541133 1.1342937e-38 317 277
-0.0024546667 0.69999999 -0.04541133 1.1251104e-38 318 277
-0.0012290865 0.70099998 -0.045476202 1.1251104e-38 319 277
0 0.70300001 -0.04560595 1.1250391e-38 320 277
0.0012343467 0.704 -0.045670826 1.1342586e-38 321 277
0.0024757064 0.70599997 -0.04580057 1.1250754e-38 322 277
0.0037135598 0.70599997 -0.04580057 1.1250754e-38 323 277
0.0049584266 0.70700002 -0.045865446 1.1250754e-38 324 277
0.0061980332 0.70700002 -0.045865446 1.1250754e-38 325 277
0.0074481601 0.708 -0.045930319 1.134223e-38 326 277
0.008689519 0.708 -0.045930319 1.1250035e-38 327 277
0.0099589331 0.70999998 -0.046060063 1.1250391e-38 328 277
0.01121958 0.71100003 -0.046124939 1.1250391e-38 329 277
0.012501267 0.713 -0.046254687 1.1341504e-38 330 277
0.013751393 0.713 -0.046254687 1.14337e-38 331 277
0.01506464 0.71600002 -0.046449307 1.2078351e-38 332 277
0.016320027 0.71600002 -0.046449307 1.2262742e-38 333 277
-0.048823316 0.71399999 -0.047571439 1.6501586e-38 281 278
-0.047571439 0.71399999 -0.047571439 1.5762209e-38 282 278
-0.046319555 0.71399999 -0.047571439 1.4748058e-38 283 278
-0.045067675 0.71399999 -0.047571439 1.3735334e-38 284 278
-0.043754432 0.713 -0.047504812 1.3643139e-38 285 278
-0.042385083 0.71100003 -0.047371563 1.3550587e-38 286 278
-0.041138459 0.71100003 -0.047371563 1.3182163e-38 287 278
-0.039891839 0.71100003 -0.047371563 1.2631508e-38 288 278
-0.038645219 0.71100003 -0.047371563 1.2539312e-38 289 278
-0.037345998 0.70999998 -0.047304932 1.2171603e-38 290 278
-0.036101133 0.70999998 -0.047304932 1.2079407e-38 291 278
-0.034758076 0.708 -0.047171678 1.1802816e-38 292 278
-0.033516716 0.708 -0.047171678 1.1526231e-38 293 278
-0.03227536 0.708 -0.047171678 1.1526231e-38 294 278
-0.031034 0.708 -0.047171678 1.1526231e-38 295 278
-0.029750559 0.70700002 -0.047105055 1.152588e-38 296 278
-0.028470624 0.70599997 -0.047038425 1.1433685e-38 297 278
-0.027155625 0.704 -0.046905171 1.1250738e-38 298 278
-0.02592128 0.704 -0.046905171 1.1158542e-38 299 278
-0.024651866 0.70300001 -0.046838548 1.1158545e-38 300 278
-0.023419274 0.70300001 -0.046838548 1.1065991e-38 301 278
-0.02218668 0.70300001 -0.046838548 1.1248586e-38 302 278
-0.020954086 0.70300001 -0.046838548 1.1248586e-38 303 278
-0.019721493 0.70300001 -0.046838548 1.1065273e-38 304 278
-0.018436298 0.70099998 -0.046705291 1.115747e-38 305 278
-0.017207211 0.70099998 -0.046705291 1.1157473e-38 306 278
-0.016023712 0.70300001 -0.046838548 1.1157473e-38 307 278
-0.014812159 0.704 -0.046905171 1.0790131e-38 308 278
-0.013558527 0.70300001 -0.046838548 1.0790131e-38 309 278
-0.012325933 0.70300001 -0.046838548 1.078941e-38 310 278
-0.01109334 0.70300001 -0.046838548 1.078941e-38 311 278
-0.0098607466 0.70300001 -0.046838548 1.0697933e-38 312 278
-0.0086281532 0.70300001 -0.046838548 1.097488e-38 313 278
-0.0073955595 0.70300001 -0.046838548 1.1067076e-38 314 278
-0.0061629666 0.70300001 -0.046838548 1.1343302e-38 315 278
-0.0049303733 0.70300001 -0.046838548 1.1434779e-38 316 278
-0.0036977797 0.70300001 -0.046838548 1.1434779e-38 317 278
-0.0024651866 0.70300001 -0.046838548 1.1434779e-38 318 278
-0.0012325933 0.70300001 -0.046838548 1.1342583e-38 319 278
0 0.704 -0.046905171 1.1250037e-38 320 278
0.0012378532 0.70599997 -0.047038425 1.1250037e-38 321 278
0.0024792133 0.70700002 -0.047105055 1.12504e-38 322 278
0.0037188199 0.70700002 -0.047105055 1.12504e-38 323 278
0.0049654399 0.708 -0.047171678 1.1342233e-38 324 278
0.0062067998 0.708 -0.047171678 1.1250037e-38 325 278
0.0074691991 0.70999998 -0.047304932 1.1251109e-38 326 278
0.0087140659 0.70999998 -0.047304932 1.106672e-38 327 278
0.0099589331 0.70999998 -0.047304932 1.1158192e-38 328 278
0.011251139 0.713 -0.047504812 1.1158192e-38 329 278
0.012518799 0.71399999 -0.047571439 1.1250391e-38 330 278
0.01377068 0.71399999 -0.047571439 1.1250391e-38 331 278
0.01506464 0.71600002 -0.047704693 1.2631171e-38 332 278
0.016342819 0.71700001 -0.04777132 1.3276541e-38 333 278
-0.043754432 0.713 -0.048754938 1.3828253e-38 285 279
-0.042504307 0.713 -0.048754938 1.3274723e-38 286 279
-0.041254178 0.713 -0.048754938 1.3182528e-38 287 279
-0.040004052 0.713 -0.048754938 1.263151e-38 288 279
-0.038645219 0.71100003 -0.048618179 1.2538956e-38 289 279
-0.037345998 0.70999998 -0.048549797 1.217125e-38 290 279
-0.036101133 0.70999998 -0.048549797 1.2079054e-38 291 279
-0.034856264 0.70999998 -0.048549797 1.1802463e-38 292 279
-0.033516716 0.708 -0.048413038 1.1802463e-38 293 279
-0.03227536 0.708 -0.048413038 1.1435838e-38 294 279
-0.031034 0.708 -0.048413038 1.1435838e-38 295 279
-0.029750559 0.70700002 -0.048344657 1.1434406e-38 296 279
-0.028510952 0.70700002 -0.048344657 1.1434406e-38 297 279
-0.027271347 0.70700002 -0.048344657 1.1158542e-38 298 279
-0.025994917 0.70599997 -0.048276275 1.1158542e-38 299 279
-0.024686933 0.704 -0.048139516 1.1248939e-38 300 279
-0.023452586 0.704 -0.048139516 1.1248939e-38 301 279
-0.022218239 0.704 -0.048139516 1.0973075e-38 302 279
-0.020983893 0.704 -0.048139516 1.1065271e-38 303 279
-0.019721493 0.70300001 -0.048071139 1.1248939e-38 304 279
-0.018488899 0.70300001 -0.048071139 1.1248939e-38 305 279
-0.017280852 0.704 -0.048139516 1.0973075e-38 306 279
-0.016046507 0.704 -0.048139516 1.1065271e-38 307 279
-0.014812159 0.704 -0.048139516 1.0790484e-38 308 279
-0.013577812 0.704 -0.048139516 1.0790484e-38 309 279
-0.012343466 0.704 -0.048139516 1.0880882e-38 310 279
-0.011109119 0.704 -0.048139516 1.0880882e-38 311 279
-0.0098747732 0.704 -0.048139516 1.0789766e-38 312 279
-0.0086404262 0.704 -0.048139516 1.1065994e-38 313 279
-0.0074060797 0.704 -0.048139516 1.1251104e-38 314 279
-0.0061717331 0.704 -0.048139516 1.1251104e-38 315 279
-0.0049303733 0.70300001 -0.048071139 1.1434779e-38 316 279
-0.0036977797 0.70300001 -0.048071139 1.1434779e-38 317 279
-0.0024686933 0.704 -0.048139516 1.1434426e-38 318 279
-0.0012343467 0.704 -0.048139516 1.1250035e-38 319 279
0 0.70599997 -0.048276275 1.1250035e-38 320 279
0.0012396066 0.70700002 -0.048344657 1.1157839e-38 321 279
0.00248272 0.708 -0.048413038 1.1250035e-38 322 279
0.00372408 0.708 -0.048413038 1.1250035e-38 323 279
0.0049794666 0.70999998 -0.048549797 1.1157836e-38 324 279
0.0062243328 0.70999998 -0.048549797 1.1250391e-38 325 279
0.0074691991 0.70999998 -0.048549797 1.1341504e-38 326 279
0.0087140659 0.70999998 -0.048549797 1.1341504e-38 327 279
0.0099729598 0.71100003 -0.048618179 1.1340786e-38 328 279
0.011251139 0.713 -0.048754938 1.1248589e-38 329 279
0.012518799 0.71399999 -0.048823316 1.1523745e-38 330 279
0.01377068 0.71399999 -0.048823316 1.180069e-38 331 279
0.01506464 0.71600002 -0.048960082 1.2723372e-38 332 279
-0.043815799 0.71399999 -0.050075196 1.3920446e-38 285 280
-0.042563915 0.71399999 -0.050075196 1.3642067e-38 286 280
-0.041254178 0.713 -0.050005067 1.3180728e-38 287 280
-0.040004052 0.713 -0.050005067 1.2447482e-38 288 280
-0.038753927 0.713 -0.050005067 1.2263451e-38 289 280
-0.037398599 0.71100003 -0.049864799 1.2354918e-38 290 280
-0.036151983 0.71100003 -0.049864799 1.2170166e-38 291 280
-0.034856264 0.70999998 -0.049794663 1.1895012e-38 292 280
-0.033611398 0.70999998 -0.049794663 1.1895012e-38 293 280
-0.03227536 0.708 -0.049654398 1.1712418e-38 294 280
-0.031034 0.708 -0.049654398 1.1435833e-38 295 280
-0.02979264 0.708 -0.049654398 1.1618076e-38 296 280
-0.02855128 0.708 -0.049654398 1.152588e-38 297 280
-0.027309919 0.708 -0.049654398 1.1433687e-38 298 280
-0.026068559 0.708 -0.049654398 1.1341492e-38 299 280
-0.024827199 0.708 -0.049654398 1.1248939e-38 300 280
-0.023552528 0.70700002 -0.049584266 1.1156743e-38 301 280
-0.022312919 0.70700002 -0.049584266 1.1248586e-38 302 280
-0.021043506 0.70599997 -0.04951413 1.115639e-38 303 280
-0.019805651 0.70599997 -0.04951413 1.0973075e-38 304 280
-0.018567799 0.70599997 -0.04951413 1.0973075e-38 305 280
-0.017329946 0.70599997 -0.04951413 1.0789763e-38 306 280
-0.016092092 0.70599997 -0.04951413 1.0973794e-38 307 280
-0.014854239 0.70599997 -0.04951413 1.0514618e-38 308 280
-0.013616386 0.70599997 -0.04951413 1.0422422e-38 309 280
-0.012378532 0.70599997 -0.04951413 1.0605021e-38 310 280
-0.011140679 0.70599997 -0.04951413 1.0605021e-38 311 280
-0.0099028256 0.70599997 -0.04951413 1.0239113e-38 312 280
-0.0086649731 0.70599997 -0.04951413 1.0699732e-38 313 280
-0.0074060797 0.704 -0.049373865 1.0699735e-38 314 280
-0.0061717331 0.704 -0.049373865 1.0884126e-38 315 280
-0.0049373866 0.704 -0.049373865 1.1250756e-38 316 280
-0.0037030398 0.704 -0.049373865 1.1250756e-38 317 280
-0.0024757064 0.70599997 -0.04951413 1.1342233e-38 318 280
-0.0012378532 0.70599997 -0.04951413 1.1250037e-38 319 280
0 0.70700002 -0.049584266 1.1157839e-38 320 280
0.00124136 0.708 -0.049654398 1.1157839e-38 321 280
0.00248272 0.708 -0.049654398 1.1157842e-38 322 280
0.0037345996 0.70999998 -0.049794663 1.1157842e-38 323 280
0.0049794666 0.70999998 -0.049794663 1.0974171e-38 324 280
0.0062243328 0.70999998 -0.049794663 1.0789778e-38 325 280
0.0074481601 0.708 -0.049654398 1.0697583e-38 326 280
0.008689519 0.708 -0.049654398 1.0697583e-38 327 280
0.0099589331 0.70999998 -0.049794663 1.0605031e-38 328 280
0.01121958 0.71100003 -0.049864799 1.0605031e-38 329 280
0.012501267 0.713 -0.050005067 1.0697229e-38 330 280
0.013751393 0.713 -0.050005067 1.1066372e-38 331 280
-0.042563915 0.71399999 -0.05132708 1.3827544e-38 286 281
-0.041254178 0.713 -0.051255193 1.2629359e-38 287 281
-0.040004052 0.713 -0.051255193 1.2078701e-38 288 281
-0.038753927 0.713 -0.051255193 1.2170897e-38 289 281
-0.037503798 0.713 -0.051255193 1.2262366e-38 290 281
-0.036151983 0.71100003 -0.051111419 1.2170169e-38 291 281
-0.034905359 0.71100003 -0.051111419 1.1803545e-38 292 281
-0.033611398 0.70999998 -0.051039528 1.1987577e-38 293 281
-0.032366529 0.70999998 -0.051039528 1.1712068e-38 294 281
-0.031121666 0.70999998 -0.051039528 1.1435482e-38 295 281
-0.02979264 0.708 -0.050895758 1.1618076e-38 296 281
-0.02855128 0.708 -0.050895758 1.1433685e-38 297 281
-0.027309919 0.708 -0.050895758 1.1433685e-38 298 281
-0.026068559 0.708 -0.050895758 1.1341488e-38 299 281
-0.024827199 0.708 -0.050895758 1.106598e-38 300 281
-0.023552528 0.70700002 -0.050823875 1.106598e-38 301 281
-0.022312919 0.70700002 -0.050823875 1.1248939e-38 302 281
-0.021073313 0.70700002 -0.050823875 1.1156743e-38 303 281
-0.019833706 0.70700002 -0.050823875 1.1065627e-38 304 281
-0.018594101 0.70700002 -0.050823875 1.1065627e-38 305 281
-0.017354494 0.70700002 -0.050823875 1.097415e-38 306 281
-0.016114887 0.70700002 -0.050823875 1.078976e-38 307 281
-0.01487528 0.70700002 -0.050823875 1.0697567e-38 308 281
-0.013635674 0.70700002 -0.050823875 1.0605371e-38 309 281
-0.012396066 0.70700002 -0.050823875 1.0696132e-38 310 281
-0.011140679 0.70599997 -0.050751984 1.0696132e-38 311 281
-0.0099028256 0.70599997 -0.050751984 1.0239113e-38 312 281
-0.0086649731 0.70599997 -0.050751984 1.0699732e-38 313 281
-0.0074271196 0.70599997 -0.050751984 1.0791931e-38 314 281
-0.0061892662 0.70599997 -0.050751984 1.0791931e-38 315 281
-0.0049514128 0.70599997 -0.050751984 1.1250391e-38 316 281
-0.0037135598 0.70599997 -0.050751984 1.1250391e-38 317 281
-0.0024792133 0.70700002 -0.050823875 1.1341507e-38 318 281
-0.00124136 0.708 -0.050895758 1.1341507e-38 319 281
0 0.708 -0.050895758 1.1157836e-38 320 281
0.0012448666 0.70999998 -0.051039528 1.1065641e-38 321 281
0.0024897333 0.70999998 -0.051039528 1.1065643e-38 322 281
0.0037345996 0.70999998 -0.051039528 1.0973446e-38 323 281
0.0049794666 0.70999998 -0.051039528 1.0696861e-38 324 281
0.0062067998 0.708 -0.050895758 1.0604665e-38 325 281
0.0074376399 0.70700002 -0.050823875 1.0511751e-38 326 281
0.008677247 0.70700002 -0.050823875 1.0695782e-38 327 281
0.0099308798 0.708 -0.050895758 1.0328077e-38 328 281
0.01117224 0.708 -0.050895758 1.0144046e-38 329 281
0.012501267 0.713 -0.051255193 1.0143693e-38 330 281
-0.038753927 0.713 -0.052505318 1.2353493e-38 289 282
-0.037503798 0.713 -0.052505318 1.1893587e-38 290 282
-0.036253672 0.713 -0.052505318 1.1893587e-38 291 282
-0.034905359 0.71100003 -0.052358042 1.1618798e-38 292 282
-0.033658739 0.71100003 -0.052358042 1.1618798e-38 293 282
-0.032412119 0.71100003 -0.052358042 1.1618079e-38 294 282
-0.031121666 0.70999998 -0.052284397 1.1525883e-38 295 282
-0.029876797 0.70999998 -0.052284397 1.1618076e-38 296 282
-0.028631933 0.70999998 -0.052284397 1.1433685e-38 297 282
-0.027387066 0.70999998 -0.052284397 1.1158528e-38 298 282
-0.026068559 0.708 -0.052137118 1.1158528e-38 299 282
-0.024827199 0.708 -0.052137118 1.106598e-38 300 282
-0.023585839 0.708 -0.052137118 1.106598e-38 301 282
-0.022344479 0.708 -0.052137118 1.0973431e-38 302 282
-0.021103119 0.708 -0.052137118 1.0973431e-38 303 282
-0.01986176 0.708 -0.052137118 1.0973431e-38 304 282
-0.018594101 0.70700002 -0.05206348 1.0973431e-38 305 282
-0.017354494 0.70700002 -0.05206348 1.0697564e-38 306 282
-0.016114887 0.70700002 -0.05206348 1.0697564e-38 307 282
-0.01489632 0.708 -0.052137118 1.0605371e-38 308 282
-0.013635674 0.70700002 -0.05206348 1.0513176e-38 309 282
-0.012396066 0.70700002 -0.05206348 1.0237312e-38 310 282
-0.011156459 0.70700002 -0.05206348 1.0237312e-38 311 282
-0.0099168532 0.70700002 -0.05206348 1.0054366e-38 312 282
-0.0086649731 0.70599997 -0.051989835 1.0422788e-38 313 282
-0.0074271196 0.70599997 -0.051989835 1.0331671e-38 314 282
-0.0061892662 0.70599997 -0.051989835 1.0423868e-38 315 282
-0.0049584266 0.70700002 -0.05206348 1.0882328e-38 316 282
-0.0037188199 0.70700002 -0.05206348 1.0790131e-38 317 282
-0.0024792133 0.70700002 -0.05206348 1.0789057e-38 318 282
-0.00124136 0.708 -0.052137118 1.0789057e-38 319 282
0 0.708 -0.052137118 1.069758e-38 320 282
0.0012448666 0.70999998 -0.052284397 1.0605384e-38 321 282
0.0024897333 0.70999998 -0.052284397 1.0605387e-38 322 282
0.0037345996 0.70999998 -0.052284397 1.0328801e-38 323 282
0.0049794666 0.70999998 -0.052284397 1.0236609e-38 324 282
0.0062067998 0.708 -0.052137118 1.0052216e-38 325 282
0.0074376399 0.70700002 -0.05206348 9.9592986e-39 326 282
0.008677247 0.70700002 -0.05206348 9.4983205e-39 327 282
0.0099308798 0.708 -0.052137118 9.4064906e-39 328 282
0.01117224 0.708 -0.052137118 9.4064906e-39 329 282
-0.038753927 0.713 -0.053755447 1.2352412e-38 289 283
-0.037503798 0.713 -0.053755447 1.1800319e-38 290 283
-0.036253672 0.713 -0.053755447 1.1800319e-38 291 283
-0.035003547 0.713 -0.053755447 1.1525533e-38 292 283
-0.033753417 0.713 -0.053755447 1.1433337e-38 293 283
-0.032412119 0.71100003 -0.053604662 1.1708123e-38 294 283
-0.031165501 0.71100003 -0.053604662 1.1708123e-38 295 283
-0.029918881 0.71100003 -0.053604662 1.1433687e-38 296 283
-0.028672259 0.71100003 -0.053604662 1.1248936e-38 297 283
-0.027387066 0.70999998 -0.053529263 1.1249292e-38 298 283
-0.026142199 0.70999998 -0.053529263 1.1157096e-38 299 283
-0.024897331 0.70999998 -0.053529263 1.115674e-38 300 283
-0.023652466 0.70999998 -0.053529263 1.0972709e-38 301 283
-0.022407599 0.70999998 -0.053529263 1.0972712e-38 302 283
-0.021162732 0.70999998 -0.053529263 1.0972712e-38 303 283
-0.01986176 0.708 -0.053378478 1.0788684e-38 304 283
-0.0186204 0.708 -0.053378478 1.0880879e-38 305 283
-0.017379038 0.708 -0.053378478 1.0605016e-38 306 283
-0.01613768 0.708 -0.053378478 1.051282e-38 307 283
-0.014938398 0.70999998 -0.053529263 1.0420624e-38 308 283
-0.013693533 0.70999998 -0.053529263 1.0420624e-38 309 283
-0.012448666 0.70999998 -0.053529263 1.0144396e-38 310 283
-0.01117224 0.708 -0.053378478 1.0052201e-38 311 283
-0.0099308798 0.708 -0.053378478 1.0051847e-38 312 283
-0.008677247 0.70700002 -0.053303085 1.0512467e-38 313 283
-0.0074376399 0.70700002 -0.053303085 1.0422072e-38 314 283
-0.0061980332 0.70700002 -0.053303085 1.0514267e-38 315 283
-0.0049654399 0.708 -0.053378478 1.0696861e-38 316 283
-0.00372408 0.708 -0.053378478 1.0604665e-38 317 283
-0.00248272 0.708 -0.053378478 1.0512116e-38 318 283
-0.00124136 0.708 -0.053378478 1.0512116e-38 319 283
0 0.70999998 -0.053529263 1.0512116e-38 320 283
0.0012448666 0.70999998 -0.053529263 1.0327724e-38 321 283
0.0024897333 0.70999998 -0.053529263 1.005186e-38 322 283
0.0037345996 0.70999998 -0.053529263 9.8674687e-39 323 283
0.0049794666 0.70999998 -0.053529263 9.5908861e-39 324 283
0.0062067998 0.708 -0.053378478 9.4986904e-39 325 283
0.0074376399 0.70700002 -0.053303085 9.2213805e-39 326 283
0.008677247 0.70700002 -0.053303085 8.852598e-39 327 283
0.0099589331 0.70999998 -0.053529263 9.2206616e-39 328 283
-0.037503798 0.713 -0.055005573 1.1523733e-38 290 284
-0.036253672 0.713 -0.055005573 1.1338983e-38 291 284
-0.035003547 0.713 -0.055005573 1.1430816e-38 292 284
-0.033753417 0.713 -0.055005573 1.1523012e-38 293 284
-0.032503292 0.713 -0.055005573 1.1523728e-38 294 284
-0.031253166 0.713 -0.055005573 1.1523728e-38 295 284
-0.030003037 0.713 -0.055005573 1.1248217e-38 296 284
-0.028752912 0.713 -0.055005573 1.1156022e-38 297 284
-0.027425639 0.71100003 -0.054851279 1.1063826e-38 298 284
-0.026142199 0.70999998 -0.054774132 1.097163e-38 299 284
-0.024897331 0.70999998 -0.054774132 1.0788318e-38 300 284
-0.023652466 0.70999998 -0.054774132 1.0880514e-38 301 284
-0.022407599 0.70999998 -0.054774132 1.097163e-38 302 284
-0.021162732 0.70999998 -0.054774132 1.0879435e-38 303 284
-0.019917866 0.70999998 -0.054774132 1.0603569e-38 304 284
-0.018672999 0.70999998 -0.054774132 1.0603569e-38 305 284
-0.017428132 0.70999998 -0.054774132 1.0327708e-38 306 284
-0.016183265 0.70999998 -0.054774132 1.0327708e-38 307 284
-0.014938398 0.70999998 -0.054774132 1.0144396e-38 308 284
-0.013693533 0.70999998 -0.054774132 1.0052201e-38 309 284
-0.012448666 0.70999998 -0.054774132 9.9596462e-39 310 284
-0.01117224 0.708 -0.054619838 9.9596462e-39 311 284
-0.0099308798 0.708 -0.054619838 9.960721e-39 312 284
-0.008689519 0.708 -0.054619838 1.0329505e-38 313 284
-0.0074481601 0.708 -0.054619838 1.0513539e-38 314 284
-0.0062067998 0.708 -0.054619838 1.0329508e-38 315 284
-0.0049794666 0.70999998 -0.054774132 1.0419554e-38 316 284
-0.0037345996 0.70999998 -0.054774132 1.0327358e-38 317 284
-0.0024897333 0.70999998 -0.054774132 1.0234807e-38 318 284
-0.0012448666 0.70999998 -0.054774132 1.0234807e-38 319 284
0 0.70999998 -0.054774132 9.8678219e-39 320 284
0.0012448666 0.70999998 -0.054774132 9.4990394e-39 321 284
0.0024897333 0.70999998 -0.054774132 9.3142922e-39 322 284
0.0037345996 0.70999998 -0.054774132 9.0380654e-39 323 284
0.0049794666 0.70999998 -0.054774132 9.0366333e-39 324 284
0.0062067998 0.708 -0.054619838 8.7604051e-39 325 284
0.0074376399 0.70700002 -0.054542694 8.6678536e-39 326 284
0.008677247 0.70700002 -0.054542694 8.6678536e-39 327 284
-0.033753417 0.713 -0.056255698 1.0970205e-38 293 285
-0.032503292 0.713 -0.056255698 1.0880161e-38 294 285
-0.031253166 0.713 -0.056255698 1.0880161e-38 295 285
-0.030003037 0.713 -0.056255698 1.0787962e-38 296 285
-0.028752912 0.713 -0.056255698 1.0603569e-38 297 285
-0.027425639 0.71100003 -0.056097899 1.0144393e-38 298 285
-0.026179021 0.71100003 -0.056097899 1.0052198e-38 299 285
-0.024932399 0.71100003 -0.056097899 1.0327706e-38 300 285
-0.023685781 0.71100003 -0.056097899 1.0327706e-38 301 285
-0.022439159 0.71100003 -0.056097899 1.0511018e-38 302 285
-0.021162732 0.70999998 -0.056018997 1.0326987e-38 303 285
-0.019917866 0.70999998 -0.056018997 9.959649e-39 304 285
-0.018672999 0.70999998 -0.056018997 9.959649e-39 305 285
-0.017428132 0.70999998 -0.056018997 9.7749046e-39 306 285
-0.016183265 0.70999998 -0.056018997 9.8671002e-39 307 285
-0.014938398 0.70999998 -0.056018997 9.5912364e-39 308 285
-0.013693533 0.70999998 -0.056018997 9.5912364e-39 309 285
-0.012448666 0.70999998 -0.056018997 9.5926615e-39 310 285
-0.011203799 0.70999998 -0.056018997 9.8692484e-39 311 285
-0.0099308798 0.708 -0.055861197 1.0054716e-38 312 285
-0.008689519 0.708 -0.055861197 9.9625202e-39 313 285
-0.0074691991 0.70999998 -0.056018997 9.9610937e-39 314 285
-0.0062243328 0.70999998 -0.056018997 9.7767024e-39 315 285
-0.0049794666 0.70999998 -0.056018997 9.8667499e-39 316 285
-0.0037345996 0.70999998 -0.056018997 9.6823586e-39 317 285
-0.0024897333 0.70999998 -0.056018997 9.2228252e-39 318 285
-0.0012448666 0.70999998 -0.056018997 9.1306296e-39 319 285
0 0.70999998 -0.056018997 9.5894399e-39 320 285
0.0012448666 0.70999998 -0.056018997 9.2206588e-39 321 285
0.0024897333 0.70999998 -0.056018997 8.3934177e-39 322 285
0.0037345996 0.70999998 -0.056018997 8.2086677e-39 323 285
-0.031296998 0.71399999 -0.057586476 9.0373325e-39 295 286
-0.030003037 0.713 -0.057505824 8.9465704e-39 296 286
-0.028752912 0.713 -0.057505824 9.3153515e-39 297 286
-0.027425639 0.71100003 -0.057344519 9.9574783e-39 298 286
-0.026179021 0.71100003 -0.057344519 9.9574783e-39 299 286
-0.024932399 0.71100003 -0.057344519 1.0141149e-38 300 286
-0.023752406 0.713 -0.057505824 1.0233345e-38 301 286
-0.022502279 0.713 -0.057505824 1.0326261e-38 302 286
-0.021192541 0.71100003 -0.057344519 1.0234065e-38 303 286
-0.01994592 0.71100003 -0.057344519 9.7748878e-39 304 286
-0.018672999 0.70999998 -0.057263866 9.5904965e-39 305 286
-0.017428132 0.70999998 -0.057263866 9.6823362e-39 306 286
-0.016183265 0.70999998 -0.057263866 9.4979449e-39 307 286
-0.014959441 0.71100003 -0.057344519 9.6816201e-39 308 286
-0.01371282 0.71100003 -0.057344519 9.8656513e-39 309 286
-0.0124662 0.71100003 -0.057344519 9.8685253e-39 310 286
-0.01121958 0.71100003 -0.057344519 1.0145112e-38 311 286
-0.0099589331 0.70999998 -0.057263866 1.0144391e-38 312 286
-0.0087140659 0.70999998 -0.057263866 9.683411e-39 313 286
-0.0074691991 0.70999998 -0.057263866 9.5897874e-39 314 286
-0.0062243328 0.70999998 -0.057263866 9.6819831e-39 315 286
-0.0049794666 0.70999998 -0.057263866 9.679116e-39 316 286
-0.0037345996 0.70999998 -0.057263866 9.4947234e-39 317 286
-0.0024897333 0.70999998 -0.057263866 9.3114111e-39 318 286
-0.0012448666 0.70999998 -0.057263866 8.6660417e-39 319 286
0 0.70999998 -0.057263866 7.8384432e-39 320 286
-0.030003037 0.713 -0.058755953 8.2083047e-39 296 287
-0.028752912 0.713 -0.058755953 8.2083047e-39 297 287
-0.027425639 0.71100003 -0.058591139 8.8525755e-39 298 287
-0.026179021 0.71100003 -0.058591139 8.8525755e-39 299 287
-0.024932399 0.71100003 -0.058591139 8.5770648e-39 300 287
-0.023752406 0.713 -0.058755953 9.1302386e-39 301 287
-0.022502279 0.713 -0.058755953 9.5897748e-39 302 287
-0.021252153 0.713 -0.058755953 9.5897748e-39 303 287
-0.020002026 0.713 -0.058755953 9.4975764e-39 304 287
-0.0186993 0.71100003 -0.058591139 9.4053808e-39 305 287
-0.01745268 0.71100003 -0.058591139 8.9451271e-39 306 287
-0.01620606 0.71100003 -0.058591139 8.9451271e-39 307 287
-0.015022559 0.71399999 -0.058838356 8.3037234e-39 308 287
-0.01377068 0.71399999 -0.058838356 8.7643428e-39 309 287
-0.012501267 0.713 -0.058755953 9.1338512e-39 310 287
-0.01121958 0.71100003 -0.058591139 9.0416555e-39 311 287
