# .PCD v.7 - Point Cloud Data file format
FIELDS x y z rgb imX imY
SIZE 4 4 4 4 4 4
TYPE F F F F F F
COUNT 1 1 1 1 1 1
WIDTH 831
HEIGHT 1
VIEWPOINT 0 0 0 1 0 0 0
POINTS 831
DATA ascii
-0.015636226 0.68599999 -0.024055731 1.1145515e-38 307 260
-0.01443344 0.68599999 -0.024055731 1.0870723e-38 308 260
-0.013230653 0.68599999 -0.024055731 1.0778527e-38 309 260
-0.0119928 0.68400002 -0.0239856 1.0595209e-38 310 260
-0.01079352 0.68400002 -0.0239856 1.0503014e-38 311 260
-0.0095802136 0.68300003 -0.023950534 1.0411897e-38 312 260
-0.0083826864 0.68300003 -0.023950534 1.0411897e-38 313 260
-0.0071851597 0.68300003 -0.023950534 1.0595934e-38 314 260
-0.0059964 0.68400002 -0.0239856 1.0595934e-38 315 260
-0.0047971201 0.68400002 -0.0239856 1.0411547e-38 316 260
-0.0035925799 0.68300003 -0.023950534 1.0319351e-38 317 260
-0.0023950534 0.68300003 -0.023950534 1.0410821e-38 318 260
-0.00119928 0.68400002 -0.0239856 1.0318624e-38 319 260
0 0.68400002 -0.0239856 1.0134234e-38 320 260
0.0012027866 0.68599999 -0.024055731 1.0134234e-38 321 260
0.0024055731 0.68599999 -0.024055731 1.0409745e-38 322 260
0.00360836 0.68599999 -0.024055731 1.0409745e-38 323 260
0.0048111463 0.68599999 -0.024055731 1.0410821e-38 324 260
0.0060139326 0.68599999 -0.024055731 1.0503016e-38 325 260
0.0072167199 0.68599999 -0.024055731 1.0319701e-38 326 260
0.0084195063 0.68599999 -0.024055731 1.0319701e-38 327 260
0.0096222926 0.68599999 -0.024055731 1.0503014e-38 328 260
0.010840859 0.68699998 -0.024090799 1.0595209e-38 329 260
0.012045399 0.68699998 -0.024090799 1.087072e-38 330 260
0.013269227 0.68800002 -0.024125867 1.0778524e-38 331 260
0.014475521 0.68800002 -0.024125867 1.087037e-38 332 260
0.015750192 0.69099998 -0.024231065 1.1147317e-38 333 260
0.016961746 0.69099998 -0.024231065 1.1146961e-38 334 260
0.018225901 0.69300002 -0.024301201 1.1423546e-38 335 260
0.019469013 0.69400001 -0.024336265 1.1240228e-38 336 260
0.020745439 0.69599998 -0.0244064 1.1332424e-38 337 260
0.02199732 0.69700003 -0.024441468 1.1149831e-38 338 260
0.023252707 0.69800001 -0.024476532 1.1242026e-38 339 260
0.024476532 0.69800001 -0.024476532 1.1425341e-38 340 260
0.025773998 0.69999999 -0.024546666 1.1610093e-38 341 260
0.027001332 0.69999999 -0.024546666 1.1425341e-38 342 260
0.028228667 0.69999999 -0.024546666 1.0779972e-38 343 260
0.029455997 0.69999999 -0.024546666 1.3732069e-38 344 260
0.030683333 0.69999999 -0.024546666 1.6866721e-38 345 260
-0.040733438 0.704 -0.02592128 1.5303751e-38 287 261
-0.039442986 0.70300001 -0.025884461 1.3451875e-38 288 261
-0.038047329 0.69999999 -0.025773998 1.0593452e-38 289 261
-0.036819998 0.69999999 -0.025773998 1.1791237e-38 290 261
-0.035490975 0.69800001 -0.025700359 1.1791237e-38 291 261
-0.034267146 0.69800001 -0.025700359 1.1515726e-38 292 261
-0.033043321 0.69800001 -0.025700359 1.1423531e-38 293 261
-0.03177391 0.69700003 -0.025663542 1.160612e-38 294 261
-0.030507999 0.69599998 -0.025626717 1.1513924e-38 295 261
-0.029203519 0.69400001 -0.025553079 1.1513922e-38 296 261
-0.027986705 0.69400001 -0.025553079 1.1421726e-38 297 261
-0.026769891 0.69400001 -0.025553079 1.1146221e-38 298 261
-0.025553079 0.69400001 -0.025553079 1.1053666e-38 299 261
-0.024301201 0.69300002 -0.02551626 1.1053669e-38 300 261
-0.022919573 0.68800002 -0.02533216 1.1053669e-38 301 261
-0.021713281 0.68800002 -0.02533216 1.0870001e-38 302 261
-0.020477179 0.68699998 -0.025295338 1.0870001e-38 303 261
-0.019272638 0.68699998 -0.025295338 1.0961123e-38 304 261
-0.018068098 0.68699998 -0.025295338 1.0961123e-38 305 261
-0.016839013 0.68599999 -0.025258519 1.0594862e-38 306 261
-0.015636226 0.68599999 -0.025258519 1.0594862e-38 307 261
-0.01443344 0.68599999 -0.025258519 1.0594859e-38 308 261
-0.013230653 0.68599999 -0.025258519 1.0594859e-38 309 261
-0.012027865 0.68599999 -0.025258519 1.0595212e-38 310 261
-0.01079352 0.68400002 -0.025184879 1.0503016e-38 311 261
-0.0095942402 0.68400002 -0.025184879 1.0319351e-38 312 261
-0.0083949603 0.68400002 -0.025184879 1.0411547e-38 313 261
-0.0071956799 0.68400002 -0.025184879 1.0412266e-38 314 261
-0.0059964 0.68400002 -0.025184879 1.032007e-38 315 261
-0.0047971201 0.68400002 -0.025184879 1.0411544e-38 316 261
-0.00359784 0.68400002 -0.025184879 1.0319348e-38 317 261
-0.0023985601 0.68400002 -0.025184879 1.0227504e-38 318 261
-0.00119928 0.68400002 -0.025184879 1.0135309e-38 319 261
0 0.68400002 -0.025184879 1.0042757e-38 320 261
0.0012027866 0.68599999 -0.025258519 1.0042757e-38 321 261
0.0024055731 0.68599999 -0.025258519 1.0042404e-38 322 261
0.00360836 0.68599999 -0.025258519 1.0134958e-38 323 261
0.0048111463 0.68599999 -0.025258519 9.9516433e-39 324 261
0.0060139326 0.68599999 -0.025258519 1.0135676e-38 325 261
0.0072167199 0.68599999 -0.025258519 1.0227155e-38 326 261
0.0084195063 0.68599999 -0.025258519 1.0134958e-38 327 261
0.0096222926 0.68599999 -0.025258519 1.0227874e-38 328 261
0.010840859 0.68699998 -0.025295338 1.0227874e-38 329 261
0.012045399 0.68699998 -0.025295338 1.0594859e-38 330 261
0.013269227 0.68800002 -0.02533216 1.0594859e-38 331 261
0.014475521 0.68800002 -0.02533216 1.0411912e-38 332 261
0.015750192 0.69099998 -0.025442619 1.0504108e-38 333 261
0.016961746 0.69099998 -0.025442619 1.0780695e-38 334 261
0.018225901 0.69300002 -0.02551626 1.0872891e-38 335 261
0.019469013 0.69400001 -0.025553079 1.1056919e-38 336 261
0.020775247 0.69700003 -0.025663542 1.124095e-38 337 261
0.02199732 0.69700003 -0.025663542 1.1149833e-38 338 261
0.023252707 0.69800001 -0.025700359 1.1242029e-38 339 261
0.024546666 0.69999999 -0.025773998 1.1242032e-38 340 261
0.025773998 0.69999999 -0.025773998 1.151826e-38 341 261
0.027001332 0.69999999 -0.025773998 1.1241679e-38 342 261
0.028228667 0.69999999 -0.025773998 1.0780342e-38 343 261
0.029455997 0.69999999 -0.025773998 1.4192691e-38 344 261
0.030683333 0.69999999 -0.025773998 1.7604288e-38 345 261
-0.039442986 0.70300001 -0.027117053 1.4375627e-38 288 262
-0.038047329 0.69999999 -0.027001332 1.0226465e-38 289 262
-0.0367148 0.69800001 -0.026924185 1.1423178e-38 290 262
-0.035490975 0.69800001 -0.026924185 1.1607569e-38 291 262
-0.034267146 0.69800001 -0.026924185 1.1698686e-38 292 262
-0.03299598 0.69700003 -0.026885614 1.160649e-38 293 262
-0.03177391 0.69700003 -0.026885614 1.151464e-38 294 262
-0.030507999 0.69599998 -0.026847038 1.1238414e-38 295 262
-0.029203519 0.69400001 -0.026769891 1.1421729e-38 296 262
-0.027986705 0.69400001 -0.026769891 1.1421729e-38 297 262
-0.026769891 0.69400001 -0.026769891 1.1146221e-38 298 262
-0.025553079 0.69400001 -0.026769891 1.1053666e-38 299 262
-0.024301201 0.69300002 -0.02673132 1.0961471e-38 300 262
-0.022919573 0.68800002 -0.026538454 1.1053666e-38 301 262
-0.021713281 0.68800002 -0.026538454 1.0870357e-38 302 262
-0.020477179 0.68699998 -0.026499879 1.0870357e-38 303 262
-0.019272638 0.68699998 -0.026499879 1.0961118e-38 304 262
-0.018068098 0.68699998 -0.026499879 1.0868922e-38 305 262
-0.01686356 0.68699998 -0.026499879 1.0777808e-38 306 262
-0.015636226 0.68599999 -0.026461305 1.0777808e-38 307 262
-0.01443344 0.68599999 -0.026461305 1.0502663e-38 308 262
-0.013230653 0.68599999 -0.026461305 1.0594859e-38 309 262
-0.012027865 0.68599999 -0.026461305 1.0502663e-38 310 262
-0.01079352 0.68400002 -0.02638416 1.0502663e-38 311 262
-0.0095942402 0.68400002 -0.02638416 1.041047e-38 312 262
-0.0083949603 0.68400002 -0.02638416 1.0502666e-38 313 262
-0.0071956799 0.68400002 -0.02638416 1.0227874e-38 314 262
-0.0059964 0.68400002 -0.02638416 1.032007e-38 315 262
-0.0047971201 0.68400002 -0.02638416 1.0319704e-38 316 262
-0.00359784 0.68400002 -0.02638416 1.0319704e-38 317 262
-0.0023985601 0.68400002 -0.02638416 1.0227502e-38 318 262
-0.00119928 0.68400002 -0.02638416 1.004311e-38 319 262
0 0.68400002 -0.02638416 1.013459e-38 320 262
0.0012027866 0.68599999 -0.026461305 1.0042394e-38 321 262
0.0024055731 0.68599999 -0.026461305 1.0042041e-38 322 262
0.00360836 0.68599999 -0.026461305 1.0134237e-38 323 262
0.0048111463 0.68599999 -0.026461305 1.004276e-38 324 262
0.0060139326 0.68599999 -0.026461305 1.0134956e-38 325 262
0.0072167199 0.68599999 -0.026461305 1.0318271e-38 326 262
0.0084195063 0.68599999 -0.026461305 1.013424e-38 327 262
0.0096222926 0.68599999 -0.026461305 1.0227155e-38 328 262
0.010840859 0.68699998 -0.026499879 1.0319351e-38 329 262
0.012045399 0.68699998 -0.026499879 1.0595215e-38 330 262
0.013269227 0.68800002 -0.026538454 1.0595215e-38 331 262
0.014475521 0.68800002 -0.026538454 1.0594862e-38 332 262
0.015750192 0.69099998 -0.026654173 1.0779253e-38 333 262
0.016961746 0.69099998 -0.026654173 1.0963284e-38 334 262
0.018225901 0.69300002 -0.02673132 1.1148036e-38 335 262
0.019525118 0.69599998 -0.026847038 1.1056913e-38 336 262
0.020775247 0.69700003 -0.026885614 1.1241303e-38 337 262
0.02199732 0.69700003 -0.026885614 1.1149831e-38 338 262
0.023252707 0.69800001 -0.026924185 1.1149831e-38 339 262
0.024546666 0.69999999 -0.027001332 1.1517541e-38 340 262
0.025810819 0.70099998 -0.027039904 1.1609737e-38 341 262
0.027039904 0.70099998 -0.027039904 1.1149833e-38 342 262
0.028268991 0.70099998 -0.027039904 1.0412268e-38 343 262
0.029498078 0.70099998 -0.027039904 1.4562186e-38 344 262
0.030727165 0.70099998 -0.027039904 1.8526598e-38 345 262
-0.039274666 0.69999999 -0.028228667 1.5113909e-38 288 263
-0.038047329 0.69999999 -0.028228667 1.0411931e-38 289 263
-0.0367148 0.69800001 -0.028148014 1.1880912e-38 290 263
-0.035490975 0.69800001 -0.028148014 1.2157499e-38 291 263
-0.034267146 0.69800001 -0.028148014 1.1790515e-38 292 263
-0.03299598 0.69700003 -0.028107686 1.1606123e-38 293 263
-0.03177391 0.69700003 -0.028107686 1.1514278e-38 294 263
-0.030507999 0.69599998 -0.028067358 1.1329886e-38 295 263
-0.029203519 0.69400001 -0.027986705 1.132953e-38 296 263
-0.027986705 0.69400001 -0.027986705 1.132953e-38 297 263
-0.026769891 0.69400001 -0.027986705 1.132953e-38 298 263
-0.025553079 0.69400001 -0.027986705 1.1145499e-38 299 263
-0.024301201 0.69300002 -0.027946379 1.105402e-38 300 263
-0.022986198 0.69 -0.027825398 1.105402e-38 301 263
-0.021713281 0.68800002 -0.027744746 1.1054022e-38 302 263
-0.020506985 0.68800002 -0.027744746 1.1054022e-38 303 263
-0.019272638 0.68699998 -0.027704418 1.0778161e-38 304 263
-0.018068098 0.68699998 -0.027704418 1.0778161e-38 305 263
-0.01686356 0.68699998 -0.027704418 1.0594493e-38 306 263
-0.015659019 0.68699998 -0.027704418 1.0594493e-38 307 263
-0.01443344 0.68599999 -0.027664091 1.0594493e-38 308 263
-0.013230653 0.68599999 -0.027664091 1.0594493e-38 309 263
-0.012027865 0.68599999 -0.027664091 1.0594496e-38 310 263
-0.010825079 0.68599999 -0.027664091 1.05023e-38 311 263
-0.0095942402 0.68400002 -0.027583439 1.0410468e-38 312 263
-0.0083949603 0.68400002 -0.027583439 1.0410468e-38 313 263
-0.0071956799 0.68400002 -0.027583439 1.0227155e-38 314 263
-0.0059964 0.68400002 -0.027583439 1.0319351e-38 315 263
-0.0047971201 0.68400002 -0.027583439 1.0319704e-38 316 263
-0.00359784 0.68400002 -0.027583439 1.0319704e-38 317 263
-0.0023985601 0.68400002 -0.027583439 1.041117e-38 318 263
-0.00119928 0.68400002 -0.027583439 1.0318974e-38 319 263
0 0.68400002 -0.027583439 1.0042394e-38 320 263
0.00119928 0.68400002 -0.027583439 9.9498399e-39 321 263
0.0024055731 0.68599999 -0.027664091 9.9498455e-39 322 263
0.00360836 0.68599999 -0.027664091 1.0042041e-38 323 263
0.0048111463 0.68599999 -0.027664091 1.0042404e-38 324 263
0.0060139326 0.68599999 -0.027664091 9.9502084e-39 325 263
0.0072167199 0.68599999 -0.027664091 1.0134237e-38 326 263
0.0084195063 0.68599999 -0.027664091 1.0318268e-38 327 263
0.0096363192 0.68699998 -0.027704418 1.0227509e-38 328 263
0.010840859 0.68699998 -0.027704418 1.0319704e-38 329 263
0.012045399 0.68699998 -0.027704418 1.0503016e-38 330 263
0.013249939 0.68699998 -0.027704418 1.0503016e-38 331 263
0.014475521 0.68800002 -0.027744746 1.0594496e-38 332 263
0.015795778 0.69300002 -0.027946379 1.0870723e-38 333 263
0.01701084 0.69300002 -0.027946379 1.0963284e-38 334 263
0.0182522 0.69400001 -0.027986705 1.1148036e-38 335 263
0.019525118 0.69599998 -0.028067358 1.1056916e-38 336 263
0.020775247 0.69700003 -0.028107686 1.1240947e-38 337 263
0.02199732 0.69700003 -0.028107686 1.1149833e-38 338 263
0.023252707 0.69800001 -0.028148014 1.1242029e-38 339 263
0.024581732 0.70099998 -0.028268991 1.1425344e-38 340 263
0.025884461 0.70300001 -0.028349647 1.1517541e-38 341 263
0.027039904 0.70099998 -0.028268991 1.1056916e-38 342 263
0.028268991 0.70099998 -0.028268991 1.1240947e-38 343 263
0.029498078 0.70099998 -0.028268991 1.594584e-38 344 263
0.030727165 0.70099998 -0.028268991 1.9264883e-38 345 263
-0.037938625 0.69800001 -0.029371841 1.0966551e-38 289 264
-0.0367148 0.69800001 -0.029371841 1.1973815e-38 290 264
-0.035490975 0.69800001 -0.029371841 1.2342238e-38 291 264
-0.034267146 0.69800001 -0.029371841 1.2066727e-38 292 264
-0.03299598 0.69700003 -0.02932976 1.1790139e-38 293 264
-0.03177391 0.69700003 -0.02932976 1.1513556e-38 294 264
-0.030507999 0.69599998 -0.029287677 1.142136e-38 295 264
-0.029287677 0.69599998 -0.029287677 1.1421363e-38 296 264
-0.027986705 0.69400001 -0.029203519 1.1421363e-38 297 264
-0.026769891 0.69400001 -0.029203519 1.1146215e-38 298 264
-0.025553079 0.69400001 -0.029203519 1.1146215e-38 299 264
-0.024301201 0.69300002 -0.029161438 1.1145496e-38 300 264
-0.022986198 0.69 -0.029035198 1.1145496e-38 301 264
-0.021713281 0.68800002 -0.028951041 1.1054022e-38 302 264
-0.020506985 0.68800002 -0.028951041 1.1054022e-38 303 264
-0.019272638 0.68699998 -0.028908957 1.0870354e-38 304 264
-0.018068098 0.68699998 -0.028908957 1.0870354e-38 305 264
-0.01686356 0.68699998 -0.028908957 1.0594846e-38 306 264
-0.015659019 0.68699998 -0.028908957 1.0594846e-38 307 264
-0.014454478 0.68699998 -0.028908957 1.050337e-38 308 264
-0.013230653 0.68599999 -0.02886688 1.050337e-38 309 264
-0.012027865 0.68599999 -0.02886688 1.059449e-38 310 264
-0.010825079 0.68599999 -0.02886688 1.059449e-38 311 264
-0.0096222926 0.68599999 -0.02886688 1.0410465e-38 312 264
-0.0084195063 0.68599999 -0.02886688 1.0410465e-38 313 264
-0.0072167199 0.68599999 -0.02886688 1.02268e-38 314 264
-0.0060139326 0.68599999 -0.02886688 1.02268e-38 315 264
-0.0048111463 0.68599999 -0.02886688 1.0227155e-38 316 264
-0.00359784 0.68400002 -0.02878272 1.0319351e-38 317 264
-0.0023985601 0.68400002 -0.02878272 1.0227509e-38 318 264
-0.00119928 0.68400002 -0.02878272 1.0134953e-38 319 264
0 0.68400002 -0.02878272 1.0042394e-38 320 264
0.00119928 0.68400002 -0.02878272 1.0042394e-38 321 264
0.0024055731 0.68599999 -0.02886688 9.9505615e-39 322 264
0.00360836 0.68599999 -0.02886688 9.9505615e-39 323 264
0.0048111463 0.68599999 -0.02886688 1.0225353e-38 324 264
0.0060139326 0.68599999 -0.02886688 1.0317549e-38 325 264
0.0072167199 0.68599999 -0.02886688 1.0134953e-38 326 264
0.0084317802 0.68699998 -0.028908957 1.0134953e-38 327 264
0.0096363192 0.68699998 -0.028908957 1.0227509e-38 328 264
0.010840859 0.68699998 -0.028908957 1.0227509e-38 329 264
0.012045399 0.68699998 -0.028908957 1.0595212e-38 330 264
0.013249939 0.68699998 -0.028908957 1.0595212e-38 331 264
0.014538639 0.69099998 -0.029077278 1.0778524e-38 332 264
0.015795778 0.69300002 -0.029161438 1.087072e-38 333 264
0.017035386 0.69400001 -0.029203519 1.0963284e-38 334 264
0.018304799 0.69599998 -0.029287677 1.1148036e-38 335 264
0.019525118 0.69599998 -0.029287677 1.1057638e-38 336 264
0.020775247 0.69700003 -0.02932976 1.1057638e-38 337 264
0.02199732 0.69700003 -0.02932976 1.1149833e-38 338 264
0.023252707 0.69800001 -0.029371841 1.1149833e-38 339 264
0.024581732 0.70099998 -0.029498078 1.114913e-38 340 264
0.025884461 0.70300001 -0.029582238 1.114913e-38 341 264
0.027117053 0.70300001 -0.029582238 1.1056929e-38 342 264
0.028268991 0.70099998 -0.029498078 1.2532418e-38 343 264
0.029498078 0.70099998 -0.029498078 1.6960714e-38 344 264
-0.037938625 0.69800001 -0.030595668 1.2164741e-38 289 265
-0.0367148 0.69800001 -0.030595668 1.2067095e-38 290 265
-0.035490975 0.69800001 -0.030595668 1.2159291e-38 291 265
-0.034267146 0.69800001 -0.030595668 1.1884855e-38 292 265
-0.033043321 0.69800001 -0.030595668 1.1423878e-38 293 265
-0.03177391 0.69700003 -0.030551834 1.1514996e-38 294 265
-0.030507999 0.69599998 -0.030507999 1.123877e-38 295 265
-0.029287677 0.69599998 -0.030507999 1.1421726e-38 296 265
-0.028067358 0.69599998 -0.030507999 1.132953e-38 297 265
-0.026769891 0.69400001 -0.030420333 1.132953e-38 298 265
-0.025553079 0.69400001 -0.030420333 1.132953e-38 299 265
-0.024301201 0.69300002 -0.0303765 1.0961827e-38 300 265
-0.023019511 0.69099998 -0.030288832 1.0961827e-38 301 265
-0.021776399 0.69 -0.030244999 1.0961471e-38 302 265
-0.020506985 0.68800002 -0.030157333 1.1053666e-38 303 265
-0.019300694 0.68800002 -0.030157333 1.0778524e-38 304 265
-0.0180944 0.68800002 -0.030157333 1.0778524e-38 305 265
-0.016888106 0.68800002 -0.030157333 1.0778527e-38 306 265
-0.015659019 0.68699998 -0.030113498 1.0778527e-38 307 265
-0.014454478 0.68699998 -0.030113498 1.0595209e-38 308 265
-0.013249939 0.68699998 -0.030113498 1.0503014e-38 309 265
-0.012045399 0.68699998 -0.030113498 1.0502293e-38 310 265
-0.010825079 0.68599999 -0.030069664 1.0502293e-38 311 265
-0.0096222926 0.68599999 -0.030069664 1.0410468e-38 312 265
-0.0084195063 0.68599999 -0.030069664 1.0410468e-38 313 265
-0.0072167199 0.68599999 -0.030069664 1.0317915e-38 314 265
-0.0060139326 0.68599999 -0.030069664 1.041047e-38 315 265
-0.0048111463 0.68599999 -0.030069664 1.0410468e-38 316 265
-0.00360836 0.68599999 -0.030069664 1.0318271e-38 317 265
-0.0024055731 0.68599999 -0.030069664 1.0410465e-38 318 265
-0.0012027866 0.68599999 -0.030069664 1.0134237e-38 319 265
0 0.68599999 -0.030069664 1.0225356e-38 320 265
0.0012027866 0.68599999 -0.030069664 1.0132802e-38 321 265
0.0024055731 0.68599999 -0.030069664 9.9494923e-39 322 265
0.00360836 0.68599999 -0.030069664 1.0041688e-38 323 265
0.0048111463 0.68599999 -0.030069664 1.0041685e-38 324 265
0.0060139326 0.68599999 -0.030069664 1.013424e-38 325 265
0.0072272392 0.68699998 -0.030113498 1.0227153e-38 326 265
0.0084317802 0.68699998 -0.030113498 1.0227153e-38 327 265
0.0096363192 0.68699998 -0.030113498 1.0410465e-38 328 265
0.010840859 0.68699998 -0.030113498 1.0410465e-38 329 265
0.012045399 0.68699998 -0.030113498 1.0503014e-38 330 265
0.013269227 0.68800002 -0.030157333 1.0503014e-38 331 265
0.014538639 0.69099998 -0.030288832 1.059449e-38 332 265
0.015818574 0.69400001 -0.030420333 1.0871076e-38 333 265
0.017084479 0.69599998 -0.030507999 1.0962568e-38 334 265
0.018304799 0.69599998 -0.030507999 1.1146961e-38 335 265
0.019553173 0.69700003 -0.030551834 1.1056563e-38 336 265
0.020775247 0.69700003 -0.030551834 1.1333148e-38 337 265
0.02202888 0.69800001 -0.030595668 1.1333146e-38 338 265
0.023252707 0.69800001 -0.030595668 1.1333146e-38 339 265
0.024651866 0.70300001 -0.030814834 1.1149477e-38 340 265
0.02592128 0.704 -0.030858666 1.0780695e-38 341 265
0.027155625 0.704 -0.030858666 1.1610108e-38 342 265
0.028349647 0.70300001 -0.030814834 1.4375977e-38 343 265
0.029582238 0.70300001 -0.030814834 1.7329519e-38 344 265
-0.038373452 0.70599997 -0.032184184 1.3366529e-38 289 266
-0.036819998 0.69999999 -0.031910665 1.2527004e-38 290 266
-0.035592664 0.69999999 -0.031910665 1.2066026e-38 291 266
-0.034365334 0.69999999 -0.031910665 1.2067802e-38 292 266
-0.033043321 0.69800001 -0.031819493 1.1791575e-38 293 266
-0.031819493 0.69800001 -0.031819493 1.169794e-38 294 266
-0.030551834 0.69700003 -0.03177391 1.169794e-38 295 266
-0.029287677 0.69599998 -0.031728316 1.1514278e-38 296 266
-0.028067358 0.69599998 -0.031728316 1.1422082e-38 297 266
-0.026769891 0.69400001 -0.031637147 1.1421726e-38 298 266
-0.025553079 0.69400001 -0.031637147 1.1145499e-38 299 266
-0.024301201 0.69300002 -0.031591557 1.1328811e-38 300 266
-0.023019511 0.69099998 -0.031500384 1.1328811e-38 301 266
-0.021807959 0.69099998 -0.031500384 1.1145502e-38 302 266
-0.020596405 0.69099998 -0.031500384 1.1145502e-38 303 266
-0.019356798 0.69 -0.031454802 1.09622e-38 304 266
-0.018146999 0.69 -0.031454802 1.0870004e-38 305 266
-0.016888106 0.68800002 -0.031363625 1.0778171e-38 306 266
-0.015659019 0.68699998 -0.031318039 1.0778171e-38 307 266
-0.014454478 0.68699998 -0.031318039 1.0595212e-38 308 266
-0.013249939 0.68699998 -0.031318039 1.0503016e-38 309 266
-0.012045399 0.68699998 -0.031318039 1.068561e-38 310 266
-0.010825079 0.68599999 -0.031272452 1.068561e-38 311 266
-0.0096222926 0.68599999 -0.031272452 1.05023e-38 312 266
-0.0084195063 0.68599999 -0.031272452 1.05023e-38 313 266
-0.0072167199 0.68599999 -0.031272452 1.0227153e-38 314 266
-0.0060139326 0.68599999 -0.031272452 1.0134956e-38 315 266
-0.0048111463 0.68599999 -0.031272452 1.0410465e-38 316 266
-0.0036136196 0.68699998 -0.031318039 1.0318268e-38 317 266
-0.0024055731 0.68599999 -0.031272452 1.0318271e-38 318 266
-0.0012027866 0.68599999 -0.031272452 1.0041685e-38 319 266
0 0.68599999 -0.031272452 1.0315398e-38 320 266
0.0012027866 0.68599999 -0.031272452 1.0407594e-38 321 266
0.0024055731 0.68599999 -0.031272452 1.0132805e-38 322 266
0.00360836 0.68599999 -0.031272452 1.0225e-38 323 266
0.0048111463 0.68599999 -0.031272452 1.013424e-38 324 266
0.0060226996 0.68699998 -0.031318039 1.0318271e-38 325 266
0.0072272392 0.68699998 -0.031318039 1.0317915e-38 326 266
0.0084317802 0.68699998 -0.031318039 1.041047e-38 327 266
0.0096363192 0.68699998 -0.031318039 1.0317915e-38 328 266
0.010840859 0.68699998 -0.031318039 1.041047e-38 329 266
0.012062933 0.68800002 -0.031363625 1.0503016e-38 330 266
0.013269227 0.68800002 -0.031363625 1.0503016e-38 331 266
0.014580719 0.69300002 -0.031591557 1.0595215e-38 332 266
0.015864158 0.69599998 -0.031728316 1.0687411e-38 333 266
0.017084479 0.69599998 -0.031728316 1.096329e-38 334 266
0.018331099 0.69700003 -0.03177391 1.1147682e-38 335 266
0.019553173 0.69700003 -0.03177391 1.1056569e-38 336 266
0.020775247 0.69700003 -0.03177391 1.12406e-38 337 266
0.02202888 0.69800001 -0.031819493 1.12406e-38 338 266
0.023319334 0.69999999 -0.031910665 1.1424991e-38 339 266
0.024686933 0.704 -0.032093015 1.0874686e-38 340 266
0.02592128 0.704 -0.032093015 1.0137121e-38 341 266
0.027155625 0.704 -0.032093015 1.2622828e-38 342 266
0.028389972 0.704 -0.032093015 1.6495044e-38 343 266
0.029624319 0.704 -0.032093015 1.76072e-38 344 266
-0.038373452 0.70599997 -0.033422034 1.5671086e-38 289 267
-0.037030395 0.704 -0.03332736 1.3909954e-38 290 267
-0.035592664 0.69999999 -0.033137999 1.1605424e-38 291 267
-0.034365334 0.69999999 -0.033137999 1.197525e-38 292 267
-0.033043321 0.69800001 -0.033043321 1.1699023e-38 293 267
-0.031819493 0.69800001 -0.033043321 1.151464e-38 294 267
-0.030595668 0.69800001 -0.033043321 1.1238414e-38 295 267
-0.02932976 0.69700003 -0.03299598 1.1513924e-38 296 267
-0.028107686 0.69700003 -0.03299598 1.1421729e-38 297 267
-0.026769891 0.69400001 -0.032853961 1.1421729e-38 298 267
-0.025553079 0.69400001 -0.032853961 1.1421729e-38 299 267
-0.024336265 0.69400001 -0.032853961 1.1328814e-38 300 267
-0.023019511 0.69099998 -0.032711938 1.1328814e-38 301 267
-0.021807959 0.69099998 -0.032711938 1.1053666e-38 302 267
-0.020596405 0.69099998 -0.032711938 1.1146221e-38 303 267
-0.019384852 0.69099998 -0.032711938 1.0870001e-38 304 267
-0.018146999 0.69 -0.032664597 1.0870001e-38 305 267
-0.016888106 0.68800002 -0.032569919 1.0778174e-38 306 267
-0.015681813 0.68800002 -0.032569919 1.087037e-38 307 267
-0.014454478 0.68699998 -0.032522578 1.0778527e-38 308 267
-0.013249939 0.68699998 -0.032522578 1.0778527e-38 309 267
-0.012045399 0.68699998 -0.032522578 1.0502298e-38 310 267
-0.010840859 0.68699998 -0.032522578 1.0502298e-38 311 267
-0.0096363192 0.68699998 -0.032522578 1.0410468e-38 312 267
-0.0084317802 0.68699998 -0.032522578 1.0410468e-38 313 267
-0.0072272392 0.68699998 -0.032522578 1.0318268e-38 314 267
-0.0060226996 0.68699998 -0.032522578 1.0318268e-38 315 267
-0.0048181596 0.68699998 -0.032522578 1.0135309e-38 316 267
-0.0036136196 0.68699998 -0.032522578 1.0135309e-38 317 267
-0.0024090798 0.68699998 -0.032522578 1.0043113e-38 318 267
-0.0012045399 0.68699998 -0.032522578 1.0043113e-38 319 267
0 0.68699998 -0.032522578 1.0225356e-38 320 267
0.0012045399 0.68699998 -0.032522578 1.0040606e-38 321 267
0.0024090798 0.68699998 -0.032522578 1.0132805e-38 322 267
0.0036136196 0.68699998 -0.032522578 1.0317196e-38 323 267
0.0048181596 0.68699998 -0.032522578 1.0318268e-38 324 267
0.0060226996 0.68699998 -0.032522578 1.0318268e-38 325 267
0.0072272392 0.68699998 -0.032522578 1.0409747e-38 326 267
0.0084317802 0.68699998 -0.032522578 1.0317552e-38 327 267
0.0096363192 0.68699998 -0.032522578 1.0318268e-38 328 267
0.010840859 0.68699998 -0.032522578 1.0410465e-38 329 267
0.012062933 0.68800002 -0.032569919 1.0685606e-38 330 267
0.013269227 0.68800002 -0.032569919 1.0778161e-38 331 267
0.014580719 0.69300002 -0.03280662 1.0594496e-38 332 267
0.015864158 0.69599998 -0.032948639 1.0870723e-38 333 267
0.017084479 0.69599998 -0.032948639 1.0962565e-38 334 267
0.018331099 0.69700003 -0.03299598 1.1239512e-38 335 267
0.019581227 0.69800001 -0.033043321 1.1147682e-38 336 267
0.020805053 0.69800001 -0.033043321 1.1332074e-38 337 267
0.02218668 0.70300001 -0.033280019 1.1240597e-38 338 267
0.023419274 0.70300001 -0.033280019 1.1332793e-38 339 267
0.024686933 0.704 -0.03332736 1.1240947e-38 340 267
0.02592128 0.704 -0.03332736 1.0319351e-38 341 267
0.027155625 0.704 -0.03332736 1.3363643e-38 342 267
0.028389972 0.704 -0.03332736 1.7696837e-38 343 267
-0.039723519 0.708 -0.034758076 1.8620991e-38 288 268
-0.038427804 0.70700002 -0.034708988 1.7422806e-38 289 268
-0.037188202 0.70700002 -0.034708988 1.4926633e-38 290 268
-0.035897743 0.70599997 -0.034659892 1.142284e-38 291 268
-0.034365334 0.69999999 -0.034365334 1.1514275e-38 292 268
-0.033043321 0.69800001 -0.034267146 1.160647e-38 293 268
-0.031819493 0.69800001 -0.034267146 1.1513922e-38 294 268
-0.030595668 0.69800001 -0.034267146 1.1513922e-38 295 268
-0.029371841 0.69800001 -0.034267146 1.1513203e-38 296 268
-0.028107686 0.69700003 -0.034218054 1.1513203e-38 297 268
-0.026847038 0.69599998 -0.034168959 1.142101e-38 298 268
-0.025553079 0.69400001 -0.034070771 1.142101e-38 299 268
-0.024336265 0.69400001 -0.034070771 1.1421007e-38 300 268
-0.02308614 0.69300002 -0.034021679 1.1421007e-38 301 268
-0.021807959 0.69099998 -0.033923492 1.1146571e-38 302 268
-0.020596405 0.69099998 -0.033923492 1.1146571e-38 303 268
-0.019384852 0.69099998 -0.033923492 1.096255e-38 304 268
-0.018146999 0.69 -0.0338744 1.096255e-38 305 268
-0.0169372 0.69 -0.0338744 1.09622e-38 306 268
-0.015681813 0.68800002 -0.033776212 1.09622e-38 307 268
-0.014475521 0.68800002 -0.033776212 1.0962555e-38 308 268
-0.013249939 0.68699998 -0.033727121 1.0870001e-38 309 268
-0.012045399 0.68699998 -0.033727121 1.0961474e-38 310 268
-0.010840859 0.68699998 -0.033727121 1.0869277e-38 311 268
-0.0096363192 0.68699998 -0.033727121 1.05023e-38 312 268
-0.0084317802 0.68699998 -0.033727121 1.0409745e-38 313 268
-0.0072272392 0.68699998 -0.033727121 1.0134953e-38 314 268
-0.0060226996 0.68699998 -0.033727121 1.0134953e-38 315 268
-0.0048181596 0.68699998 -0.033727121 1.0318618e-38 316 268
-0.0036188802 0.68800002 -0.033776212 1.0318618e-38 317 268
-0.0024125867 0.68800002 -0.033776212 1.0318974e-38 318 268
-0.0012045399 0.68699998 -0.033727121 1.0134943e-38 319 268
0 0.68699998 -0.033727121 1.0225706e-38 320 268
0.0012045399 0.68699998 -0.033727121 1.0225706e-38 321 268
0.0024090798 0.68699998 -0.033727121 1.0225351e-38 322 268
0.0036136196 0.68699998 -0.033727121 1.0317905e-38 323 268
0.0048181596 0.68699998 -0.033727121 1.0134956e-38 324 268
0.0060226996 0.68699998 -0.033727121 1.0134956e-38 325 268
0.0072272392 0.68699998 -0.033727121 1.0317549e-38 326 268
0.0084317802 0.68699998 -0.033727121 1.0409745e-38 327 268
0.0096363192 0.68699998 -0.033727121 1.0318268e-38 328 268
0.010840859 0.68699998 -0.033727121 1.0318268e-38 329 268
0.012097999 0.69 -0.0338744 1.05023e-38 330 268
0.0133078 0.69 -0.0338744 1.0594496e-38 331 268
0.01460176 0.69400001 -0.034070771 1.0502663e-38 332 268
0.015864158 0.69599998 -0.034168959 1.0594859e-38 333 268
0.017109027 0.69700003 -0.034218054 1.0687423e-38 334 268
0.0183574 0.69800001 -0.034267146 1.0872175e-38 335 268
0.019581227 0.69800001 -0.034267146 1.1056569e-38 336 268
0.020864666 0.69999999 -0.034365334 1.12406e-38 337 268
0.02218668 0.70300001 -0.034512613 1.1332795e-38 338 268
0.023419274 0.70300001 -0.034512613 1.12406e-38 339 268
0.024686933 0.704 -0.034561705 1.096437e-38 340 268
0.02592128 0.704 -0.034561705 1.2255109e-38 341 268
0.027155625 0.704 -0.034561705 1.5205407e-38 342 268
-0.039723519 0.708 -0.03599944 1.8804669e-38 288 269
-0.038482159 0.708 -0.03599944 1.852808e-38 289 269
-0.037188202 0.70700002 -0.035948593 1.5944041e-38 290 269
-0.035948593 0.70700002 -0.035948593 1.1795598e-38 291 269
-0.034365334 0.69999999 -0.035592664 1.1513574e-38 292 269
-0.033043321 0.69800001 -0.035490975 1.1605771e-38 293 269
-0.031819493 0.69800001 -0.035490975 1.1514646e-38 294 269
-0.030595668 0.69800001 -0.035490975 1.1330615e-38 295 269
-0.029371841 0.69800001 -0.035490975 1.1513203e-38 296 269
-0.028148014 0.69800001 -0.035490975 1.1513203e-38 297 269
-0.026885614 0.69700003 -0.035440128 1.1513206e-38 298 269
-0.025553079 0.69400001 -0.035287585 1.1513206e-38 299 269
-0.024336265 0.69400001 -0.035287585 1.1421007e-38 300 269
-0.02308614 0.69300002 -0.035236739 1.1421007e-38 301 269
-0.021871079 0.69300002 -0.035236739 1.1146215e-38 302 269
-0.020596405 0.69099998 -0.035135046 1.1146215e-38 303 269
-0.019384852 0.69099998 -0.035135046 1.0962903e-38 304 269
-0.018146999 0.69 -0.035084199 1.0962903e-38 305 269
-0.0169372 0.69 -0.035084199 1.0962553e-38 306 269
-0.015727401 0.69 -0.035084199 1.0962553e-38 307 269
-0.014517599 0.69 -0.035084199 1.0870357e-38 308 269
-0.013269227 0.68800002 -0.03498251 1.0870357e-38 309 269
-0.012062933 0.68800002 -0.03498251 1.0685606e-38 310 269
-0.010856641 0.68800002 -0.03498251 1.0685606e-38 311 269
-0.0096503468 0.68800002 -0.03498251 1.0409745e-38 312 269
-0.0084440531 0.68800002 -0.03498251 1.0409745e-38 313 269
-0.0072377604 0.68800002 -0.03498251 1.0410101e-38 314 269
-0.0060314666 0.68800002 -0.03498251 1.0410101e-38 315 269
-0.0048251734 0.68800002 -0.03498251 1.0318618e-38 316 269
-0.0036188802 0.68800002 -0.03498251 1.0318618e-38 317 269
-0.0024125867 0.68800002 -0.03498251 1.0318974e-38 318 269
-0.0012062934 0.68800002 -0.03498251 1.0134943e-38 319 269
0 0.68800002 -0.03498251 9.9509119e-39 320 269
0.0012062934 0.68800002 -0.03498251 9.7668807e-39 321 269
0.0024125867 0.68800002 -0.03498251 1.0225704e-38 322 269
0.0036188802 0.68800002 -0.03498251 1.0317899e-38 323 269
0.0048251734 0.68800002 -0.03498251 1.0410098e-38 324 269
0.0060314666 0.68800002 -0.03498251 1.0317902e-38 325 269
0.0072377604 0.68800002 -0.03498251 1.0317905e-38 326 269
0.0084686 0.69 -0.035084199 1.0410101e-38 327 269
0.0096783992 0.69 -0.035084199 1.0318624e-38 328 269
0.01090398 0.69099998 -0.035135046 1.0318624e-38 329 269
0.012115533 0.69099998 -0.035135046 1.0410821e-38 330 269
0.01336566 0.69300002 -0.035236739 1.0503016e-38 331 269
0.014643839 0.69599998 -0.035389278 1.0319351e-38 332 269
0.015864158 0.69599998 -0.035389278 1.0411547e-38 333 269
0.017109027 0.69700003 -0.035440128 1.0595225e-38 334 269
0.0183574 0.69800001 -0.035490975 1.0779975e-38 335 269
0.019637333 0.69999999 -0.035592664 1.0964367e-38 336 269
0.020954086 0.70300001 -0.035745207 1.1240594e-38 337 269
0.02218668 0.70300001 -0.035745207 1.1333146e-38 338 269
0.023452586 0.704 -0.035796054 1.0964723e-38 339 269
0.024686933 0.704 -0.035796054 1.133137e-38 340 269
0.02592128 0.704 -0.035796054 1.5203587e-38 341 269
0.027155625 0.704 -0.035796054 1.6038427e-38 342 269
-0.039723519 0.708 -0.0372408 1.7884154e-38 288 270
-0.037721213 0.69400001 -0.036504399 1.7884154e-38 289 270
-0.036504399 0.69400001 -0.036504399 1.6684503e-38 290 270
-0.035287585 0.69400001 -0.036504399 1.3549491e-38 291 270
-0.034365334 0.69999999 -0.036819998 1.2247916e-38 292 270
-0.033137999 0.69999999 -0.036819998 1.1602547e-38 293 270
-0.031910665 0.69999999 -0.036819998 1.1606123e-38 294 270
-0.030595668 0.69800001 -0.0367148 1.1513927e-38 295 270
-0.029371841 0.69800001 -0.0367148 1.1513208e-38 296 270
-0.028148014 0.69800001 -0.0367148 1.1513208e-38 297 270
-0.026885614 0.69700003 -0.036662199 1.1513206e-38 298 270
-0.025626717 0.69599998 -0.036609598 1.1513206e-38 299 270
-0.024336265 0.69400001 -0.036504399 1.1421007e-38 300 270
-0.02308614 0.69300002 -0.036451802 1.1421007e-38 301 270
-0.021871079 0.69300002 -0.036451802 1.1329883e-38 302 270
-0.020596405 0.69099998 -0.036346599 1.1329883e-38 303 270
-0.019384852 0.69099998 -0.036346599 1.1145499e-38 304 270
-0.0181733 0.69099998 -0.036346599 1.132953e-38 305 270
-0.0169372 0.69 -0.036293998 1.1146221e-38 306 270
-0.015727401 0.69 -0.036293998 1.1146221e-38 307 270
-0.014517599 0.69 -0.036293998 1.1053666e-38 308 270
-0.0133078 0.69 -0.036293998 1.0961471e-38 309 270
-0.012062933 0.68800002 -0.0361888 1.0869271e-38 310 270
-0.010856641 0.68800002 -0.0361888 1.0869271e-38 311 270
-0.0096503468 0.68800002 -0.0361888 1.0410454e-38 312 270
-0.0084686 0.69 -0.036293998 1.0225704e-38 313 270
-0.0072587994 0.69 -0.036293998 1.0317902e-38 314 270
-0.0060489997 0.69 -0.036293998 1.0317902e-38 315 270
-0.0048391996 0.69 -0.036293998 1.0317902e-38 316 270
-0.0036293997 0.69 -0.036293998 1.0317902e-38 317 270
-0.0024195998 0.69 -0.036293998 1.0317899e-38 318 270
-0.0012097999 0.69 -0.036293998 1.0317899e-38 319 270
0 0.68800002 -0.0361888 1.0043463e-38 320 270
0.0012062934 0.68800002 -0.0361888 9.7668779e-39 321 270
0.0024125867 0.68800002 -0.0361888 1.0133505e-38 322 270
0.0036188802 0.68800002 -0.0361888 1.022606e-38 323 270
0.0048391996 0.69 -0.036293998 1.0225704e-38 324 270
0.0060489997 0.69 -0.036293998 1.0225704e-38 325 270
0.0072587994 0.69 -0.036293998 1.0225704e-38 326 270
0.0084686 0.69 -0.036293998 1.0317899e-38 327 270
0.0096924258 0.69099998 -0.036346599 1.0134234e-38 328 270
0.010935539 0.69300002 -0.036451802 1.0134234e-38 329 270
0.012150601 0.69300002 -0.036451802 1.0319704e-38 330 270
0.01336566 0.69300002 -0.036451802 1.0319704e-38 331 270
0.014643839 0.69599998 -0.036609598 1.041047e-38 332 270
0.015886955 0.69700003 -0.036662199 1.0317915e-38 333 270
0.017133573 0.69800001 -0.0367148 1.0502313e-38 334 270
0.018409999 0.69999999 -0.036819998 1.0686704e-38 335 270
0.019721493 0.70300001 -0.036977798 1.0780339e-38 336 270
0.020954086 0.70300001 -0.036977798 1.0965089e-38 337 270
0.02218668 0.70300001 -0.036977798 1.0781774e-38 338 270
0.023419274 0.70300001 -0.036977798 1.0597383e-38 339 270
0.024686933 0.704 -0.037030395 1.197891e-38 340 270
0.02603174 0.70700002 -0.037188202 1.6496496e-38 341 270
-0.037721213 0.69400001 -0.037721213 1.6962924e-38 289 271
-0.036451802 0.69300002 -0.037666857 1.7052229e-38 290 271
-0.035236739 0.69300002 -0.037666857 1.5208316e-38 291 271
-0.034365334 0.69999999 -0.038047329 1.2988724e-38 292 271
-0.033137999 0.69999999 -0.038047329 1.0868224e-38 293 271
-0.031910665 0.69999999 -0.038047329 1.1328811e-38 294 271
-0.030595668 0.69800001 -0.037938625 1.1421007e-38 295 271
-0.029371841 0.69800001 -0.037938625 1.1420657e-38 296 271
-0.028148014 0.69800001 -0.037938625 1.1512852e-38 297 271
-0.026885614 0.69700003 -0.037884273 1.1238414e-38 298 271
-0.025626717 0.69599998 -0.037829921 1.1146218e-38 299 271
-0.024336265 0.69400001 -0.037721213 1.1329886e-38 300 271
-0.02308614 0.69300002 -0.037666857 1.1145496e-38 301 271
-0.021871079 0.69300002 -0.037666857 1.132953e-38 302 271
-0.020656019 0.69300002 -0.037666857 1.1145499e-38 303 271
-0.01944096 0.69300002 -0.037666857 1.1236263e-38 304 271
-0.0181733 0.69099998 -0.03755815 1.1328458e-38 305 271
-0.016961746 0.69099998 -0.03755815 1.1053669e-38 306 271
-0.015750192 0.69099998 -0.03755815 1.1053669e-38 307 271
-0.014538639 0.69099998 -0.03755815 1.1054022e-38 308 271
-0.0133078 0.69 -0.037503798 1.0961827e-38 309 271
-0.012097999 0.69 -0.037503798 1.0868908e-38 310 271
-0.010888199 0.69 -0.037503798 1.0776712e-38 311 271
-0.0096783992 0.69 -0.037503798 1.0593044e-38 312 271
-0.0084686 0.69 -0.037503798 1.0593044e-38 313 271
-0.0072587994 0.69 -0.037503798 1.0317905e-38 314 271
-0.0060489997 0.69 -0.037503798 1.0225351e-38 315 271
-0.0048391996 0.69 -0.037503798 1.0317186e-38 316 271
-0.0036293997 0.69 -0.037503798 1.0317186e-38 317 271
-0.0024195998 0.69 -0.037503798 1.0225351e-38 318 271
-0.0012097999 0.69 -0.037503798 1.0225351e-38 319 271
0 0.69 -0.037503798 9.7665276e-39 320 271
0.0012097999 0.69 -0.037503798 9.674332e-39 321 271
0.0024195998 0.69 -0.037503798 9.6739789e-39 322 271
0.0036293997 0.69 -0.037503798 9.7661745e-39 323 271
0.0048462129 0.69099998 -0.03755815 9.6747033e-39 324 271
0.0060577663 0.69099998 -0.03755815 9.582149e-39 325 271
0.0072693196 0.69099998 -0.03755815 9.6736285e-39 326 271
0.008480873 0.69099998 -0.03755815 9.6736285e-39 327 271
0.0096924258 0.69099998 -0.03755815 9.6732782e-39 328 271
0.010935539 0.69300002 -0.037666857 9.7654738e-39 329 271
0.012150601 0.69300002 -0.037666857 9.7669144e-39 330 271
0.013384946 0.69400001 -0.037721213 9.5828832e-39 331 271
0.014643839 0.69599998 -0.037829921 9.7651207e-39 332 271
0.015886955 0.69700003 -0.037884273 9.7651207e-39 333 271
0.017207211 0.70099998 -0.038101684 9.8583939e-39 334 271
0.018436298 0.70099998 -0.038101684 1.0319013e-38 335 271
0.019721493 0.70300001 -0.038210396 1.0412281e-38 336 271
0.020954086 0.70300001 -0.038210396 1.0504477e-38 337 271
0.02218668 0.70300001 -0.038210396 1.0413008e-38 338 271
0.023419274 0.70300001 -0.038210396 1.1427159e-38 339 271
0.024686933 0.704 -0.038264744 1.3086718e-38 340 271
-0.036451802 0.69300002 -0.03888192 1.5854048e-38 290 272
-0.035236739 0.69300002 -0.03888192 1.5116483e-38 291 272
-0.034168959 0.69599998 -0.039050236 1.3731706e-38 292 272
-0.032948639 0.69599998 -0.039050236 1.1426455e-38 293 272
-0.031910665 0.69999999 -0.039274666 1.0683095e-38 294 272
-0.030595668 0.69800001 -0.039162453 1.123591e-38 295 272
-0.029371841 0.69800001 -0.039162453 1.1238063e-38 296 272
-0.028228667 0.69999999 -0.039274666 1.1145868e-38 297 272
-0.026924185 0.69800001 -0.039162453 1.1421013e-38 298 272
-0.025663542 0.69700003 -0.039106347 1.1421013e-38 299 272
-0.024441468 0.69700003 -0.039106347 1.1328811e-38 300 272
-0.023186078 0.69599998 -0.039050236 1.1328811e-38 301 272
-0.021902639 0.69400001 -0.038938027 1.1145499e-38 302 272
-0.020685827 0.69400001 -0.038938027 1.1053304e-38 303 272
-0.019469013 0.69400001 -0.038938027 1.1236619e-38 304 272
-0.018225901 0.69300002 -0.03888192 1.1236619e-38 305 272
-0.01701084 0.69300002 -0.03888192 1.1236619e-38 306 272
-0.015795778 0.69300002 -0.03888192 1.1236619e-38 307 272
-0.014538639 0.69099998 -0.038769703 1.0961824e-38 308 272
-0.013327086 0.69099998 -0.038769703 1.0961824e-38 309 272
-0.012115533 0.69099998 -0.038769703 1.0961107e-38 310 272
-0.01090398 0.69099998 -0.038769703 1.0868552e-38 311 272
-0.0096924258 0.69099998 -0.038769703 1.050157e-38 312 272
-0.008480873 0.69099998 -0.038769703 1.031718e-38 313 272
-0.0072693196 0.69099998 -0.038769703 1.04083e-38 314 272
-0.0060577663 0.69099998 -0.038769703 1.04083e-38 315 272
-0.0048462129 0.69099998 -0.038769703 1.0132792e-38 316 272
-0.0036346598 0.69099998 -0.038769703 1.0132792e-38 317 272
-0.0024195998 0.69 -0.038713597 1.0133155e-38 318 272
-0.0012097999 0.69 -0.038713597 9.8569282e-39 319 272
0 0.69 -0.038713597 9.7643752e-39 320 272
0.0012097999 0.69 -0.038713597 9.4877883e-39 321 272
0.0024195998 0.69 -0.038713597 9.5792651e-39 322 272
0.0036293997 0.69 -0.038713597 9.4870695e-39 323 272
0.0048462129 0.69099998 -0.038769703 9.2115742e-39 324 272
0.0060577663 0.69099998 -0.038769703 9.1193786e-39 325 272
0.0072693196 0.69099998 -0.038769703 9.4870877e-39 326 272
0.008480873 0.69099998 -0.038769703 9.5792833e-39 327 272
0.0097204801 0.69300002 -0.03888192 9.3945389e-39 328 272
0.010935539 0.69300002 -0.03888192 9.3945389e-39 329 272
0.012168133 0.69400001 -0.038938027 9.4856598e-39 330 272
0.013423519 0.69599998 -0.039050236 9.4856598e-39 331 272
0.01466488 0.69700003 -0.039106347 9.4838605e-39 332 272
0.015909746 0.69800001 -0.039162453 9.6686119e-39 333 272
0.017207211 0.70099998 -0.039330769 9.8555185e-39 334 272
0.018488899 0.70300001 -0.039442986 1.0500888e-38 335 272
0.019721493 0.70300001 -0.039442986 1.059488e-38 336 272
0.020954086 0.70300001 -0.039442986 1.0687076e-38 337 272
0.02218668 0.70300001 -0.039442986 1.0597421e-38 338 272
0.023419274 0.70300001 -0.039442986 1.3178898e-38 339 272
-0.035236739 0.69300002 -0.04009698 1.4472193e-38 291 273
-0.034168959 0.69599998 -0.040270556 1.4010827e-38 292 273
-0.032948639 0.69599998 -0.040270556 1.2627892e-38 293 273
-0.031910665 0.69999999 -0.040502001 1.1789815e-38 294 273
-0.030595668 0.69800001 -0.040386278 1.1144445e-38 295 273
-0.029371841 0.69800001 -0.040386278 1.1420657e-38 296 273
-0.028228667 0.69999999 -0.040502001 1.1420657e-38 297 273
-0.026924185 0.69800001 -0.040386278 1.1053669e-38 298 273
-0.025700359 0.69800001 -0.040386278 1.1053669e-38 299 273
-0.024476532 0.69800001 -0.040386278 1.1145499e-38 300 273
-0.023186078 0.69599998 -0.040270556 1.1053304e-38 301 273
-0.021965759 0.69599998 -0.040270556 1.1053304e-38 302 273
-0.020745439 0.69599998 -0.040270556 1.0961107e-38 303 273
-0.019525118 0.69599998 -0.040270556 1.0960399e-38 304 273
-0.0182522 0.69400001 -0.040154841 1.1052953e-38 305 273
-0.01701084 0.69300002 -0.04009698 1.1052953e-38 306 273
-0.015795778 0.69300002 -0.04009698 1.1052953e-38 307 273
-0.014580719 0.69300002 -0.04009698 1.0961827e-38 308 273
-0.013327086 0.69099998 -0.039981257 1.0869271e-38 309 273
-0.012115533 0.69099998 -0.039981257 1.0869624e-38 310 273
-0.01090398 0.69099998 -0.039981257 1.0869624e-38 311 273
-0.0096924258 0.69099998 -0.039981257 1.0869261e-38 312 273
-0.008480873 0.69099998 -0.039981257 1.0776707e-38 313 273
-0.0072693196 0.69099998 -0.039981257 1.0317536e-38 314 273
-0.0060577663 0.69099998 -0.039981257 1.0132786e-38 315 273
-0.0048462129 0.69099998 -0.039981257 9.7650983e-39 316 273
-0.0036346598 0.69099998 -0.039981257 9.4888701e-39 317 273
-0.0024231065 0.69099998 -0.039981257 9.3041384e-39 318 273
-0.0012097999 0.69 -0.0399234 9.1201072e-39 319 273
0 0.69 -0.0399234 9.0268284e-39 320 273
0.0012097999 0.69 -0.0399234 8.6580473e-39 321 273
0.0024195998 0.69 -0.0399234 8.0144799e-39 322 273
0.0036293997 0.69 -0.0399234 8.0144799e-39 323 273
0.0048462129 0.69099998 -0.039981257 7.8301027e-39 324 273
0.0060753003 0.69300002 -0.04009698 8.291441e-39 325 273
0.0072903596 0.69300002 -0.04009698 8.5676663e-39 326 273
0.0085054198 0.69300002 -0.04009698 8.5676663e-39 327 273
0.0097204801 0.69300002 -0.04009698 8.8417379e-39 328 273
0.01095132 0.69400001 -0.040154841 8.565151e-39 329 273
0.0122032 0.69599998 -0.040270556 8.9328573e-39 330 273
0.013442807 0.69700003 -0.040328421 8.9328573e-39 331 273
0.01468592 0.69800001 -0.040386278 9.0254061e-39 332 273
0.015909746 0.69800001 -0.040386278 9.4863842e-39 333 273
0.017256306 0.70300001 -0.040675577 9.581098e-39 334 273
0.018515198 0.704 -0.040733438 9.8576849e-39 335 273
0.019721493 0.70300001 -0.040675577 9.5843448e-39 336 273
0.020954086 0.70300001 -0.040675577 1.032191e-38 337 273
0.02218668 0.70300001 -0.040675577 1.0876911e-38 338 273
-0.029498078 0.70099998 -0.041788943 1.0774587e-38 296 274
-0.028268991 0.70099998 -0.041788943 1.1050813e-38 297 274
-0.027001332 0.69999999 -0.041729331 1.1143717e-38 298 274
-0.025700359 0.69800001 -0.041610107 1.105152e-38 299 274
-0.024476532 0.69800001 -0.041610107 1.0868552e-38 300 274
-0.023219392 0.69700003 -0.041550495 1.0868552e-38 301 274
-0.021965759 0.69599998 -0.041490879 1.1051867e-38 302 274
-0.020745439 0.69599998 -0.041490879 1.0867836e-38 303 274
-0.019525118 0.69599998 -0.041490879 1.0867839e-38 304 274
-0.0182522 0.69400001 -0.041371655 1.1144066e-38 305 274
-0.017035386 0.69400001 -0.041371655 1.1144063e-38 306 274
-0.015818574 0.69400001 -0.041371655 1.1144063e-38 307 274
-0.014580719 0.69300002 -0.041312039 1.0869271e-38 308 274
-0.01336566 0.69300002 -0.041312039 1.0869271e-38 309 274
-0.012150601 0.69300002 -0.041312039 1.0869271e-38 310 274
-0.010935539 0.69300002 -0.041312039 1.0869271e-38 311 274
-0.0097204801 0.69300002 -0.041312039 1.068524e-38 312 274
-0.0085054198 0.69300002 -0.041312039 1.068524e-38 313 274
-0.0072903596 0.69300002 -0.041312039 1.0133505e-38 314 274
-0.0060577663 0.69099998 -0.041192811 9.8572771e-39 315 274
-0.0048462129 0.69099998 -0.041192811 9.7625774e-39 316 274
-0.0036346598 0.69099998 -0.041192811 9.1172079e-39 317 274
-0.0024231065 0.69099998 -0.041192811 9.2069079e-39 318 274
-0.0012115532 0.69099998 -0.041192811 8.930321e-39 319 274
0 0.69099998 -0.041192811 6.9077722e-39 320 274
0.0012097999 0.69 -0.041133199 6.9999679e-39 321 274
0.0024195998 0.69 -0.041133199 6.5415163e-39 322 274
0.0036346598 0.69099998 -0.041192811 6.8181032e-39 323 274
0.00486024 0.69300002 -0.041312039 6.6333616e-39 324 274
0.0060753003 0.69300002 -0.041312039 7.7393504e-39 325 274
0.0072903596 0.69300002 -0.041312039 9.4856598e-39 326 274
0.0085176928 0.69400001 -0.041371655 9.3934641e-39 327 274
0.0097345067 0.69400001 -0.041371655 8.8431616e-39 328 274
0.010982879 0.69599998 -0.041490879 8.8431616e-39 329 274
0.012220734 0.69700003 -0.041550495 8.7531198e-39 330 274
0.013462093 0.69800001 -0.041610107 8.7531198e-39 331 274
0.01468592 0.69800001 -0.041610107 8.9378642e-39 332 274
0.016023712 0.70300001 -0.041908171 9.2140909e-39 333 274
0.017280852 0.704 -0.041967787 9.4903345e-39 334 274
0.018515198 0.704 -0.041967787 9.7665612e-39 335 274
0.019749546 0.704 -0.041967787 9.4914429e-39 336 274
0.020983893 0.704 -0.041967787 1.0874377e-38 337 274
-0.028268991 0.70099998 -0.043018032 1.0131748e-38 297 275
-0.027039904 0.70099998 -0.043018032 1.0499429e-38 298 275
-0.025773998 0.69999999 -0.042956665 1.068346e-38 299 275
-0.024476532 0.69800001 -0.042833932 1.040795e-38 300 275
-0.023219392 0.69700003 -0.042772565 1.040795e-38 301 275
-0.02199732 0.69700003 -0.042772565 1.0499426e-38 302 275
-0.020775247 0.69700003 -0.042772565 1.0499426e-38 303 275
-0.019553173 0.69700003 -0.042772565 1.0500142e-38 304 275
-0.018304799 0.69599998 -0.042711195 1.0592697e-38 305 275
-0.017084479 0.69599998 -0.042711195 1.0868202e-38 306 275
-0.015864158 0.69599998 -0.042711195 1.0776006e-38 307 275
-0.014643839 0.69599998 -0.042711195 1.0868558e-38 308 275
-0.013384946 0.69400001 -0.042588469 1.0776362e-38 309 275
-0.012168133 0.69400001 -0.042588469 1.0592694e-38 310 275
-0.010935539 0.69300002 -0.042527102 1.0592694e-38 311 275
-0.0097204801 0.69300002 -0.042527102 1.0500496e-38 312 275
-0.0085054198 0.69300002 -0.042527102 1.0500496e-38 313 275
-0.0072903596 0.69300002 -0.042527102 1.0316457e-38 314 275
-0.0060753003 0.69300002 -0.042527102 9.9476749e-39 315 275
-0.00486024 0.69300002 -0.042527102 9.9455239e-39 316 275
-0.0036451798 0.69300002 -0.042527102 9.3923501e-39 317 275
-0.0024231065 0.69099998 -0.042404365 8.8413497e-39 318 275
-0.0012115532 0.69099998 -0.042404365 8.8413497e-39 319 275
0 0.69099998 -0.042404365 8.5658516e-39 320 275
0.0012115532 0.69099998 -0.042404365 8.6580473e-39 321 275
0.0024231065 0.69099998 -0.042404365 8.2903564e-39 322 275
0.0036451798 0.69300002 -0.042527102 8.4751064e-39 323 275
0.0048672534 0.69400001 -0.042588469 8.2914382e-39 324 275
0.0061015999 0.69599998 -0.042711195 8.7524163e-39 325 275
0.00733244 0.69700003 -0.042772565 9.6714789e-39 326 275
0.0085422397 0.69599998 -0.042711195 9.4870877e-39 327 275
0.0097625591 0.69599998 -0.042711195 8.9367852e-39 328 275
0.010982879 0.69599998 -0.042711195 8.9367852e-39 329 275
0.012220734 0.69700003 -0.042772565 8.753833e-39 330 275
0.013462093 0.69800001 -0.042833932 8.8463874e-39 331 275
0.014791119 0.70300001 -0.043140765 8.9382299e-39 332 275
0.016023712 0.70300001 -0.043140765 9.1226226e-39 333 275
0.017256306 0.70300001 -0.043140765 9.2148392e-39 334 275
