# .PCD v.7 - Point Cloud Data file format
FIELDS x y z rgb imX imY
SIZE 4 4 4 4 4 4
TYPE F F F F F F
COUNT 1 1 1 1 1 1
WIDTH 834
HEIGHT 1
VIEWPOINT 0 0 0 1 0 0 0
POINTS 834
DATA ascii
-0.037714198 0.71700001 -0.02639994 1.4007227e-38 290 261
-0.036406212 0.71600002 -0.026363119 1.2809042e-38 291 261
-0.035052639 0.71399999 -0.026289478 1.1143745e-38 292 261
-0.033753417 0.713 -0.026252659 1.022143e-38 293 261
-0.032412119 0.71100003 -0.026179021 1.0495826e-38 294 261
-0.031121666 0.70999998 -0.026142199 1.0035207e-38 295 261
-0.029750559 0.70700002 -0.02603174 9.94264e-39 296 261
-0.028470624 0.70599997 -0.025994917 9.665693e-39 297 261
-0.027155625 0.704 -0.02592128 9.3898348e-39 298 261
-0.025810819 0.70099998 -0.025810819 9.2054435e-39 299 261
-0.024581732 0.70099998 -0.025810819 9.2050904e-39 300 261
-0.023319334 0.69999999 -0.025773998 9.297286e-39 301 261
-0.022091998 0.69999999 -0.025773998 9.1125388e-39 302 261
-0.020805053 0.69800001 -0.025700359 9.0203432e-39 303 261
-0.019553173 0.69700003 -0.025663542 9.0196257e-39 304 261
-0.018331099 0.69700003 -0.025663542 8.9274301e-39 305 261
-0.017084479 0.69599998 -0.025626717 8.468254e-39 306 261
-0.015864158 0.69599998 -0.025626717 8.3756996e-39 307 261
-0.014643839 0.69599998 -0.025626717 8.467175e-39 308 261
-0.013384946 0.69400001 -0.025553079 8.1905895e-39 309 261
-0.012168133 0.69400001 -0.025553079 8.1895091e-39 310 261
-0.01095132 0.69400001 -0.025553079 8.0973135e-39 311 261
-0.0097345067 0.69400001 -0.025553079 7.9140012e-39 312 261
-0.0085176928 0.69400001 -0.025553079 7.9140012e-39 313 261
-0.0073008798 0.69400001 -0.025553079 7.730689e-39 314 261
-0.0060840664 0.69400001 -0.025553079 7.730689e-39 315 261
-0.0048672534 0.69400001 -0.025553079 7.6388563e-39 316 261
-0.0036504399 0.69400001 -0.025553079 7.7310519e-39 317 261
-0.0024336267 0.69400001 -0.025553079 7.5477425e-39 318 261
-0.0012168133 0.69400001 -0.025553079 7.5477425e-39 319 261
0 0.69400001 -0.025553079 7.455907e-39 320 261
0.0012168133 0.69400001 -0.025553079 7.455907e-39 321 261
0.0024406398 0.69599998 -0.025626717 7.2729506e-39 322 261
0.0036609597 0.69599998 -0.025626717 7.3651463e-39 323 261
0.0048882933 0.69700003 -0.025663542 7.3651435e-39 324 261
0.0061103669 0.69700003 -0.025663542 7.3651435e-39 325 261
0.0073429602 0.69800001 -0.025700359 7.3654966e-39 326 261
0.0085667865 0.69800001 -0.025700359 7.4576922e-39 327 261
0.0098186666 0.69999999 -0.025773998 7.1829032e-39 328 261
0.011045999 0.69999999 -0.025773998 7.4591313e-39 329 261
0.012290866 0.70099998 -0.025810819 7.735005e-39 330 261
0.013519952 0.70099998 -0.025810819 8.0112317e-39 331 261
0.014749039 0.70099998 -0.025810819 8.1959803e-39 332 261
0.016023712 0.70300001 -0.025884461 8.2881759e-39 333 261
0.017280852 0.704 -0.02592128 8.0141002e-39 334 261
0.018515198 0.704 -0.02592128 8.1062958e-39 335 261
0.019749546 0.704 -0.02592128 8.0144533e-39 336 261
0.021043506 0.70599997 -0.025994917 8.1066489e-39 337 261
0.022344479 0.708 -0.026068559 8.1984816e-39 338 261
0.023585839 0.708 -0.026068559 8.4747098e-39 339 261
0.024897331 0.70999998 -0.026142199 8.567274e-39 340 261
0.026179021 0.71100003 -0.026179021 8.8442196e-39 341 261
0.027387066 0.70999998 -0.026142199 9.2140881e-39 342 261
0.02855128 0.708 -0.026068559 1.0597383e-38 343 261
0.02979264 0.708 -0.026068559 1.3545863e-38 344 261
0.031034 0.708 -0.026068559 1.5113189e-38 345 261
-0.038916986 0.71600002 -0.027618507 1.5297968e-38 289 262
-0.037661601 0.71600002 -0.027618507 1.4191622e-38 290 262
-0.036406212 0.71600002 -0.027618507 1.2993079e-38 291 262
-0.035052639 0.71399999 -0.02754136 1.1419253e-38 292 262
-0.033753417 0.713 -0.027502786 1.0220709e-38 293 262
-0.032366529 0.70999998 -0.027387066 1.0312517e-38 294 262
-0.031121666 0.70999998 -0.027387066 1.003557e-38 295 262
-0.029750559 0.70700002 -0.027271347 9.9430057e-39 296 262
-0.028470624 0.70599997 -0.027232772 9.6664188e-39 297 262
-0.027155625 0.704 -0.027155625 9.3894816e-39 298 262
-0.025884461 0.70300001 -0.027117053 9.297286e-39 299 262
-0.024581732 0.70099998 -0.027039904 9.1136206e-39 300 262
-0.023319334 0.69999999 -0.027001332 9.1136206e-39 301 262
-0.022091998 0.69999999 -0.027001332 9.0214222e-39 302 262
-0.020864666 0.69999999 -0.027001332 8.9292266e-39 303 262
-0.019581227 0.69800001 -0.026924185 8.8363135e-39 304 262
-0.0183574 0.69800001 -0.026924185 8.7437591e-39 305 262
-0.017109027 0.69700003 -0.026885614 8.6515663e-39 306 262
-0.015886955 0.69700003 -0.026885614 8.467175e-39 307 262
-0.014643839 0.69599998 -0.026847038 8.3746235e-39 308 262
-0.013423519 0.69599998 -0.026847038 8.1905923e-39 309 262
-0.012168133 0.69400001 -0.026769891 8.2806328e-39 310 262
-0.01095132 0.69400001 -0.026769891 8.1884371e-39 311 262
-0.0097345067 0.69400001 -0.026769891 8.0969604e-39 312 262
-0.0085176928 0.69400001 -0.026769891 7.9129292e-39 313 262
-0.0073008798 0.69400001 -0.026769891 7.6388563e-39 314 262
-0.0060840664 0.69400001 -0.026769891 7.6388563e-39 315 262
-0.0048672534 0.69400001 -0.026769891 7.6388563e-39 316 262
-0.0036504399 0.69400001 -0.026769891 7.6388563e-39 317 262
-0.0024336267 0.69400001 -0.026769891 7.5463047e-39 318 262
-0.0012168133 0.69400001 -0.026769891 7.5463047e-39 319 262
0 0.69599998 -0.026847038 7.4551881e-39 320 262
0.0012203199 0.69599998 -0.026847038 7.5477425e-39 321 262
0.0024406398 0.69599998 -0.026847038 7.4562629e-39 322 262
0.0036609597 0.69599998 -0.026847038 7.4562629e-39 323 262
0.0048882933 0.69700003 -0.026885614 7.6399325e-39 324 262
0.006119133 0.69800001 -0.026924185 7.6399325e-39 325 262
0.0073429602 0.69800001 -0.026924185 7.3662154e-39 326 262
0.0085913334 0.69999999 -0.027001332 7.2740198e-39 327 262
0.0098186666 0.69999999 -0.027001332 7.4587656e-39 328 262
0.011045999 0.69999999 -0.027001332 7.4587656e-39 329 262
0.012290866 0.70099998 -0.027039904 8.0097842e-39 330 262
0.013519952 0.70099998 -0.027039904 8.1019798e-39 331 262
0.014749039 0.70099998 -0.027039904 8.010866e-39 332 262
0.016023712 0.70300001 -0.027117053 8.2870941e-39 333 262
0.017280852 0.704 -0.027155625 8.1037791e-39 334 262
0.018515198 0.704 -0.027155625 8.1963334e-39 335 262
0.019749546 0.704 -0.027155625 8.1048511e-39 336 262
0.021043506 0.70599997 -0.027232772 8.2892423e-39 337 262
0.022344479 0.708 -0.027309919 8.1984816e-39 338 262
0.023652466 0.70999998 -0.027387066 8.3825128e-39 339 262
0.024897331 0.70999998 -0.027387066 8.383596e-39 340 262
0.026179021 0.71100003 -0.027425639 8.7520184e-39 341 262
0.027425639 0.71100003 -0.027425639 9.304839e-39 342 262
0.02855128 0.708 -0.027309919 1.0780328e-38 343 262
0.02979264 0.708 -0.027309919 1.3545863e-38 344 262
0.031034 0.708 -0.027309919 1.5020993e-38 345 262
-0.035052639 0.71399999 -0.028793238 1.1234143e-38 292 263
-0.033753417 0.713 -0.028752912 1.0127435e-38 293 263
-0.032366529 0.70999998 -0.028631933 1.0494754e-38 294 263
-0.031121666 0.70999998 -0.028631933 1.0218166e-38 295 263
-0.029750559 0.70700002 -0.028510952 9.9419365e-39 296 263
-0.028470624 0.70599997 -0.028470624 9.7575453e-39 297 263
-0.027232772 0.70599997 -0.028470624 9.3891285e-39 298 263
-0.02592128 0.704 -0.028389972 9.3891285e-39 299 263
-0.024651866 0.70300001 -0.028349647 9.3894844e-39 300 263
-0.023352645 0.70099998 -0.028268991 9.2972888e-39 301 263
-0.022123558 0.70099998 -0.028268991 9.2050904e-39 302 263
-0.020864666 0.69999999 -0.028228667 9.1128947e-39 303 263
-0.019637333 0.69999999 -0.028228667 9.0196229e-39 304 263
-0.0183574 0.69800001 -0.028148014 8.9274273e-39 305 263
-0.017133573 0.69800001 -0.028148014 8.7426829e-39 306 263
-0.015886955 0.69700003 -0.028107686 8.5586518e-39 307 263
-0.014643839 0.69599998 -0.028067358 8.4661002e-39 308 263
-0.013423519 0.69599998 -0.028067358 8.3739046e-39 309 263
-0.012168133 0.69400001 -0.027986705 8.4643038e-39 310 263
-0.01095132 0.69400001 -0.027986705 8.2795538e-39 311 263
-0.0097345067 0.69400001 -0.027986705 7.912932e-39 312 263
-0.0085176928 0.69400001 -0.027986705 8.0969632e-39 313 263
-0.0073008798 0.69400001 -0.027986705 7.6388591e-39 314 263
-0.0060840664 0.69400001 -0.027986705 7.6388591e-39 315 263
-0.0048672534 0.69400001 -0.027986705 7.7303358e-39 316 263
-0.0036609597 0.69599998 -0.028067358 7.6381402e-39 317 263
-0.0024406398 0.69599998 -0.028067358 7.6381402e-39 318 263
-0.0012203199 0.69599998 -0.028067358 7.5455859e-39 319 263
0 0.69599998 -0.028067358 7.3629925e-39 320 263
0.0012203199 0.69599998 -0.028067358 7.4551881e-39 321 263
0.0024441467 0.69700003 -0.028107686 7.455544e-39 322 263
0.00366622 0.69700003 -0.028107686 7.5477396e-39 323 263
0.0048882933 0.69700003 -0.028107686 7.731405e-39 324 263
0.006119133 0.69800001 -0.028148014 7.8236007e-39 325 263
0.0073429602 0.69800001 -0.028148014 7.3658525e-39 326 263
0.0085913334 0.69999999 -0.028228667 7.3658525e-39 327 263
0.0098186666 0.69999999 -0.028228667 7.3654938e-39 328 263
0.011045999 0.69999999 -0.028228667 7.4576894e-39 329 263
0.012290866 0.70099998 -0.028268991 7.7332043e-39 330 263
0.013519952 0.70099998 -0.028268991 7.8253999e-39 331 263
0.014749039 0.70099998 -0.028268991 7.8261188e-39 332 263
0.016023712 0.70300001 -0.028349647 7.9183144e-39 333 263
0.017280852 0.704 -0.028389972 7.9193892e-39 334 263
0.018515198 0.704 -0.028389972 8.0115849e-39 335 263
0.019749546 0.704 -0.028389972 8.2874445e-39 336 263
0.021043506 0.70599997 -0.028470624 8.3799988e-39 337 263
0.022344479 0.708 -0.02855128 8.0140904e-39 338 263
0.023652466 0.70999998 -0.028631933 8.106286e-39 339 263
0.024897331 0.70999998 -0.028631933 8.4747126e-39 340 263
0.026179021 0.71100003 -0.028672259 8.7512995e-39 341 263
0.027425639 0.71100003 -0.028672259 9.1208107e-39 342 263
0.02855128 0.708 -0.02855128 1.0872169e-38 343 263
0.02979264 0.708 -0.02855128 1.4005399e-38 344 263
0.031034 0.708 -0.02855128 1.5388334e-38 345 263
-0.035052639 0.71399999 -0.030045118 1.123414e-38 292 264
-0.033753417 0.713 -0.030003037 9.7590082e-39 293 264
-0.032366529 0.70999998 -0.029876797 1.0585871e-38 294 264
-0.031121666 0.70999998 -0.029876797 1.0217447e-38 295 264
-0.02979264 0.708 -0.02979264 9.8493878e-39 296 264
-0.028510952 0.70700002 -0.029750559 9.6649951e-39 297 264
-0.027232772 0.70599997 -0.029708479 9.6646392e-39 298 264
-0.02592128 0.704 -0.029624319 9.6646392e-39 299 264
-0.024686933 0.704 -0.029624319 9.3891285e-39 300 264
-0.023352645 0.70099998 -0.029498078 9.2969329e-39 301 264
-0.022123558 0.70099998 -0.029498078 9.3884054e-39 302 264
-0.020894472 0.70099998 -0.029498078 9.2040156e-39 303 264
-0.019637333 0.69999999 -0.029455997 9.0196229e-39 304 264
-0.0183574 0.69800001 -0.029371841 9.0196229e-39 305 264
-0.017133573 0.69800001 -0.029371841 8.9267112e-39 306 264
-0.015886955 0.69700003 -0.02932976 8.8341569e-39 307 264
-0.01466488 0.69700003 -0.02932976 8.4661002e-39 308 264
-0.013423519 0.69599998 -0.029287677 8.3739046e-39 309 264
-0.0122032 0.69599998 -0.029287677 8.4643038e-39 310 264
-0.01095132 0.69400001 -0.029203519 8.3717494e-39 311 264
-0.0097345067 0.69400001 -0.029203519 8.0969632e-39 312 264
-0.0085176928 0.69400001 -0.029203519 8.1891588e-39 313 264
-0.0073008798 0.69400001 -0.029203519 7.7310547e-39 314 264
-0.0060840664 0.69400001 -0.029203519 7.6388591e-39 315 264
-0.0048672534 0.69400001 -0.029203519 7.7303358e-39 316 264
-0.0036609597 0.69599998 -0.029287677 7.7303358e-39 317 264
-0.0024406398 0.69599998 -0.029287677 7.730333e-39 318 264
-0.0012203199 0.69599998 -0.029287677 7.6381374e-39 319 264
0 0.69700003 -0.02932976 7.5455859e-39 320 264
0.0012220733 0.69700003 -0.02932976 7.7303358e-39 321 264
0.0024441467 0.69700003 -0.02932976 7.455544e-39 322 264
0.00366622 0.69700003 -0.02932976 7.6399353e-39 323 264
0.0048953067 0.69800001 -0.029371841 7.6402856e-39 324 264
0.006119133 0.69800001 -0.029371841 7.54809e-39 325 264
0.0073429602 0.69800001 -0.029371841 7.4566118e-39 326 264
0.0085913334 0.69999999 -0.029455997 7.4566118e-39 327 264
0.0098186666 0.69999999 -0.029455997 7.273301e-39 328 264
0.011045999 0.69999999 -0.029455997 7.3654966e-39 329 264
0.012290866 0.70099998 -0.029498078 7.7332043e-39 330 264
0.013519952 0.70099998 -0.029498078 7.7332043e-39 331 264
0.014749039 0.70099998 -0.029498078 7.6417275e-39 332 264
0.016023712 0.70300001 -0.029582238 7.7339232e-39 333 264
0.017280852 0.704 -0.029624319 7.8264747e-39 334 264
0.018515198 0.704 -0.029624319 7.9186704e-39 335 264
0.019749546 0.704 -0.029624319 8.1034147e-39 336 264
0.021043506 0.70599997 -0.029708479 8.2874473e-39 337 264
0.022344479 0.708 -0.02979264 8.1048511e-39 338 264
0.023652466 0.70999998 -0.029876797 8.1970467e-39 339 264
0.024897331 0.70999998 -0.029876797 8.473642e-39 340 264
0.026179021 0.71100003 -0.029918881 8.8420658e-39 341 264
0.027425639 0.71100003 -0.029918881 9.3963214e-39 342 264
0.028672259 0.71100003 -0.029918881 1.114768e-38 343 264
0.029918881 0.71100003 -0.029918881 1.4188712e-38 344 264
0.031165501 0.71100003 -0.029918881 1.547945e-38 345 264
-0.036304519 0.71399999 -0.031296998 1.3821395e-38 291 265
-0.035052639 0.71399999 -0.031296998 1.1510004e-38 292 265
-0.033753417 0.713 -0.031253166 1.0034515e-38 293 265
-0.032366529 0.70999998 -0.031121666 1.0312161e-38 294 265
-0.031121666 0.70999998 -0.031121666 9.6667916e-39 295 265
-0.02979264 0.708 -0.031034 1.0032703e-38 296 265
-0.028510952 0.70700002 -0.030990168 9.8483102e-39 297 265
-0.027232772 0.70599997 -0.030946331 9.6639231e-39 298 265
-0.02592128 0.704 -0.030858666 9.6639231e-39 299 265
-0.024686933 0.704 -0.030858666 9.3891313e-39 300 265
-0.023419274 0.70300001 -0.030814834 9.2969357e-39 301 265
-0.02218668 0.70300001 -0.030814834 9.2047344e-39 302 265
-0.020894472 0.70099998 -0.030727165 9.1125388e-39 303 265
-0.019637333 0.69999999 -0.030683333 9.1118228e-39 304 265
-0.018409999 0.69999999 -0.030683333 9.0196257e-39 305 265
-0.017133573 0.69800001 -0.030595668 8.9270742e-39 306 265
-0.015909746 0.69800001 -0.030595668 8.7426829e-39 307 265
-0.01466488 0.69700003 -0.030551834 8.6494125e-39 308 265
-0.013442807 0.69700003 -0.030551834 8.5572168e-39 309 265
-0.0122032 0.69599998 -0.030507999 8.5572196e-39 310 265
-0.010982879 0.69599998 -0.030507999 8.3731871e-39 311 265
-0.0097625591 0.69599998 -0.030507999 8.0980394e-39 312 265
-0.0085422397 0.69599998 -0.030507999 8.0980394e-39 313 265
-0.0073219193 0.69599998 -0.030507999 7.914367e-39 314 265
-0.0061015999 0.69599998 -0.030507999 8.0065626e-39 315 265
-0.0048812795 0.69599998 -0.030507999 7.914367e-39 316 265
-0.00366622 0.69700003 -0.030551834 7.7303358e-39 317 265
-0.0024441467 0.69700003 -0.030551834 7.6388591e-39 318 265
-0.0012220733 0.69700003 -0.030551834 7.5463047e-39 319 265
0 0.69700003 -0.030551834 7.7299799e-39 320 265
0.0012220733 0.69700003 -0.030551834 7.7299799e-39 321 265
0.0024476533 0.69800001 -0.030595668 7.5477425e-39 322 265
0.0036714801 0.69800001 -0.030595668 7.5477425e-39 323 265
0.0048953067 0.69800001 -0.030595668 7.5477368e-39 324 265
0.006119133 0.69800001 -0.030595668 7.4555412e-39 325 265
0.0073639993 0.69999999 -0.030683333 7.4558971e-39 326 265
0.0085913334 0.69999999 -0.030683333 7.4558971e-39 327 265
0.0098186666 0.69999999 -0.030683333 7.4566132e-39 328 265
0.011061779 0.70099998 -0.030727165 7.4566132e-39 329 265
0.012290866 0.70099998 -0.030727165 7.6402856e-39 330 265
0.013519952 0.70099998 -0.030727165 7.8243167e-39 331 265
0.014791119 0.70300001 -0.030814834 7.6410045e-39 332 265
0.016023712 0.70300001 -0.030814834 7.7332015e-39 333 265
0.017280852 0.704 -0.030858666 7.6417247e-39 334 265
0.018515198 0.704 -0.030858666 7.8264747e-39 335 265
0.019749546 0.704 -0.030858666 8.0108632e-39 336 265
0.021043506 0.70599997 -0.030946331 8.1030588e-39 337 265
0.022312919 0.70700002 -0.030990168 8.104135e-39 338 265
0.023652466 0.70999998 -0.031121666 8.1963306e-39 339 265
0.024897331 0.70999998 -0.031121666 8.564753e-39 340 265
0.026179021 0.71100003 -0.031165501 8.9338957e-39 341 265
0.027425639 0.71100003 -0.031165501 9.9476931e-39 342 265
0.028672259 0.71100003 -0.031165501 1.1791606e-38 343 265
0.029918881 0.71100003 -0.031165501 1.4188712e-38 344 265
0.031165501 0.71100003 -0.031165501 1.5295059e-38 345 265
-0.034905359 0.71100003 -0.032412119 1.215572e-38 292 266
-0.032412119 0.71100003 -0.032412119 1.0862088e-38 294 266
-0.031121666 0.70999998 -0.032366529 1.0308914e-38 295 266
-0.02979264 0.708 -0.03227536 1.0307492e-38 296 266
-0.028510952 0.70700002 -0.032229774 1.0123099e-38 297 266
-0.027271347 0.70700002 -0.032229774 9.6639231e-39 298 266
-0.025994917 0.70599997 -0.032184184 9.6639231e-39 299 266
-0.024686933 0.704 -0.032093015 9.7553929e-39 300 266
-0.023419274 0.70300001 -0.032047424 9.7553929e-39 301 266
-0.02218668 0.70300001 -0.032047424 9.4798794e-39 302 266
-0.020954086 0.70300001 -0.032047424 9.3876838e-39 303 266
-0.019665385 0.70099998 -0.031956252 9.2954881e-39 304 266
-0.018409999 0.69999999 -0.031910665 9.2032911e-39 305 266
-0.017182667 0.69999999 -0.031910665 8.9267112e-39 306 266
-0.015909746 0.69800001 -0.031819493 8.9267112e-39 307 266
-0.01468592 0.69800001 -0.031819493 8.741248e-39 308 266
-0.013442807 0.69700003 -0.03177391 8.741248e-39 309 266
-0.012220734 0.69700003 -0.03177391 8.5575728e-39 310 266
-0.01099866 0.69700003 -0.03177391 8.6497684e-39 311 266
-0.0097765867 0.69700003 -0.03177391 8.4664533e-39 312 266
-0.0085545136 0.69700003 -0.03177391 8.3742563e-39 313 266
-0.00733244 0.69700003 -0.03177391 8.0983953e-39 314 266
-0.0061103669 0.69700003 -0.03177391 8.0058409e-39 315 266
-0.0048953067 0.69800001 -0.031819493 8.0058409e-39 316 266
-0.0036714801 0.69800001 -0.031819493 8.0983953e-39 317 266
-0.0024476533 0.69800001 -0.031819493 7.8236035e-39 318 266
-0.0012238267 0.69800001 -0.031819493 7.7310491e-39 319 266
0 0.69800001 -0.031819493 7.6388563e-39 320 266
0.0012238267 0.69800001 -0.031819493 7.7310519e-39 321 266
0.0024476533 0.69800001 -0.031819493 7.5477396e-39 322 266
0.0036714801 0.69800001 -0.031819493 7.5477396e-39 323 266
0.0048953067 0.69800001 -0.031819493 7.4558971e-39 324 266
0.0061366665 0.69999999 -0.031910665 7.4558971e-39 325 266
0.0073639993 0.69999999 -0.031910665 7.4558971e-39 326 266
0.0085913334 0.69999999 -0.031910665 7.3633428e-39 327 266
0.0098186666 0.69999999 -0.031910665 7.3640645e-39 328 266
0.011061779 0.70099998 -0.031956252 7.4562601e-39 329 266
0.012290866 0.70099998 -0.031956252 7.4562629e-39 330 266
0.013519952 0.70099998 -0.031956252 7.5484585e-39 331 266
0.014791119 0.70300001 -0.032047424 7.6399353e-39 332 266
0.016023712 0.70300001 -0.032047424 7.8239678e-39 333 266
0.017280852 0.704 -0.032093015 7.8254027e-39 334 266
0.018515198 0.704 -0.032093015 8.1016295e-39 335 266
0.019749546 0.704 -0.032093015 8.0105101e-39 336 266
0.021043506 0.70599997 -0.032184184 8.1030644e-39 337 266
0.022312919 0.70700002 -0.032229774 8.1030644e-39 338 266
0.023652466 0.70999998 -0.032366529 8.4714882e-39 339 266
0.024897331 0.70999998 -0.032366529 8.3814604e-39 340 266
0.026179021 0.71100003 -0.032412119 8.8427973e-39 341 266
0.027425639 0.71100003 -0.032412119 9.7654766e-39 342 266
0.028672259 0.71100003 -0.032412119 1.1701585e-38 343 266
0.029918881 0.71100003 -0.032412119 1.4188359e-38 344 266
-0.032412119 0.71100003 -0.033658739 1.1045766e-38 294 267
-0.031121666 0.70999998 -0.033611398 1.0861016e-38 295 267
-0.029876797 0.70999998 -0.033611398 1.0308211e-38 296 267
-0.02855128 0.708 -0.033516716 9.8475913e-39 297 267
-0.027271347 0.70700002 -0.033469379 9.755037e-39 298 267
-0.025994917 0.70599997 -0.033422034 9.8475913e-39 299 267
-0.024686933 0.704 -0.03332736 9.5717247e-39 300 267
-0.023419274 0.70300001 -0.033280019 9.5717247e-39 301 267
-0.02218668 0.70300001 -0.033280019 9.4795263e-39 302 267
-0.020954086 0.70300001 -0.033280019 9.3873306e-39 303 267
-0.019665385 0.70099998 -0.03318534 9.2951378e-39 304 267
-0.018436298 0.70099998 -0.03318534 9.2029408e-39 305 267
-0.017182667 0.69999999 -0.033137999 9.019274e-39 306 267
-0.015909746 0.69800001 -0.033043321 8.742327e-39 307 267
-0.01468592 0.69800001 -0.033043321 8.6494153e-39 308 267
-0.013462093 0.69800001 -0.033043321 8.5572196e-39 309 267
-0.012238266 0.69800001 -0.033043321 8.3746263e-39 310 267
-0.01101444 0.69800001 -0.033043321 8.4668219e-39 311 267
-0.0097906133 0.69800001 -0.033043321 8.1920301e-39 312 267
-0.0085667865 0.69800001 -0.033043321 8.0079989e-39 313 267
-0.0073429602 0.69800001 -0.033043321 8.1909553e-39 314 267
-0.006119133 0.69800001 -0.033043321 8.0987596e-39 315 267
-0.0048953067 0.69800001 -0.033043321 8.0980394e-39 316 267
-0.0036714801 0.69800001 -0.033043321 8.0980394e-39 317 267
-0.0024476533 0.69800001 -0.033043321 7.8232475e-39 318 267
-0.0012238267 0.69800001 -0.033043321 7.6388563e-39 319 267
0 0.69800001 -0.033043321 7.7310547e-39 320 267
0.0012238267 0.69800001 -0.033043321 7.7310547e-39 321 267
0.0024476533 0.69800001 -0.033043321 7.5477425e-39 322 267
0.0036714801 0.69800001 -0.033043321 7.5477425e-39 323 267
0.0049093333 0.69999999 -0.033137999 7.4555412e-39 324 267
0.0061366665 0.69999999 -0.033137999 7.4555412e-39 325 267
0.0073639993 0.69999999 -0.033137999 7.3633456e-39 326 267
0.0086036054 0.70099998 -0.03318534 7.3633456e-39 327 267
0.0098326923 0.70099998 -0.03318534 7.270794e-39 328 267
0.01109334 0.70300001 -0.033280019 7.3633484e-39 329 267
0.012325933 0.70300001 -0.033280019 7.6388563e-39 330 267
0.013577812 0.704 -0.03332736 7.6388563e-39 331 267
0.014812159 0.704 -0.03332736 7.7310519e-39 332 267
0.016046507 0.704 -0.03332736 7.9154446e-39 333 267
0.017280852 0.704 -0.03332736 7.9165166e-39 334 267
0.018567799 0.70599997 -0.033422034 8.1012666e-39 335 267
0.019805651 0.70599997 -0.033422034 7.9186704e-39 336 267
0.021073313 0.70700002 -0.033469379 8.010866e-39 337 267
0.022344479 0.708 -0.033516716 8.1030616e-39 338 267
0.023652466 0.70999998 -0.033611398 8.3792898e-39 339 267
0.025002534 0.713 -0.033753417 8.6573074e-39 340 267
0.026179021 0.71100003 -0.033658739 8.7495044e-39 341 267
0.027425639 0.71100003 -0.033658739 1.0315401e-38 342 267
0.028752912 0.713 -0.033753417 1.2896878e-38 343 267
0.030003037 0.713 -0.033753417 1.4096163e-38 344 267
-0.032412119 0.71100003 -0.034905359 1.1320921e-38 294 268
-0.031165501 0.71100003 -0.034905359 1.1136529e-38 295 268
-0.029918881 0.71100003 -0.034905359 1.0858864e-38 296 268
-0.028631933 0.70999998 -0.034856264 1.0398244e-38 297 268
-0.027309919 0.708 -0.034758076 1.0122378e-38 298 268
-0.02603174 0.70700002 -0.034708988 1.0030182e-38 299 268
-0.024757065 0.70599997 -0.034659892 9.755037e-39 300 268
-0.023452586 0.704 -0.034561705 9.6628413e-39 301 268
-0.022218239 0.704 -0.034561705 9.6621225e-39 302 268
-0.020983893 0.704 -0.034561705 9.5699268e-39 303 268
-0.019749546 0.704 -0.034561705 9.5706429e-39 304 268
-0.018488899 0.70300001 -0.034512613 9.3866118e-39 305 268
-0.017207211 0.70099998 -0.034414422 9.202938e-39 306 268
-0.015955333 0.69999999 -0.034365334 8.9267112e-39 307 268
-0.014727999 0.69999999 -0.034365334 8.7426829e-39 308 268
-0.013462093 0.69800001 -0.034267146 8.5586518e-39 309 268
-0.012238266 0.69800001 -0.034267146 8.5586518e-39 310 268
-0.01101444 0.69800001 -0.034267146 8.7426829e-39 311 268
-0.0097906133 0.69800001 -0.034267146 8.467175e-39 312 268
-0.0085667865 0.69800001 -0.034267146 8.467175e-39 313 268
-0.0073429602 0.69800001 -0.034267146 8.1913112e-39 314 268
-0.006119133 0.69800001 -0.034267146 8.0991156e-39 315 268
-0.0048953067 0.69800001 -0.034267146 8.1905923e-39 316 268
-0.0036819996 0.69999999 -0.034365334 8.0983953e-39 317 268
-0.0024546667 0.69999999 -0.034365334 7.9143642e-39 318 268
-0.0012273333 0.69999999 -0.034365334 7.9143642e-39 319 268
0 0.69999999 -0.034365334 7.7303358e-39 320 268
0.0012273333 0.69999999 -0.034365334 7.7303358e-39 321 268
0.0024546667 0.69999999 -0.034365334 7.6388591e-39 322 268
0.0036819996 0.69999999 -0.034365334 7.6388591e-39 323 268
0.0049093333 0.69999999 -0.034365334 7.730689e-39 324 268
0.0061454331 0.70099998 -0.034414422 7.730689e-39 325 268
0.0073745195 0.70099998 -0.034414422 7.545939e-39 326 268
0.0086036054 0.70099998 -0.034414422 7.4537434e-39 327 268
0.0098607466 0.70300001 -0.034512613 7.3622736e-39 328 268
0.01109334 0.70300001 -0.034512613 7.3622736e-39 329 268
0.012325933 0.70300001 -0.034512613 7.3629925e-39 330 268
0.013577812 0.704 -0.034561705 7.4551881e-39 331 268
0.014812159 0.704 -0.034561705 7.7310547e-39 332 268
0.016046507 0.704 -0.034561705 7.8232503e-39 333 268
0.017329946 0.70599997 -0.034659892 8.0087178e-39 334 268
0.018567799 0.70599997 -0.034659892 8.1931091e-39 335 268
0.019805651 0.70599997 -0.034659892 8.2856578e-39 336 268
0.021073313 0.70700002 -0.034708988 8.2856578e-39 337 268
0.022344479 0.708 -0.034758076 8.0112289e-39 338 268
0.023652466 0.70999998 -0.034856264 8.2881759e-39 339 268
0.024932399 0.71100003 -0.034905359 8.5647558e-39 340 268
0.026179021 0.71100003 -0.034905359 8.6569515e-39 341 268
0.027425639 0.71100003 -0.034905359 1.0866054e-38 342 268
0.028752912 0.713 -0.035003547 1.4092901e-38 343 268
-0.033658739 0.71100003 -0.036151983 1.2712512e-38 293 269
-0.032412119 0.71100003 -0.036151983 1.1688983e-38 294 269
-0.031165501 0.71100003 -0.036151983 1.1320202e-38 295 269
-0.029918881 0.71100003 -0.036151983 1.1043611e-38 296 269
-0.028631933 0.70999998 -0.036101133 1.0582634e-38 297 269
-0.027309919 0.708 -0.03599944 1.0214929e-38 298 269
-0.026068559 0.708 -0.03599944 1.0122733e-38 299 269
-0.024792133 0.70700002 -0.035948593 1.0030182e-38 300 269
-0.023519212 0.70599997 -0.035897743 9.9379863e-39 301 269
-0.022218239 0.704 -0.035796054 9.6631973e-39 302 269
-0.020983893 0.704 -0.035796054 9.6631973e-39 303 269
-0.019749546 0.704 -0.035796054 9.4798794e-39 304 269
-0.018488899 0.70300001 -0.035745207 9.3876838e-39 305 269
-0.017256306 0.70300001 -0.035745207 9.2032911e-39 306 269
-0.015978126 0.70099998 -0.035643511 9.01926e-39 307 269
-0.014727999 0.69999999 -0.035592664 8.6515635e-39 308 269
-0.013500666 0.69999999 -0.035592664 8.5593678e-39 309 269
-0.012273333 0.69999999 -0.035592664 8.5582986e-39 310 269
-0.01101444 0.69800001 -0.035490975 8.466103e-39 311 269
-0.0097906133 0.69800001 -0.035490975 8.4668219e-39 312 269
-0.0085667865 0.69800001 -0.035490975 8.4668219e-39 313 269
-0.0073429602 0.69800001 -0.035490975 8.2835068e-39 314 269
-0.006119133 0.69800001 -0.035490975 8.1913112e-39 315 269
-0.0048953067 0.69800001 -0.035490975 8.3746206e-39 316 269
-0.0036819996 0.69999999 -0.035592664 8.0983925e-39 317 269
-0.0024546667 0.69999999 -0.035592664 7.9147201e-39 318 269
-0.0012273333 0.69999999 -0.035592664 7.730689e-39 319 269
0 0.69999999 -0.035592664 7.7303358e-39 320 269
0.0012273333 0.69999999 -0.035592664 7.7303358e-39 321 269
0.0024546667 0.69999999 -0.035592664 7.5463047e-39 322 269
0.0036819996 0.69999999 -0.035592664 7.5463047e-39 323 269
0.0049163462 0.70099998 -0.035643511 7.730333e-39 324 269
0.0061454331 0.70099998 -0.035643511 7.6381374e-39 325 269
0.0073745195 0.70099998 -0.035643511 7.5455859e-39 326 269
0.0086036054 0.70099998 -0.035643511 7.5455859e-39 327 269
0.0098607466 0.70300001 -0.035745207 7.453393e-39 328 269
0.01109334 0.70300001 -0.035745207 7.5455887e-39 329 269
0.012343466 0.704 -0.035796054 7.5463047e-39 330 269
0.013577812 0.704 -0.035796054 7.6388591e-39 331 269
0.014812159 0.704 -0.035796054 7.5477396e-39 332 269
0.016046507 0.704 -0.035796054 7.8239678e-39 333 269
0.017329946 0.70599997 -0.035897743 7.9165194e-39 334 269
0.018567799 0.70599997 -0.035897743 8.1009106e-39 335 269
0.019833706 0.70700002 -0.035948593 8.1934622e-39 336 269
0.021073313 0.70700002 -0.035948593 8.1934622e-39 337 269
0.022344479 0.708 -0.03599944 8.1030616e-39 338 269
0.023652466 0.70999998 -0.036101133 8.4718441e-39 339 269
0.024932399 0.71100003 -0.036151983 8.7487842e-39 340 269
0.026179021 0.71100003 -0.036151983 8.6565885e-39 341 269
0.027425639 0.71100003 -0.036151983 1.1417788e-38 342 269
0.028672259 0.71100003 -0.036151983 1.5105255e-38 343 269
-0.032503292 0.713 -0.037503798 1.2151402e-38 294 270
-0.031253166 0.713 -0.037503798 1.1137608e-38 295 270
-0.030003037 0.713 -0.037503798 1.1226554e-38 296 270
-0.028672259 0.71100003 -0.037398599 1.1134359e-38 297 270
-0.027387066 0.70999998 -0.037345998 1.0491513e-38 298 270
-0.026142199 0.70999998 -0.037345998 1.0214926e-38 299 270
-0.024827199 0.708 -0.0372408 1.0122733e-38 300 270
-0.023552528 0.70700002 -0.037188202 1.0030538e-38 301 270
-0.022281358 0.70599997 -0.037135597 9.7553901e-39 302 270
-0.021043506 0.70599997 -0.037135597 9.7553901e-39 303 270
-0.019805651 0.70599997 -0.037135597 9.572075e-39 304 270
-0.018515198 0.704 -0.037030395 9.4798794e-39 305 270
-0.017256306 0.70300001 -0.036977798 9.2043715e-39 306 270
-0.015978126 0.70099998 -0.036872596 9.0199788e-39 307 270
-0.014727999 0.69999999 -0.036819998 8.9274301e-39 308 270
-0.013500666 0.69999999 -0.036819998 8.7426801e-39 309 270
-0.012273333 0.69999999 -0.036819998 8.7419668e-39 310 270
-0.011045999 0.69999999 -0.036819998 8.7419668e-39 311 270
-0.0098186666 0.69999999 -0.036819998 8.7419668e-39 312 270
-0.0085667865 0.69800001 -0.0367148 8.7419668e-39 313 270
-0.0073429602 0.69800001 -0.0367148 8.4664561e-39 314 270
-0.0061366665 0.69999999 -0.036819998 8.4664561e-39 315 270
-0.0049093333 0.69999999 -0.036819998 8.1905895e-39 316 270
-0.0036819996 0.69999999 -0.036819998 8.0983925e-39 317 270
-0.0024546667 0.69999999 -0.036819998 8.0069157e-39 318 270
-0.0012273333 0.69999999 -0.036819998 7.9147201e-39 319 270
0 0.69999999 -0.036819998 7.7303358e-39 320 270
0.0012273333 0.69999999 -0.036819998 7.6381402e-39 321 270
0.0024581731 0.70099998 -0.036872596 7.7303358e-39 322 270
0.0036872597 0.70099998 -0.036872596 7.7303358e-39 323 270
0.0049303733 0.70300001 -0.036977798 7.7310519e-39 324 270
0.0061629666 0.70300001 -0.036977798 7.6388563e-39 325 270
0.0073955595 0.70300001 -0.036977798 7.6381374e-39 326 270
0.0086281532 0.70300001 -0.036977798 7.5459418e-39 327 270
0.0098747732 0.704 -0.037030395 7.5448698e-39 328 270
0.011109119 0.704 -0.037030395 7.5448698e-39 329 270
0.012343466 0.704 -0.037030395 7.6377843e-39 330 270
0.013577812 0.704 -0.037030395 7.7299799e-39 331 270
0.014812159 0.704 -0.037030395 7.6399353e-39 332 270
0.016092092 0.70599997 -0.037135597 7.8239678e-39 333 270
0.017329946 0.70599997 -0.037135597 8.0079961e-39 334 270
0.018567799 0.70599997 -0.037135597 8.1920273e-39 335 270
0.019833706 0.70700002 -0.037188202 8.2845788e-39 336 270
0.021103119 0.708 -0.0372408 8.3767744e-39 337 270
0.022344479 0.708 -0.0372408 8.2863767e-39 338 270
0.023685781 0.71100003 -0.037398599 8.6548005e-39 339 270
0.025002534 0.713 -0.037503798 8.6565885e-39 340 270
0.026252659 0.713 -0.037503798 9.2094036e-39 341 270
0.027618507 0.71600002 -0.037661601 1.2248272e-38 342 270
0.028873893 0.71600002 -0.037661601 1.5475119e-38 343 270
-0.033800758 0.71399999 -0.038808275 1.4650781e-38 293 271
-0.032548878 0.71399999 -0.038808275 1.2890767e-38 294 271
-0.031296998 0.71399999 -0.038808275 1.0954659e-38 295 271
-0.030045118 0.71399999 -0.038808275 1.1226554e-38 296 271
-0.028752912 0.713 -0.038753927 1.1134359e-38 297 271
-0.027502786 0.713 -0.038753927 1.0858854e-38 298 271
-0.026142199 0.70999998 -0.038590867 1.0674104e-38 299 271
-0.024897331 0.70999998 -0.038590867 1.0398239e-38 300 271
-0.023585839 0.708 -0.038482159 1.0398239e-38 301 271
-0.022312919 0.70700002 -0.038427804 9.9401401e-39 302 271
-0.021073313 0.70700002 -0.038427804 9.8475857e-39 303 271
-0.019833706 0.70700002 -0.038427804 9.6646294e-39 304 271
-0.018515198 0.704 -0.038264744 9.4798794e-39 305 271
-0.017280852 0.704 -0.038264744 9.387681e-39 306 271
-0.016023712 0.70300001 -0.038210396 9.2954853e-39 307 271
-0.014749039 0.70099998 -0.038101684 9.0189041e-39 308 271
-0.013519952 0.70099998 -0.038101684 8.8345128e-39 309 271
-0.012273333 0.69999999 -0.038047329 9.0167559e-39 310 271
-0.011045999 0.69999999 -0.038047329 9.0167559e-39 311 271
-0.0098186666 0.69999999 -0.038047329 8.9252791e-39 312 271
-0.0085913334 0.69999999 -0.038047329 8.741248e-39 313 271
-0.0073639993 0.69999999 -0.038047329 8.6497684e-39 314 271
-0.0061366665 0.69999999 -0.038047329 8.5575728e-39 315 271
-0.0049093333 0.69999999 -0.038047329 8.2820607e-39 316 271
-0.0036819996 0.69999999 -0.038047329 8.3742563e-39 317 271
-0.0024546667 0.69999999 -0.038047329 8.0983897e-39 318 271
-0.0012290865 0.70099998 -0.038101684 8.0061941e-39 319 271
0 0.70099998 -0.038101684 7.8214497e-39 320 271
0.0012290865 0.70099998 -0.038101684 7.9136453e-39 321 271
0.0024651866 0.70300001 -0.038210396 7.9136481e-39 322 271
0.0036977797 0.70300001 -0.038210396 8.0058437e-39 323 271
0.0049303733 0.70300001 -0.038210396 7.9143642e-39 324 271
0.0061629666 0.70300001 -0.038210396 7.9143642e-39 325 271
0.0073955595 0.70300001 -0.038210396 7.730333e-39 326 271
0.0086404262 0.704 -0.038264744 7.6381374e-39 327 271
0.0098747732 0.704 -0.038264744 7.5455887e-39 328 271
0.011109119 0.704 -0.038264744 7.5455887e-39 329 271
0.012343466 0.704 -0.038264744 7.9136509e-39 330 271
0.013616386 0.70599997 -0.038373452 7.9136509e-39 331 271
0.014854239 0.70599997 -0.038373452 7.7310547e-39 332 271
0.016092092 0.70599997 -0.038373452 7.8232503e-39 333 271
0.017354494 0.70700002 -0.038427804 7.9154446e-39 334 271
0.018594101 0.70700002 -0.038427804 8.0079989e-39 335 271
0.01986176 0.708 -0.038482159 8.1920273e-39 336 271
0.021103119 0.708 -0.038482159 8.3764185e-39 337 271
0.022407599 0.70999998 -0.038590867 8.286025e-39 338 271
0.023685781 0.71100003 -0.038645219 8.6548061e-39 339 271
0.025002534 0.713 -0.038753927 8.2881731e-39 340 271
0.026289478 0.71399999 -0.038808275 1.003989e-38 341 271
0.027618507 0.71600002 -0.038916986 1.2895806e-38 342 271
0.028873893 0.71600002 -0.038916986 1.5385087e-38 343 271
0.03012928 0.71600002 -0.038916986 1.4833731e-38 344 271
-0.032548878 0.71399999 -0.040060159 1.390781e-38 294 272
-0.031296998 0.71399999 -0.040060159 1.1695114e-38 295 272
-0.030045118 0.71399999 -0.040060159 1.1594265e-38 296 272
-0.028752912 0.713 -0.040004052 1.1594265e-38 297 272
-0.027502786 0.713 -0.040004052 1.0951412e-38 298 272
-0.026179021 0.71100003 -0.039891839 1.0675186e-38 299 272
-0.024897331 0.70999998 -0.039835732 1.0490794e-38 300 272
-0.023652466 0.70999998 -0.039835732 1.0398239e-38 301 272
-0.022344479 0.708 -0.039723519 1.0030901e-38 302 272
-0.021103119 0.708 -0.039723519 1.0030901e-38 303 272
-0.019833706 0.70700002 -0.039667413 9.7553929e-39 304 272
-0.018567799 0.70599997 -0.039611302 9.7553929e-39 305 272
-0.017329946 0.70599997 -0.039611302 9.3884054e-39 306 272
-0.016046507 0.704 -0.039499093 9.2040156e-39 307 272
-0.014791119 0.70300001 -0.039442986 9.202938e-39 308 272
-0.013519952 0.70099998 -0.039330769 9.0189069e-39 309 272
-0.012290866 0.70099998 -0.039330769 9.1096704e-39 310 272
-0.011061779 0.70099998 -0.039330769 8.9252791e-39 311 272
-0.0098326923 0.70099998 -0.039330769 8.740892e-39 312 272
-0.0085913334 0.69999999 -0.039274666 8.740892e-39 313 272
-0.0073639993 0.69999999 -0.039274666 8.6486964e-39 314 272
-0.0061366665 0.69999999 -0.039274666 8.6486964e-39 315 272
-0.0049163462 0.70099998 -0.039330769 8.5575728e-39 316 272
-0.0036872597 0.70099998 -0.039330769 8.5575728e-39 317 272
-0.0024581731 0.70099998 -0.039330769 8.1905895e-39 318 272
-0.0012290865 0.70099998 -0.039330769 8.0061969e-39 319 272
0 0.70099998 -0.039330769 8.0969604e-39 320 272
0.0012325933 0.70300001 -0.039442986 8.0969604e-39 321 272
0.0024651866 0.70300001 -0.039442986 7.9136481e-39 322 272
0.0036977797 0.70300001 -0.039442986 8.0058437e-39 323 272
0.0049373866 0.704 -0.039499093 7.914367e-39 324 272
0.0061717331 0.704 -0.039499093 7.914367e-39 325 272
0.0074060797 0.704 -0.039499093 7.7303358e-39 326 272
0.0086404262 0.704 -0.039499093 7.5455859e-39 327 272
0.0099028256 0.70599997 -0.039611302 7.8203777e-39 328 272
0.011140679 0.70599997 -0.039611302 7.912932e-39 329 272
0.012378532 0.70599997 -0.039611302 7.8210965e-39 330 272
0.013616386 0.70599997 -0.039611302 7.8210965e-39 331 272
0.014854239 0.70599997 -0.039611302 7.9143698e-39 332 272
0.016092092 0.70599997 -0.039611302 8.0065654e-39 333 272
0.017354494 0.70700002 -0.039667413 8.0980394e-39 334 272
0.018594101 0.70700002 -0.039667413 8.3746263e-39 335 272
0.01986176 0.708 -0.039723519 8.1913112e-39 336 272
0.021162732 0.70999998 -0.039835732 8.4678981e-39 337 272
0.022439159 0.71100003 -0.039891839 8.5615328e-39 338 272
0.023752406 0.713 -0.040004052 8.4693372e-39 339 272
0.025037598 0.71399999 -0.040060159 8.3785737e-39 340 272
0.026289478 0.71399999 -0.040060159 1.1789812e-38 341 272
0.027618507 0.71600002 -0.040172372 1.3725573e-38 342 272
0.028873893 0.71600002 -0.040172372 1.5476931e-38 343 272
0.03012928 0.71600002 -0.040172372 1.492521e-38 344 272
-0.032640055 0.71600002 -0.041427758 1.4556066e-38 294 273
-0.031384666 0.71600002 -0.041427758 1.2619958e-38 295 273
-0.030045118 0.71399999 -0.041312039 1.1782252e-38 296 273
-0.028793238 0.71399999 -0.041312039 1.1136883e-38 297 273
-0.027502786 0.713 -0.041254178 1.1411659e-38 298 273
-0.026252659 0.713 -0.041254178 1.1134712e-38 299 273
-0.024932399 0.71100003 -0.041138459 1.0858851e-38 300 273
-0.023652466 0.70999998 -0.041080594 1.067446e-38 301 273
-0.022344479 0.708 -0.040964879 1.0306046e-38 302 273
-0.021103119 0.708 -0.040964879 1.0306046e-38 303 273
-0.01986176 0.708 -0.040964879 1.0031257e-38 304 273
-0.018594101 0.70700002 -0.040907022 9.8468669e-39 305 273
-0.017329946 0.70599997 -0.040849157 9.7550244e-39 306 273
-0.016046507 0.704 -0.040733438 9.7550244e-39 307 273
-0.014791119 0.70300001 -0.040675577 9.7539454e-39 308 273
-0.013558527 0.70300001 -0.040675577 9.5699128e-39 309 273
-0.012290866 0.70099998 -0.040559858 9.3851684e-39 310 273
-0.011061779 0.70099998 -0.040559858 9.2926141e-39 311 273
-0.0098326923 0.70099998 -0.040559858 9.2000653e-39 312 273
-0.0086036054 0.70099998 -0.040559858 9.1078697e-39 313 273
-0.0073745195 0.70099998 -0.040559858 8.8323646e-39 314 273
-0.0061454331 0.70099998 -0.040559858 8.8323646e-39 315 273
-0.0049163462 0.70099998 -0.040559858 8.6486936e-39 316 273
-0.0036872597 0.70099998 -0.040559858 8.5564966e-39 317 273
-0.0024581731 0.70099998 -0.040559858 8.3731815e-39 318 273
-0.0012290865 0.70099998 -0.040559858 8.2809859e-39 319 273
0 0.70099998 -0.040559858 8.1887903e-39 320 273
0.0012325933 0.70300001 -0.040675577 8.1887903e-39 321 273
0.0024686933 0.704 -0.040733438 8.1887931e-39 322 273
0.0037030398 0.704 -0.040733438 8.2809887e-39 323 273
0.0049373866 0.704 -0.040733438 8.1895119e-39 324 273
0.0061717331 0.704 -0.040733438 8.1895119e-39 325 273
0.0074060797 0.704 -0.040733438 8.2806328e-39 326 273
0.0086649731 0.70599997 -0.040849157 8.0962415e-39 327 273
0.0099028256 0.70599997 -0.040849157 7.912932e-39 328 273
0.011140679 0.70599997 -0.040849157 7.912932e-39 329 273
0.012378532 0.70599997 -0.040849157 8.0962443e-39 330 273
0.013616386 0.70599997 -0.040849157 8.1884399e-39 331 273
0.014854239 0.70599997 -0.040849157 8.1884399e-39 332 273
0.016114887 0.70700002 -0.040907022 8.2806356e-39 333 273
0.017379038 0.708 -0.040964879 8.0980422e-39 334 273
0.0186204 0.708 -0.040964879 8.1902392e-39 335 273
0.019917866 0.70999998 -0.041080594 8.2831537e-39 336 273
0.021192541 0.71100003 -0.041138459 8.6519348e-39 337 273
0.022439159 0.71100003 -0.041138459 8.3785765e-39 338 273
0.023752406 0.713 -0.041254178 8.1016295e-39 339 273
0.025037598 0.71399999 -0.041312039 9.2047372e-39 340 273
0.026363119 0.71600002 -0.041427758 1.3630127e-38 341 273
0.027618507 0.71600002 -0.041427758 1.4187993e-38 342 273
0.028873893 0.71600002 -0.041427758 1.4648971e-38 343 273
-0.031384666 0.71600002 -0.042683143 1.3451519e-38 295 274
-0.03012928 0.71600002 -0.042683143 1.252378e-38 296 274
-0.028793238 0.71399999 -0.042563915 1.104865e-38 297 274
-0.02754136 0.71399999 -0.042563915 1.122871e-38 298 274
-0.026252659 0.713 -0.042504307 1.122871e-38 299 274
-0.024932399 0.71100003 -0.042385083 1.0675186e-38 300 274
-0.023685781 0.71100003 -0.042385083 1.0490794e-38 301 274
-0.022407599 0.70999998 -0.042325463 1.0306046e-38 302 274
-0.021162732 0.70999998 -0.042325463 1.0306046e-38 303 274
-0.019917866 0.70999998 -0.042325463 1.0030182e-38 304 274
-0.0186204 0.708 -0.042206239 9.9379863e-39 305 274
-0.017354494 0.70700002 -0.042146627 9.7550272e-39 306 274
-0.016092092 0.70599997 -0.042087011 9.6624728e-39 307 274
-0.014812159 0.704 -0.041967787 9.5706331e-39 308 274
-0.013577812 0.704 -0.041967787 9.4780773e-39 309 274
-0.012343466 0.704 -0.041967787 9.4773641e-39 310 274
-0.01109334 0.70300001 -0.041908171 9.3851684e-39 311 274
-0.0098607466 0.70300001 -0.041908171 9.0167559e-39 312 274
-0.0086281532 0.70300001 -0.041908171 9.0167559e-39 313 274
-0.0073745195 0.70099998 -0.041788943 8.9245602e-39 314 274
-0.0061454331 0.70099998 -0.041788943 8.9245602e-39 315 274
-0.0049303733 0.70300001 -0.041908171 8.6486936e-39 316 274
-0.0036977797 0.70300001 -0.041908171 8.5564966e-39 317 274
-0.0024651866 0.70300001 -0.041908171 8.3731843e-39 318 274
-0.0012325933 0.70300001 -0.041908171 8.2809887e-39 319 274
0 0.70300001 -0.041908171 8.1895091e-39 320 274
0.0012343467 0.704 -0.041967787 8.0973135e-39 321 274
0.0024686933 0.704 -0.041967787 8.0973135e-39 322 274
0.0037135598 0.70599997 -0.042087011 8.2817048e-39 323 274
0.0049514128 0.70599997 -0.042087011 8.0983953e-39 324 274
0.0061892662 0.70599997 -0.042087011 8.0983953e-39 325 274
0.0074271196 0.70599997 -0.042087011 8.1884371e-39 326 274
0.0086649731 0.70599997 -0.042087011 8.1884371e-39 327 274
0.0099028256 0.70599997 -0.042087011 8.0969604e-39 328 274
0.011140679 0.70599997 -0.042087011 7.9129292e-39 329 274
0.012396066 0.70700002 -0.042146627 8.0962443e-39 330 274
0.013635674 0.70700002 -0.042146627 8.1884399e-39 331 274
0.01487528 0.70700002 -0.042146627 8.0969632e-39 332 274
0.01613768 0.708 -0.042206239 8.1891588e-39 333 274
0.017428132 0.70999998 -0.042325463 8.0976862e-39 334 274
0.018672999 0.70999998 -0.042325463 8.190242e-39 335 274
0.01994592 0.71100003 -0.042385083 8.4657499e-39 336 274
0.021192541 0.71100003 -0.042385083 8.8341723e-39 337 274
0.022502279 0.713 -0.042504307 8.928879e-39 338 274
0.023752406 0.713 -0.042504307 8.651932e-39 339 274
0.025037598 0.71399999 -0.042563915 1.0128864e-38 340 274
0.026363119 0.71600002 -0.042683143 1.4462059e-38 341 274
0.027618507 0.71600002 -0.042683143 1.4372754e-38 342 274
0.028873893 0.71600002 -0.042683143 1.4280557e-38 343 274
-0.031384666 0.71600002 -0.043938532 1.3913944e-38 295 275
-0.03012928 0.71600002 -0.043938532 1.3448263e-38 296 275
-0.028873893 0.71600002 -0.043938532 1.1327405e-38 297 275
-0.02754136 0.71399999 -0.043815799 1.1321271e-38 298 275
-0.026289478 0.71399999 -0.043815799 1.113688e-38 299 275
-0.025037598 0.71399999 -0.043815799 1.1134006e-38 300 275
-0.02378572 0.71399999 -0.043815799 1.104181e-38 301 275
-0.022407599 0.70999998 -0.043570329 1.0674107e-38 302 275
-0.021162732 0.70999998 -0.043570329 1.058191e-38 303 275
-0.019917866 0.70999998 -0.043570329 1.0213847e-38 304 275
-0.0186204 0.708 -0.043447599 1.0213847e-38 305 275
-0.017379038 0.708 -0.043447599 1.0029816e-38 306 275
-0.016114887 0.70700002 -0.043386232 9.9376205e-39 307 275
-0.014854239 0.70599997 -0.043324865 9.9376177e-39 308 275
-0.013616386 0.70599997 -0.043324865 9.7532251e-39 309 275
-0.012343466 0.704 -0.043202132 9.5684779e-39 310 275
-0.011109119 0.704 -0.043202132 9.5684779e-39 311 275
-0.0098747732 0.704 -0.043202132 9.1093046e-39 312 275
-0.0086281532 0.70300001 -0.043140765 9.017109e-39 313 275
-0.0073955595 0.70300001 -0.043140765 9.017109e-39 314 275
-0.0061629666 0.70300001 -0.043140765 8.8323576e-39 315 275
-0.0049303733 0.70300001 -0.043140765 8.6490453e-39 316 275
-0.0037030398 0.704 -0.043202132 8.5568497e-39 317 275
-0.0024686933 0.704 -0.043202132 8.3735374e-39 318 275
-0.0012343467 0.704 -0.043202132 8.3735374e-39 319 275
0 0.704 -0.043202132 8.1895063e-39 320 275
0.0012343467 0.704 -0.043202132 8.1895063e-39 321 275
0.0024686933 0.704 -0.043202132 8.1895091e-39 322 275
0.0037135598 0.70599997 -0.043324865 8.1895091e-39 323 275
0.0049514128 0.70599997 -0.043324865 8.2817048e-39 324 275
0.0061892662 0.70599997 -0.043324865 8.1895091e-39 325 275
0.0074271196 0.70599997 -0.043324865 8.1887931e-39 326 275
0.008677247 0.70700002 -0.043386232 8.0965974e-39 327 275
0.0099168532 0.70700002 -0.043386232 8.2795538e-39 328 275
0.011156459 0.70700002 -0.043386232 8.2795538e-39 329 275
0.012396066 0.70700002 -0.043386232 8.0962443e-39 330 275
0.013635674 0.70700002 -0.043386232 8.0962443e-39 331 275
0.01489632 0.708 -0.043447599 8.1891588e-39 332 275
0.01613768 0.708 -0.043447599 8.1891588e-39 333 275
0.017428132 0.70999998 -0.043570329 8.2813572e-39 334 275
0.0186993 0.71100003 -0.043631699 8.2813572e-39 335 275
0.01994592 0.71100003 -0.043631699 8.3739172e-39 336 275
0.021252153 0.713 -0.043754432 8.7430585e-39 337 275
0.022502279 0.713 -0.043754432 8.4689841e-39 338 275
0.02378572 0.71399999 -0.043815799 9.8522773e-39 339 275
0.025107734 0.71600002 -0.043938532 1.1788032e-38 340 275
0.026363119 0.71600002 -0.043938532 1.4185477e-38 341 275
0.027618507 0.71600002 -0.043938532 1.3821021e-38 342 275
-0.03012928 0.71600002 -0.045193922 1.4096163e-38 296 276
-0.028873893 0.71600002 -0.045193922 1.1883828e-38 297 276
-0.027618507 0.71600002 -0.045193922 1.1598231e-38 298 276
-0.026289478 0.71399999 -0.045067675 1.1321642e-38 299 276
-0.025037598 0.71399999 -0.045067675 1.1410956e-38 300 276
-0.02378572 0.71399999 -0.045067675 1.1134009e-38 301 276
-0.022439159 0.71100003 -0.044878319 1.0766655e-38 302 276
-0.021192541 0.71100003 -0.044878319 1.067446e-38 303 276
-0.01994592 0.71100003 -0.044878319 1.0306399e-38 304 276
-0.018672999 0.70999998 -0.044815198 1.0029813e-38 305 276
-0.017428132 0.70999998 -0.044815198 1.0030169e-38 306 276
-0.01613768 0.708 -0.044688959 9.9379737e-39 307 276
-0.01487528 0.70700002 -0.044625837 1.0029088e-38 308 276
-0.013616386 0.70599997 -0.044562716 9.9368905e-39 309 276
-0.012378532 0.70599997 -0.044562716 9.4777144e-39 310 276
-0.011109119 0.704 -0.044436477 9.3855188e-39 311 276
-0.0098747732 0.704 -0.044436477 9.29297e-39 312 276
-0.0086404262 0.704 -0.044436477 9.2007744e-39 313 276
-0.0074060797 0.704 -0.044436477 8.9249078e-39 314 276
-0.0061717331 0.704 -0.044436477 8.9249078e-39 315 276
-0.0049373866 0.704 -0.044436477 8.7415955e-39 316 276
-0.0037030398 0.704 -0.044436477 8.7415955e-39 317 276
-0.0024686933 0.704 -0.044436477 8.5579217e-39 318 276
-0.0012343467 0.704 -0.044436477 8.3738906e-39 319 276
0 0.704 -0.044436477 8.3735374e-39 320 276
0.0012378532 0.70599997 -0.044562716 8.2813418e-39 321 276
0.0024757064 0.70599997 -0.044562716 8.3731843e-39 322 276
0.0037188199 0.70700002 -0.044625837 8.2809887e-39 323 276
0.0049584266 0.70700002 -0.044625837 8.2809887e-39 324 276
0.0061980332 0.70700002 -0.044625837 8.1887931e-39 325 276
0.0074376399 0.70700002 -0.044625837 8.3713865e-39 326 276
0.008689519 0.708 -0.044688959 8.3713865e-39 327 276
0.0099168532 0.70700002 -0.044625837 8.2795538e-39 328 276
0.011156459 0.70700002 -0.044625837 8.2795538e-39 329 276
0.0124136 0.708 -0.044688959 8.0965974e-39 330 276
0.013654959 0.708 -0.044688959 8.1887931e-39 331 276
0.014938398 0.70999998 -0.044815198 8.0969604e-39 332 276
0.016183265 0.70999998 -0.044815198 8.0969604e-39 333 276
0.017428132 0.70999998 -0.044815198 8.2806384e-39 334 276
0.0186993 0.71100003 -0.044878319 8.5568665e-39 335 276
0.020002026 0.713 -0.045004558 8.3753521e-39 336 276
0.021281958 0.71399999 -0.045067675 8.7437759e-39 337 276
0.022533838 0.71399999 -0.045067675 8.8381281e-39 338 276
0.023852346 0.71600002 -0.045193922 1.1234856e-38 339 276
0.0251428 0.71700001 -0.045257039 1.2434849e-38 340 276
0.02639994 0.71700001 -0.045257039 1.3633034e-38 341 276
-0.028914221 0.71700001 -0.046514176 1.2807595e-38 297 277
-0.027657079 0.71700001 -0.046514176 1.2338682e-38 298 277
-0.026363119 0.71600002 -0.046449307 1.0587324e-38 299 277
-0.025107734 0.71600002 -0.046449307 1.1410956e-38 300 277
-0.023852346 0.71600002 -0.046449307 1.13184e-38 301 277
-0.022533838 0.71399999 -0.046319555 1.0859217e-38 302 277
-0.021252153 0.713 -0.046254687 1.058299e-38 303 277
-0.020002026 0.713 -0.046254687 1.0398594e-38 304 277
