# .PCD v.7 - Point Cloud Data file format
FIELDS x y z rgb imX imY
SIZE 4 4 4 4 4 4
TYPE F F F F F F
COUNT 1 1 1 1 1 1
WIDTH 834
HEIGHT 1
VIEWPOINT 0 0 0 1 0 0 0
POINTS 834
DATA ascii
0.010856641 0.68800002 -0.031363625 1.2258779e-38 329 266
0.012097999 0.69 -0.031454802 1.2627554e-38 330 266
0.0133078 0.69 -0.031454802 1.2904502e-38 331 266
0.013823279 0.65700001 -0.02995044 1.2997769e-38 332 266
0.01497522 0.65700001 -0.02995044 1.2905573e-38 333 266
0.01612716 0.65700001 -0.02995044 1.2813375e-38 334 266
0.0172791 0.65700001 -0.02995044 1.2629344e-38 335 266
0.01843104 0.65700001 -0.02995044 1.2628261e-38 336 266
0.019582979 0.65700001 -0.02995044 1.2352034e-38 337 266
0.020734919 0.65700001 -0.02995044 1.2534981e-38 338 266
0.021886859 0.65700001 -0.02995044 1.2442426e-38 339 266
0.023038799 0.65700001 -0.02995044 1.2442779e-38 340 266
0.024190739 0.65700001 -0.02995044 1.2258387e-38 341 266
0.025342681 0.65700001 -0.02995044 1.2441696e-38 342 266
0.026494619 0.65700001 -0.02995044 1.2441696e-38 343 266
0.027646558 0.65700001 -0.02995044 1.2717191e-38 344 266
0.031165501 0.71100003 -0.032412119 1.2717191e-38 345 266
0.032412119 0.71100003 -0.032412119 1.2626425e-38 346 266
0.033658739 0.71100003 -0.032412119 1.2626425e-38 347 266
0.034905359 0.71100003 -0.032412119 1.3177804e-38 348 266
0.036151983 0.71100003 -0.032412119 1.3362195e-38 349 266
0.037398599 0.71100003 -0.032412119 1.4190526e-38 350 266
0.038645219 0.71100003 -0.032412119 1.4928091e-38 351 266
0.040004052 0.713 -0.032503292 1.5572389e-38 352 266
-0.047571439 0.71399999 -0.033800758 1.5850786e-38 282 267
-0.046319555 0.71399999 -0.033800758 1.5482364e-38 283 267
-0.045004558 0.713 -0.033753417 1.4375639e-38 284 267
-0.043631699 0.71100003 -0.033658739 1.1701966e-38 285 267
-0.042325463 0.70999998 -0.033611398 1.0593808e-38 286 267
-0.040907022 0.70700002 -0.033469379 9.3952648e-39 287 267
-0.039611302 0.70599997 -0.033422034 9.3938327e-39 288 267
-0.038373452 0.70599997 -0.033422034 8.8406589e-39 289 267
-0.037030395 0.704 -0.03332736 7.3687756e-39 290 267
-0.035745207 0.70300001 -0.033280019 6.8156018e-39 291 267
-0.034414422 0.70099998 -0.03318534 6.6330084e-39 292 267
-0.033137999 0.69999999 -0.033137999 7.0939866e-39 293 267
-0.031819493 0.69800001 -0.033043321 8.0148667e-39 294 267
-0.030595668 0.69800001 -0.033043321 9.7665851e-39 295 267
-0.02932976 0.69700003 -0.03299598 1.1977132e-38 296 267
-0.028067358 0.69599998 -0.032948639 1.3821045e-38 297 267
-0.026847038 0.69599998 -0.032948639 1.4010842e-38 298 267
-0.025553079 0.69400001 -0.032853961 1.4103039e-38 299 267
-0.024336265 0.69400001 -0.032853961 1.3091761e-38 300 267
-0.023119451 0.69400001 -0.032853961 1.2907369e-38 301 267
-0.021902639 0.69400001 -0.032853961 1.3182514e-38 302 267
-0.020685827 0.69400001 -0.032853961 1.3274711e-38 303 267
-0.01944096 0.69300002 -0.03280662 1.3182158e-38 304 267
-0.018225901 0.69300002 -0.03280662 1.3274713e-38 305 267
-0.01701084 0.69300002 -0.03280662 1.3182514e-38 306 267
-0.015750192 0.69099998 -0.032711938 1.3182514e-38 307 267
-0.014538639 0.69099998 -0.032711938 1.3182514e-38 308 267
-0.013327086 0.69099998 -0.032711938 1.3182514e-38 309 267
-0.012097999 0.69 -0.032664597 1.3090318e-38 310 267
-0.010888199 0.69 -0.032664597 1.3090318e-38 311 267
-0.0096783992 0.69 -0.032664597 1.327363e-38 312 267
-0.0084686 0.69 -0.032664597 1.3181435e-38 313 267
-0.0072587994 0.69 -0.032664597 1.3181435e-38 314 267
-0.0060489997 0.69 -0.032664597 1.3181435e-38 315 267
-0.0048251734 0.68800002 -0.032569919 1.2998119e-38 316 267
-0.0036188802 0.68800002 -0.032569919 1.2905924e-38 317 267
-0.0024125867 0.68800002 -0.032569919 1.2813728e-38 318 267
-0.0012097999 0.69 -0.032664597 1.2813728e-38 319 267
0 0.69 -0.032664597 1.2813009e-38 320 267
0.0012097999 0.69 -0.032664597 1.2813009e-38 321 267
0.0024195998 0.69 -0.032664597 1.2904125e-38 322 267
0.0036293997 0.69 -0.032664597 1.2904125e-38 323 267
0.0048391996 0.69 -0.032664597 1.271974e-38 324 267
0.0060577663 0.69099998 -0.032711938 1.2627186e-38 325 267
0.0072693196 0.69099998 -0.032711938 1.2442797e-38 326 267
0.008480873 0.69099998 -0.032711938 1.2350602e-38 327 267
0.0096783992 0.69 -0.032664597 1.2440995e-38 328 267
0.010888199 0.69 -0.032664597 1.2533191e-38 329 267
0.012097999 0.69 -0.032664597 1.2627186e-38 330 267
0.012709912 0.65899998 -0.031197058 1.3088164e-38 331 267
0.013823279 0.65700001 -0.03110238 1.3181079e-38 332 267
0.01497522 0.65700001 -0.03110238 1.3181079e-38 333 267
0.01612716 0.65700001 -0.03110238 1.2722258e-38 334 267
0.0172791 0.65700001 -0.03110238 1.2445311e-38 335 267
0.01843104 0.65700001 -0.03110238 1.2536065e-38 336 267
0.019582979 0.65700001 -0.03110238 1.225948e-38 337 267
0.020734919 0.65700001 -0.03110238 1.2442429e-38 338 267
0.021886859 0.65700001 -0.03110238 1.2442429e-38 339 267
0.023038799 0.65700001 -0.03110238 1.2533897e-38 340 267
0.024190739 0.65700001 -0.03110238 1.2533897e-38 341 267
0.025342681 0.65700001 -0.03110238 1.2441696e-38 342 267
0.026494619 0.65700001 -0.03110238 1.253425e-38 343 267
0.027646558 0.65700001 -0.03110238 1.2809757e-38 344 267
0.031165501 0.71100003 -0.033658739 1.2809757e-38 345 267
0.032412119 0.71100003 -0.033658739 1.2809757e-38 346 267
0.033658739 0.71100003 -0.033658739 1.2901953e-38 347 267
0.034905359 0.71100003 -0.033658739 1.3085984e-38 348 267
0.036101133 0.70999998 -0.033611398 1.3454406e-38 349 267
0.037345998 0.70999998 -0.033611398 1.446604e-38 350 267
0.038590867 0.70999998 -0.033611398 1.5111409e-38 351 267
-0.047571439 0.71399999 -0.035052639 1.5575278e-38 282 268
-0.046319555 0.71399999 -0.035052639 1.5206855e-38 283 268
-0.045067675 0.71399999 -0.035052639 1.4468192e-38 284 268
-0.043754432 0.713 -0.035003547 1.2163301e-38 285 268
-0.042385083 0.71100003 -0.034905359 1.1423922e-38 286 268
-0.041080594 0.70999998 -0.034856264 1.0409411e-38 287 268
-0.039723519 0.708 -0.034758076 9.5803763e-39 288 268
-0.038373452 0.70599997 -0.034659892 8.9350069e-39 289 268
-0.037135597 0.70599997 -0.034659892 8.1066938e-39 290 268
-0.035796054 0.704 -0.034561705 7.55352e-39 291 268
-0.034512613 0.70300001 -0.034512613 7.1868983e-39 292 268
-0.03318534 0.70099998 -0.034414422 7.0028672e-39 293 268
-0.031910665 0.69999999 -0.034365334 8.1063407e-39 294 268
-0.030595668 0.69800001 -0.034267146 9.4892751e-39 295 268
-0.029371841 0.69800001 -0.034267146 1.1150244e-38 296 268
-0.028107686 0.69700003 -0.034218054 1.2440983e-38 297 268
-0.026847038 0.69599998 -0.034168959 1.3088167e-38 298 268
-0.025626717 0.69599998 -0.034168959 1.3641341e-38 299 268
-0.0244064 0.69599998 -0.034168959 1.3458391e-38 300 268
-0.023186078 0.69599998 -0.034168959 1.3458391e-38 301 268
-0.021902639 0.69400001 -0.034070771 1.3090684e-38 302 268
-0.020685827 0.69400001 -0.034070771 1.3090684e-38 303 268
-0.019469013 0.69400001 -0.034070771 1.318216e-38 304 268
-0.018225901 0.69300002 -0.034021679 1.318216e-38 305 268
-0.01701084 0.69300002 -0.034021679 1.3182158e-38 306 268
-0.015795778 0.69300002 -0.034021679 1.3182158e-38 307 268
-0.014538639 0.69099998 -0.033923492 1.3182514e-38 308 268
-0.013327086 0.69099998 -0.033923492 1.3090318e-38 309 268
-0.012115533 0.69099998 -0.033923492 1.3090318e-38 310 268
-0.010888199 0.69 -0.0338744 1.2997764e-38 311 268
-0.0096783992 0.69 -0.0338744 1.2997764e-38 312 268
-0.008480873 0.69099998 -0.033923492 1.2997764e-38 313 268
-0.0072693196 0.69099998 -0.033923492 1.3181435e-38 314 268
-0.0060577663 0.69099998 -0.033923492 1.3181435e-38 315 268
-0.0048391996 0.69 -0.0338744 1.3181432e-38 316 268
-0.0036293997 0.69 -0.0338744 1.2997401e-38 317 268
-0.0024195998 0.69 -0.0338744 1.2905202e-38 318 268
-0.0012097999 0.69 -0.0338744 1.2997398e-38 319 268
0 0.69099998 -0.033923492 1.2905202e-38 320 268
0.0012097999 0.69 -0.0338744 1.2813007e-38 321 268
0.0024195998 0.69 -0.0338744 1.2719735e-38 322 268
0.0036293997 0.69 -0.0338744 1.2719735e-38 323 268
0.0048462129 0.69099998 -0.033923492 1.2627539e-38 324 268
0.0060577663 0.69099998 -0.033923492 1.2443148e-38 325 268
0.0072693196 0.69099998 -0.033923492 1.2443148e-38 326 268
0.008480873 0.69099998 -0.033923492 1.2258755e-38 327 268
0.0096924258 0.69099998 -0.033923492 1.2075087e-38 328 268
0.01090398 0.69099998 -0.033923492 1.1982891e-38 329 268
0.012115533 0.69099998 -0.033923492 1.2351681e-38 330 268
0.012709912 0.65899998 -0.032352503 1.2720103e-38 331 268
0.013865359 0.65899998 -0.032352503 1.2997766e-38 332 268
0.014998012 0.65799999 -0.032303412 1.2997766e-38 333 268
0.016151706 0.65799999 -0.032303412 1.2905568e-38 334 268
0.017305398 0.65799999 -0.032303412 1.2537144e-38 335 268
0.018459093 0.65799999 -0.032303412 1.2627539e-38 336 268
0.019612785 0.65799999 -0.032303412 1.2443148e-38 337 268
0.02076648 0.65799999 -0.032303412 1.2442782e-38 338 268
0.021920172 0.65799999 -0.032303412 1.2442782e-38 339 268
0.023073865 0.65799999 -0.032303412 1.2533894e-38 340 268
0.02422756 0.65799999 -0.032303412 1.2441699e-38 341 268
0.025381252 0.65799999 -0.032303412 1.253425e-38 342 268
0.026534945 0.65799999 -0.032303412 1.253425e-38 343 268
0.027688639 0.65799999 -0.032303412 1.2809757e-38 344 268
0.028886165 0.65899998 -0.032352503 1.2809757e-38 345 268
0.032412119 0.71100003 -0.034905359 1.280976e-38 346 268
0.033658739 0.71100003 -0.034905359 1.280976e-38 347 268
0.034905359 0.71100003 -0.034905359 1.2994154e-38 348 268
0.036101133 0.70999998 -0.034856264 1.3363296e-38 349 268
0.037345998 0.70999998 -0.034856264 1.437457e-38 350 268
0.038590867 0.70999998 -0.034856264 1.4742994e-38 351 268
-0.046319555 0.71399999 -0.036304519 1.5206855e-38 283 269
-0.045067675 0.71399999 -0.036304519 1.4745148e-38 284 269
-0.043815799 0.71399999 -0.036304519 1.2809039e-38 285 269
-0.042504307 0.713 -0.036253672 1.188491e-38 286 269
-0.041138459 0.71100003 -0.036151983 1.0778922e-38 287 269
-0.039835732 0.70999998 -0.036101133 9.9513098e-39 288 269
-0.038482159 0.708 -0.03599944 9.4903317e-39 289 269
-0.037188202 0.70700002 -0.035948593 9.121545e-39 290 269
-0.035948593 0.70700002 -0.035948593 8.8449595e-39 291 269
-0.034659892 0.70599997 -0.035897743 8.2943094e-39 292 269
-0.03332736 0.704 -0.035796054 8.1099182e-39 293 269
-0.032047424 0.70300001 -0.035745207 8.4747504e-39 294 269
-0.030727165 0.70099998 -0.035643511 9.0279242e-39 295 269
-0.029455997 0.69999999 -0.035592664 1.0043521e-38 296 269
-0.028148014 0.69800001 -0.035490975 1.0504859e-38 297 269
-0.026924185 0.69800001 -0.035490975 1.0967292e-38 298 269
-0.025663542 0.69700003 -0.035440128 1.2165835e-38 299 269
-0.024441468 0.69700003 -0.035440128 1.2628991e-38 300 269
-0.023219392 0.69700003 -0.035440128 1.327436e-38 301 269
-0.02199732 0.69700003 -0.035440128 1.3275079e-38 302 269
-0.020745439 0.69599998 -0.035389278 1.3182883e-38 303 269
-0.019525118 0.69599998 -0.035389278 1.3182878e-38 304 269
-0.0182522 0.69400001 -0.035287585 1.3090681e-38 305 269
-0.017035386 0.69400001 -0.035287585 1.3182514e-38 306 269
-0.015818574 0.69400001 -0.035287585 1.3182514e-38 307 269
-0.01460176 0.69400001 -0.035287585 1.3182514e-38 308 269
-0.01336566 0.69300002 -0.035236739 1.3090318e-38 309 269
-0.012150601 0.69300002 -0.035236739 1.3181435e-38 310 269
-0.010935539 0.69300002 -0.035236739 1.3181435e-38 311 269
-0.0097204801 0.69300002 -0.035236739 1.3181435e-38 312 269
-0.0085054198 0.69300002 -0.035236739 1.3181435e-38 313 269
-0.0072903596 0.69300002 -0.035236739 1.3272908e-38 314 269
-0.0060753003 0.69300002 -0.035236739 1.3272908e-38 315 269
-0.00486024 0.69300002 -0.035236739 1.3272908e-38 316 269
-0.0036346598 0.69099998 -0.035135046 1.3180713e-38 317 269
-0.0024231065 0.69099998 -0.035135046 1.3180713e-38 318 269
-0.00121506 0.69300002 -0.035236739 1.3088517e-38 319 269
0 0.69099998 -0.035135046 1.2813009e-38 320 269
0.0012115532 0.69099998 -0.035135046 1.2720454e-38 321 269
0.0024231065 0.69099998 -0.035135046 1.2719735e-38 322 269
0.0036346598 0.69099998 -0.035135046 1.2627539e-38 323 269
0.00486024 0.69300002 -0.035236739 1.2535699e-38 324 269
0.0060753003 0.69300002 -0.035236739 1.2443145e-38 325 269
0.0072693196 0.69099998 -0.035135046 1.2258752e-38 326 269
0.008480873 0.69099998 -0.035135046 1.2258752e-38 327 269
0.0097204801 0.69300002 -0.035236739 1.2074365e-38 328 269
0.010935539 0.69300002 -0.035236739 1.2074365e-38 329 269
0.011554466 0.65899998 -0.033507951 1.2535343e-38 330 269
0.012709912 0.65899998 -0.033507951 1.3088517e-38 331 269
0.01390744 0.66100001 -0.033609647 1.3181432e-38 332 269
0.015066394 0.66100001 -0.033609647 1.2997401e-38 333 269
0.016225345 0.66100001 -0.033609647 1.2813372e-38 334 269
0.017331699 0.65899998 -0.033507951 1.2537144e-38 335 269
0.018487146 0.65899998 -0.033507951 1.2627539e-38 336 269
0.019642593 0.65899998 -0.033507951 1.2443148e-38 337 269
0.020798039 0.65899998 -0.033507951 1.2442782e-38 338 269
0.021953486 0.65899998 -0.033507951 1.2442782e-38 339 269
0.023073865 0.65799999 -0.033457108 1.2533894e-38 340 269
0.02422756 0.65799999 -0.033457108 1.2533894e-38 341 269
0.025381252 0.65799999 -0.033457108 1.2625371e-38 342 269
0.026575271 0.65899998 -0.033507951 1.2625371e-38 343 269
0.027730718 0.65899998 -0.033507951 1.2809039e-38 344 269
0.028886165 0.65899998 -0.033507951 1.2901236e-38 345 269
0.032503292 0.713 -0.036253672 1.280976e-38 346 269
0.033658739 0.71100003 -0.036151983 1.280976e-38 347 269
0.034905359 0.71100003 -0.036151983 1.2994154e-38 348 269
0.036101133 0.70999998 -0.036101133 1.3547328e-38 349 269
0.037345998 0.70999998 -0.036101133 1.4099425e-38 350 269
0.038590867 0.70999998 -0.036101133 1.4283818e-38 351 269
-0.046449307 0.71600002 -0.037661601 1.5482011e-38 283 270
-0.045067675 0.71399999 -0.037556399 1.502246e-38 284 270
-0.043815799 0.71399999 -0.037556399 1.3270743e-38 285 270
-0.042504307 0.713 -0.037503798 1.1887065e-38 286 270
-0.041254178 0.713 -0.037503798 1.0411933e-38 287 270
-0.039891839 0.71100003 -0.037398599 1.0411199e-38 288 270
-0.038590867 0.70999998 -0.037345998 1.0226449e-38 289 270
-0.0372408 0.708 -0.0372408 9.5835965e-39 290 270
-0.03599944 0.708 -0.0372408 9.4914009e-39 291 270
-0.034708988 0.70700002 -0.037188202 8.9407452e-39 292 270
-0.03332736 0.704 -0.037030395 8.5723214e-39 293 270
-0.032093015 0.704 -0.037030395 8.8438833e-39 294 270
-0.030814834 0.70300001 -0.036977798 9.0282745e-39 295 270
-0.029498078 0.70099998 -0.036872596 1.013355e-38 296 270
-0.028228667 0.69999999 -0.036819998 1.0686722e-38 297 270
-0.026924185 0.69800001 -0.0367148 1.068889e-38 298 270
-0.025700359 0.69800001 -0.0367148 1.133426e-38 299 270
-0.024476532 0.69800001 -0.0367148 1.1337519e-38 300 270
-0.023252707 0.69800001 -0.0367148 1.2352031e-38 301 270
-0.02199732 0.69700003 -0.036662199 1.2998488e-38 302 270
-0.020775247 0.69700003 -0.036662199 1.3182881e-38 303 270
-0.019525118 0.69599998 -0.036609598 1.3090681e-38 304 270
-0.018304799 0.69599998 -0.036609598 1.3090681e-38 305 270
-0.017035386 0.69400001 -0.036504399 1.3091037e-38 306 270
-0.015818574 0.69400001 -0.036504399 1.3091037e-38 307 270
-0.01460176 0.69400001 -0.036504399 1.3090315e-38 308 270
-0.013384946 0.69400001 -0.036504399 1.3090315e-38 309 270
-0.012168133 0.69400001 -0.036504399 1.3181432e-38 310 270
-0.010935539 0.69300002 -0.036451802 1.3181432e-38 311 270
-0.0097204801 0.69300002 -0.036451802 1.3181432e-38 312 270
-0.0085054198 0.69300002 -0.036451802 1.3181432e-38 313 270
-0.0072903596 0.69300002 -0.036451802 1.3181432e-38 314 270
-0.0060753003 0.69300002 -0.036451802 1.3181432e-38 315 270
-0.00486024 0.69300002 -0.036451802 1.3181432e-38 316 270
-0.0036451798 0.69300002 -0.036451802 1.2997401e-38 317 270
-0.00243012 0.69300002 -0.036451802 1.3179994e-38 318 270
-0.00121506 0.69300002 -0.036451802 1.3087798e-38 319 270
0 0.69300002 -0.036451802 1.2813009e-38 320 270
0.00121506 0.69300002 -0.036451802 1.2720454e-38 321 270
0.00243012 0.69300002 -0.036451802 1.2719735e-38 322 270
0.0036451798 0.69300002 -0.036451802 1.2627539e-38 323 270
0.00486024 0.69300002 -0.036451802 1.2534981e-38 324 270
0.0060753003 0.69300002 -0.036451802 1.2442426e-38 325 270
0.0072903596 0.69300002 -0.036451802 1.2258752e-38 326 270
0.0085054198 0.69300002 -0.036451802 1.2074721e-38 327 270
0.0097345067 0.69400001 -0.036504399 1.2165838e-38 328 270
0.01095132 0.69400001 -0.036504399 1.2165838e-38 329 270
0.011554466 0.65899998 -0.034663398 1.2260554e-38 330 270
0.012709912 0.65899998 -0.034663398 1.3090315e-38 331 270
0.01390744 0.66100001 -0.0347686 1.2998119e-38 332 270
0.015066394 0.66100001 -0.0347686 1.2998119e-38 333 270
0.016225345 0.66100001 -0.0347686 1.2629338e-38 334 270
0.0173843 0.66100001 -0.0347686 1.2444946e-38 335 270
0.018543253 0.66100001 -0.0347686 1.2536062e-38 336 270
0.019702207 0.66100001 -0.0347686 1.2259836e-38 337 270
0.02086116 0.66100001 -0.0347686 1.2626094e-38 338 270
0.022020113 0.66100001 -0.0347686 1.2626094e-38 339 270
0.023179067 0.66100001 -0.0347686 1.2626092e-38 340 270
0.02433802 0.66100001 -0.0347686 1.2533894e-38 341 270
0.025496973 0.66100001 -0.0347686 1.253425e-38 342 270
0.026655925 0.66100001 -0.0347686 1.253425e-38 343 270
0.02781488 0.66100001 -0.0347686 1.2901236e-38 344 270
0.028973831 0.66100001 -0.0347686 1.2901236e-38 345 270
0.032503292 0.713 -0.037503798 1.2809763e-38 346 270
0.033753417 0.713 -0.037503798 1.2809763e-38 347 270
0.034905359 0.71100003 -0.037398599 1.2993798e-38 348 270
0.036151983 0.71100003 -0.037398599 1.3270743e-38 349 270
0.037398599 0.71100003 -0.037398599 1.3731366e-38 350 270
-0.045193922 0.71600002 -0.038916986 1.548308e-38 284 271
-0.043815799 0.71399999 -0.038808275 1.400831e-38 285 271
-0.042563915 0.71399999 -0.038808275 1.2715379e-38 286 271
-0.041254178 0.713 -0.038753927 1.1240249e-38 287 271
-0.040004052 0.713 -0.038753927 1.0780695e-38 288 271
-0.038645219 0.71100003 -0.038645219 1.0596662e-38 289 271
-0.037345998 0.70999998 -0.038590867 1.0229332e-38 290 271
-0.03599944 0.708 -0.038482159 1.0229332e-38 291 271
-0.034758076 0.708 -0.038482159 9.9531049e-39 292 271
-0.033469379 0.70700002 -0.038427804 9.3077355e-39 293 271
-0.032184184 0.70599997 -0.038373452 9.5782085e-39 294 271
-0.030814834 0.70300001 -0.038210396 9.9469896e-39 295 271
-0.029582238 0.70300001 -0.038210396 1.004135e-38 296 271
-0.028268991 0.70099998 -0.038101684 1.0594524e-38 297 271
-0.027001332 0.69999999 -0.038047329 1.0964035e-38 298 271
-0.025700359 0.69800001 -0.037938625 1.1240624e-38 299 271
-0.024476532 0.69800001 -0.037938625 1.068889e-38 300 271
-0.023252707 0.69800001 -0.037938625 1.1703044e-38 301 271
-0.02202888 0.69800001 -0.037938625 1.2260189e-38 302 271
-0.020805053 0.69800001 -0.037938625 1.327398e-38 303 271
-0.019553173 0.69700003 -0.037884273 1.2999212e-38 304 271
-0.018331099 0.69700003 -0.037884273 1.281482e-38 305 271
-0.017084479 0.69599998 -0.037829921 1.3182158e-38 306 271
-0.015864158 0.69599998 -0.037829921 1.3089962e-38 307 271
-0.014643839 0.69599998 -0.037829921 1.327363e-38 308 271
-0.013423519 0.69599998 -0.037829921 1.327363e-38 309 271
-0.012168133 0.69400001 -0.037721213 1.3272908e-38 310 271
-0.01095132 0.69400001 -0.037721213 1.3272908e-38 311 271
-0.0097345067 0.69400001 -0.037721213 1.3181429e-38 312 271
-0.0085176928 0.69400001 -0.037721213 1.3181429e-38 313 271
-0.0073008798 0.69400001 -0.037721213 1.3181432e-38 314 271
-0.0060840664 0.69400001 -0.037721213 1.2997401e-38 315 271
-0.0048672534 0.69400001 -0.037721213 1.2997403e-38 316 271
-0.0036451798 0.69300002 -0.037666857 1.2904849e-38 317 271
-0.00243012 0.69300002 -0.037666857 1.308852e-38 318 271
-0.00121506 0.69300002 -0.037666857 1.2995966e-38 319 271
0 0.69300002 -0.037666857 1.2904125e-38 320 271
0.00121506 0.69300002 -0.037666857 1.2904125e-38 321 271
0.0024336267 0.69400001 -0.037721213 1.2720091e-38 322 271
0.0036504399 0.69400001 -0.037721213 1.2535699e-38 323 271
0.0048672534 0.69400001 -0.037721213 1.2534981e-38 324 271
0.0060840664 0.69400001 -0.037721213 1.2350229e-38 325 271
0.0073008798 0.69400001 -0.037721213 1.2074718e-38 326 271
0.0085176928 0.69400001 -0.037721213 1.1890327e-38 327 271
0.0097625591 0.69599998 -0.037829921 1.1797776e-38 328 271
0.010982879 0.69599998 -0.037829921 1.1797776e-38 329 271
0.011554466 0.65899998 -0.035818845 1.235275e-38 330 271
0.012709912 0.65899998 -0.035818845 1.3182511e-38 331 271
0.01390744 0.66100001 -0.035927553 1.3090315e-38 332 271
0.015089186 0.662 -0.035981905 1.2905924e-38 333 271
0.016225345 0.66100001 -0.035927553 1.2813009e-38 334 271
0.0173843 0.66100001 -0.035927553 1.2628258e-38 335 271
0.018543253 0.66100001 -0.035927553 1.2627539e-38 336 271
0.019702207 0.66100001 -0.035927553 1.2443148e-38 337 271
0.02086116 0.66100001 -0.035927553 1.2534978e-38 338 271
0.022020113 0.66100001 -0.035927553 1.2442782e-38 339 271
0.023179067 0.66100001 -0.035927553 1.2533894e-38 340 271
0.02433802 0.66100001 -0.035927553 1.2533894e-38 341 271
0.025496973 0.66100001 -0.035927553 1.2625727e-38 342 271
0.026655925 0.66100001 -0.035927553 1.2625727e-38 343 271
0.02781488 0.66100001 -0.035927553 1.280976e-38 344 271
0.028973831 0.66100001 -0.035927553 1.280976e-38 345 271
0.032503292 0.713 -0.038753927 1.280976e-38 346 271
0.033753417 0.713 -0.038753927 1.2901955e-38 347 271
0.035003547 0.713 -0.038753927 1.3086352e-38 348 271
-0.043815799 0.71399999 -0.040060159 1.4746243e-38 285 272
-0.042563915 0.71399999 -0.040060159 1.4188361e-38 286 272
-0.041254178 0.713 -0.040004052 1.2713231e-38 287 272
-0.040004052 0.713 -0.040004052 1.170302e-38 288 272
-0.038645219 0.71100003 -0.039891839 1.170302e-38 289 272
-0.037345998 0.70999998 -0.039835732 1.1520806e-38 290 272
-0.036101133 0.70999998 -0.039835732 1.1797033e-38 291 272
-0.034758076 0.708 -0.039723519 1.2163655e-38 292 272
-0.033469379 0.70700002 -0.039667413 1.059597e-38 293 272
-0.032184184 0.70599997 -0.039611302 9.7597229e-39 294 272
-0.030858666 0.704 -0.039499093 1.0497647e-38 295 272
-0.029582238 0.70300001 -0.039442986 1.031792e-38 296 272
-0.028268991 0.70099998 -0.039330769 1.0594509e-38 297 272
-0.027001332 0.69999999 -0.039274666 1.114661e-38 298 272
-0.025700359 0.69800001 -0.039162453 1.1238806e-38 299 272
-0.024476532 0.69800001 -0.039162453 1.1241323e-38 300 272
-0.023319334 0.69999999 -0.039274666 1.1610105e-38 301 272
-0.022091998 0.69999999 -0.039274666 1.152045e-38 302 272
-0.020805053 0.69800001 -0.039162453 1.2442405e-38 303 272
-0.019581227 0.69800001 -0.039162453 1.2905571e-38 304 272
-0.0183574 0.69800001 -0.039162453 1.3182158e-38 305 272
-0.017109027 0.69700003 -0.039106347 1.3273274e-38 306 272
-0.015886955 0.69700003 -0.039106347 1.3365829e-38 307 272
-0.01466488 0.69700003 -0.039106347 1.3090318e-38 308 272
-0.013423519 0.69599998 -0.039050236 1.3182514e-38 309 272
-0.0122032 0.69599998 -0.039050236 1.3182511e-38 310 272
-0.01095132 0.69400001 -0.038938027 1.3090315e-38 311 272
-0.0097345067 0.69400001 -0.038938027 1.2998119e-38 312 272
-0.0085176928 0.69400001 -0.038938027 1.2998119e-38 313 272
-0.0073008798 0.69400001 -0.038938027 1.2997401e-38 314 272
-0.0060840664 0.69400001 -0.038938027 1.2997401e-38 315 272
-0.0048672534 0.69400001 -0.038938027 1.2997401e-38 316 272
-0.0036504399 0.69400001 -0.038938027 1.2997401e-38 317 272
-0.0024336267 0.69400001 -0.038938027 1.3088517e-38 318 272
-0.0012168133 0.69400001 -0.038938027 1.2996322e-38 319 272
0 0.69400001 -0.038938027 1.2904122e-38 320 272
0.0012168133 0.69400001 -0.038938027 1.2720091e-38 321 272
0.0024336267 0.69400001 -0.038938027 1.2627892e-38 322 272
0.0036504399 0.69400001 -0.038938027 1.2535697e-38 323 272
0.0048672534 0.69400001 -0.038938027 1.2443145e-38 324 272
0.0061015999 0.69599998 -0.039050236 1.2258752e-38 325 272
0.0073219193 0.69599998 -0.039050236 1.1982526e-38 326 272
0.0085422397 0.69599998 -0.039050236 1.189033e-38 327 272
0.0097765867 0.69700003 -0.039106347 1.1889608e-38 328 272
0.01099866 0.69700003 -0.039106347 1.1797413e-38 329 272
0.011554466 0.65899998 -0.036974292 1.2352384e-38 330 272
0.012709912 0.65899998 -0.036974292 1.327398e-38 331 272
0.01392848 0.662 -0.037142612 1.2998117e-38 332 272
0.015089186 0.662 -0.037142612 1.2813725e-38 333 272
0.016249891 0.662 -0.037142612 1.2720456e-38 334 272
0.017410601 0.662 -0.037142612 1.2536065e-38 335 272
0.018571306 0.662 -0.037142612 1.2535346e-38 336 272
0.019732011 0.662 -0.037142612 1.2443151e-38 337 272
0.020892721 0.662 -0.037142612 1.2625741e-38 338 272
0.022053426 0.662 -0.037142612 1.2533544e-38 339 272
0.023214132 0.662 -0.037142612 1.2625374e-38 340 272
0.024374841 0.662 -0.037142612 1.2625374e-38 341 272
0.025535546 0.662 -0.037142612 1.253425e-38 342 272
0.026696252 0.662 -0.037142612 1.253425e-38 343 272
0.02781488 0.66100001 -0.037086505 1.2626447e-38 344 272
0.028973831 0.66100001 -0.037086505 1.2626447e-38 345 272
0.032503292 0.713 -0.040004052 1.2901955e-38 346 272
0.033753417 0.713 -0.040004052 1.2994151e-38 347 272
-0.041254178 0.713 -0.041254178 1.3359691e-38 287 273
-0.040004052 0.713 -0.041254178 1.198178e-38 288 273
-0.038753927 0.713 -0.041254178 1.2258368e-38 289 273
-0.037398599 0.71100003 -0.041138459 1.225874e-38 290 273
-0.036101133 0.70999998 -0.041080594 1.2811555e-38 291 273
-0.034758076 0.708 -0.040964879 1.3362564e-38 292 273
-0.033516716 0.708 -0.040964879 1.1703044e-38 293 273
-0.032229774 0.70700002 -0.040907022 1.0129217e-38 294 273
-0.030946331 0.70599997 -0.040849157 1.0682391e-38 295 273
-0.029624319 0.704 -0.040733438 1.0778177e-38 296 273
-0.028349647 0.70300001 -0.040675577 1.0778177e-38 297 273
-0.027039904 0.70099998 -0.040559858 1.0870022e-38 298 273
-0.025810819 0.70099998 -0.040559858 1.1238806e-38 299 273
-0.024581732 0.70099998 -0.040559858 1.1149846e-38 300 273
-0.023352645 0.70099998 -0.040559858 1.1518989e-38 301 273
-0.022091998 0.69999999 -0.040502001 1.1609752e-38 302 273
-0.020864666 0.69999999 -0.040502001 1.1886698e-38 303 273
-0.019637333 0.69999999 -0.040502001 1.1982523e-38 304 273
-0.018409999 0.69999999 -0.040502001 1.3181066e-38 305 273
-0.017133573 0.69800001 -0.040386278 1.3457672e-38 306 273
-0.015909746 0.69800001 -0.040386278 1.3457672e-38 307 273
-0.01468592 0.69800001 -0.040386278 1.3182158e-38 308 273
-0.013442807 0.69700003 -0.040328421 1.3182158e-38 309 273
-0.012220734 0.69700003 -0.040328421 1.3365823e-38 310 273
-0.010982879 0.69599998 -0.040270556 1.3273627e-38 311 273
-0.0097625591 0.69599998 -0.040270556 1.3273627e-38 312 273
-0.0085422397 0.69599998 -0.040270556 1.3181432e-38 313 273
-0.0073219193 0.69599998 -0.040270556 1.3181432e-38 314 273
-0.0061015999 0.69599998 -0.040270556 1.3181432e-38 315 273
-0.0048812795 0.69599998 -0.040270556 1.2997398e-38 316 273
-0.0036609597 0.69599998 -0.040270556 1.2997398e-38 317 273
-0.0024406398 0.69599998 -0.040270556 1.3088514e-38 318 273
-0.0012203199 0.69599998 -0.040270556 1.3088514e-38 319 273
0 0.69599998 -0.040270556 1.2996675e-38 320 273
0.0012203199 0.69599998 -0.040270556 1.2904119e-38 321 273
0.0024406398 0.69599998 -0.040270556 1.2720441e-38 322 273
0.0036609597 0.69599998 -0.040270556 1.253605e-38 323 273
0.0048812795 0.69599998 -0.040270556 1.2442779e-38 324 273
0.0061015999 0.69599998 -0.040270556 1.2258387e-38 325 273
0.0073219193 0.69599998 -0.040270556 1.2073639e-38 326 273
0.0085545136 0.69700003 -0.040328421 1.1889608e-38 327 273
0.0097765867 0.69700003 -0.040328421 1.1614819e-38 328 273
0.01101444 0.69800001 -0.040386278 1.1891046e-38 329 273
0.011589534 0.66100001 -0.038245458 1.2444943e-38 330 273
0.012748486 0.66100001 -0.038245458 1.3182867e-38 331 273
0.01392848 0.662 -0.038303319 1.2998119e-38 332 273
0.015089186 0.662 -0.038303319 1.2813728e-38 333 273
0.016249891 0.662 -0.038303319 1.2719735e-38 334 273
0.017410601 0.662 -0.038303319 1.2627539e-38 335 273
0.018571306 0.662 -0.038303319 1.2534625e-38 336 273
0.019732011 0.662 -0.038303319 1.2442429e-38 337 273
0.020892721 0.662 -0.038303319 1.2626097e-38 338 273
0.022053426 0.662 -0.038303319 1.2533541e-38 339 273
0.023214132 0.662 -0.038303319 1.2625727e-38 340 273
0.024411658 0.66299999 -0.038361177 1.2625727e-38 341 273
0.025574118 0.66299999 -0.038361177 1.2625727e-38 342 273
0.026696252 0.662 -0.038303319 1.2625727e-38 343 273
0.02781488 0.66100001 -0.038245458 1.280976e-38 344 273
0.028973831 0.66100001 -0.038245458 1.280976e-38 345 273
0.030132787 0.66100001 -0.038245458 1.2901958e-38 346 273
-0.041427758 0.71600002 -0.042683143 1.4374937e-38 287 274
-0.040060159 0.71399999 -0.042563915 1.3549841e-38 288 274
-0.038808275 0.71399999 -0.042563915 1.3642039e-38 289 274
-0.037556399 0.71399999 -0.042563915 1.3826435e-38 290 274
-0.036151983 0.71100003 -0.042385083 1.4010827e-38 291 274
-0.034856264 0.70999998 -0.042325463 1.4377085e-38 292 274
-0.033516716 0.708 -0.042206239 1.2625727e-38 293 274
-0.03227536 0.708 -0.042206239 1.0313976e-38 294 274
-0.030946331 0.70599997 -0.042087011 1.0774952e-38 295 274
-0.029624319 0.704 -0.041967787 1.0687773e-38 296 274
-0.028389972 0.704 -0.041967787 1.0595578e-38 297 274
-0.027117053 0.70300001 -0.041908171 1.1144443e-38 298 274
-0.025810819 0.70099998 -0.041788943 1.1421028e-38 299 274
-0.024581732 0.70099998 -0.041788943 1.1517541e-38 300 274
-0.023352645 0.70099998 -0.041788943 1.1701932e-38 301 274
-0.022123558 0.70099998 -0.041788943 1.1887401e-38 302 274
-0.020894472 0.70099998 -0.041788943 1.2163629e-38 303 274
-0.019637333 0.69999999 -0.041729331 1.17034e-38 304 274
-0.018409999 0.69999999 -0.041729331 1.2440965e-38 305 274
-0.017182667 0.69999999 -0.041729331 1.2720456e-38 306 274
-0.015909746 0.69800001 -0.041610107 1.327363e-38 307 274
-0.01468592 0.69800001 -0.041610107 1.336511e-38 308 274
-0.013462093 0.69800001 -0.041610107 1.3549141e-38 309 274
-0.012238266 0.69800001 -0.041610107 1.3365826e-38 310 274
-0.01099866 0.69700003 -0.041550495 1.3365826e-38 311 274
-0.0097765867 0.69700003 -0.041550495 1.3273274e-38 312 274
-0.0085545136 0.69700003 -0.041550495 1.3181079e-38 313 274
-0.0073219193 0.69599998 -0.041490879 1.3272911e-38 314 274
-0.0061015999 0.69599998 -0.041490879 1.3365107e-38 315 274
-0.0048812795 0.69599998 -0.041490879 1.3181432e-38 316 274
-0.0036609597 0.69599998 -0.041490879 1.2997401e-38 317 274
-0.0024406398 0.69599998 -0.041490879 1.3088517e-38 318 274
-0.0012203199 0.69599998 -0.041490879 1.2996322e-38 319 274
0 0.69599998 -0.041490879 1.2995599e-38 320 274
0.0012203199 0.69599998 -0.041490879 1.2995599e-38 321 274
0.0024441467 0.69700003 -0.041550495 1.2720088e-38 322 274
0.00366622 0.69700003 -0.041550495 1.2535697e-38 323 274
0.0048882933 0.69700003 -0.041550495 1.225875e-38 324 274
0.0061103669 0.69700003 -0.041550495 1.2074718e-38 325 274
0.00733244 0.69700003 -0.041550495 1.1890327e-38 326 274
0.0085667865 0.69800001 -0.041610107 1.1798132e-38 327 274
0.0097906133 0.69800001 -0.041610107 1.1889605e-38 328 274
0.011045999 0.69999999 -0.041729331 1.2258387e-38 329 274
0.0116246 0.66299999 -0.039523639 1.2720807e-38 330 274
0.012787059 0.66299999 -0.039523639 1.327398e-38 331 274
0.013970559 0.66399997 -0.039583251 1.2998119e-38 332 274
0.015111978 0.66299999 -0.039523639 1.2629338e-38 333 274
0.016274439 0.66299999 -0.039523639 1.2628261e-38 334 274
0.017436899 0.66299999 -0.039523639 1.2352034e-38 335 274
0.018599359 0.66299999 -0.039523639 1.2535346e-38 336 274
0.019761819 0.66299999 -0.039523639 1.2443151e-38 337 274
0.020924279 0.66299999 -0.039523639 1.2626097e-38 338 274
0.02208674 0.66299999 -0.039523639 1.2626097e-38 339 274
0.0232492 0.66299999 -0.039523639 1.2625374e-38 340 274
0.024448479 0.66399997 -0.039583251 1.2625374e-38 341 274
0.025574118 0.66299999 -0.039523639 1.2809042e-38 342 274
0.026736578 0.66299999 -0.039523639 1.2809042e-38 343 274
0.027856959 0.662 -0.039464023 1.280976e-38 344 274
0.029017664 0.662 -0.039464023 1.2901955e-38 345 274
0.030178372 0.662 -0.039464023 1.2901958e-38 346 274
-0.040172372 0.71600002 -0.043938532 1.3918278e-38 288 275
-0.038808275 0.71399999 -0.043815799 1.3826082e-38 289 275
-0.037556399 0.71399999 -0.043815799 1.3918997e-38 290 275
-0.036253672 0.713 -0.043754432 1.4011192e-38 291 275
-0.034905359 0.71100003 -0.043631699 1.4103022e-38 292 275
-0.033611398 0.70999998 -0.043570329 1.2996675e-38 293 275
-0.03227536 0.708 -0.043447599 1.0501607e-38 294 275
-0.030990168 0.70700002 -0.043386232 1.0133183e-38 295 275
-0.029708479 0.70599997 -0.043324865 1.1239509e-38 296 275
-0.028389972 0.704 -0.043202132 1.1055117e-38 297 275
-0.027155625 0.704 -0.043202132 1.1145883e-38 298 275
-0.025884461 0.70300001 -0.043140765 1.1238079e-38 299 275
-0.024651866 0.70300001 -0.043140765 1.1240597e-38 300 275
-0.023419274 0.70300001 -0.043140765 1.1885966e-38 301 275
-0.02218668 0.70300001 -0.043140765 1.1888119e-38 302 275
-0.020954086 0.70300001 -0.043140765 1.1980314e-38 303 275
-0.019665385 0.70099998 -0.043018032 1.1978892e-38 304 275
-0.018436298 0.70099998 -0.043018032 1.1978892e-38 305 275
-0.017182667 0.69999999 -0.042956665 1.179741e-38 306 275
-0.015955333 0.69999999 -0.042956665 1.2719006e-38 307 275
-0.014727999 0.69999999 -0.042956665 1.299705e-38 308 275
-0.013462093 0.69800001 -0.042833932 1.3365473e-38 309 275
-0.012238266 0.69800001 -0.042833932 1.3089962e-38 310 275
-0.01101444 0.69800001 -0.042833932 1.3089962e-38 311 275
-0.0097906133 0.69800001 -0.042833932 1.327363e-38 312 275
-0.0085545136 0.69700003 -0.042772565 1.3181435e-38 313 275
-0.00733244 0.69700003 -0.042772565 1.3181435e-38 314 275
-0.0061103669 0.69700003 -0.042772565 1.3181435e-38 315 275
-0.0048882933 0.69700003 -0.042772565 1.3181432e-38 316 275
-0.00366622 0.69700003 -0.042772565 1.2905205e-38 317 275
-0.0024441467 0.69700003 -0.042772565 1.3087798e-38 318 275
-0.0012220733 0.69700003 -0.042772565 1.3087798e-38 319 275
0 0.69700003 -0.042772565 1.2904125e-38 320 275
0.0012220733 0.69700003 -0.042772565 1.2719735e-38 321 275
0.0024476533 0.69800001 -0.042833932 1.2627895e-38 322 275
0.0036714801 0.69800001 -0.042833932 1.2535699e-38 323 275
0.0048953067 0.69800001 -0.042833932 1.225875e-38 324 275
0.006119133 0.69800001 -0.042833932 1.2074718e-38 325 275
0.0073429602 0.69800001 -0.042833932 1.1983244e-38 326 275
0.0085913334 0.69999999 -0.042956665 1.1706659e-38 327 275
0.0098186666 0.69999999 -0.042956665 1.1983244e-38 328 275
0.011045999 0.69999999 -0.042956665 1.2352028e-38 329 275
0.011764866 0.671 -0.041177034 1.2905205e-38 330 275
0.012864206 0.667 -0.040931564 1.3181432e-38 331 275
0.014012639 0.66600001 -0.040870197 1.2904849e-38 332 275
0.01518036 0.66600001 -0.040870197 1.2720456e-38 333 275
0.016348081 0.66600001 -0.040870197 1.2628258e-38 334 275
0.0174632 0.66399997 -0.040747464 1.2536062e-38 335 275
0.018627413 0.66399997 -0.040747464 1.2535699e-38 336 275
0.019791625 0.66399997 -0.040747464 1.2350949e-38 337 275
0.020955838 0.66399997 -0.040747464 1.2626094e-38 338 275
0.022120051 0.66399997 -0.040747464 1.2626094e-38 339 275
0.023284266 0.66399997 -0.040747464 1.2626092e-38 340 275
0.024448479 0.66399997 -0.040747464 1.2533894e-38 341 275
0.025612691 0.66399997 -0.040747464 1.2716844e-38 342 275
0.026736578 0.66299999 -0.040686097 1.2809039e-38 343 275
0.027856959 0.662 -0.04062473 1.2809763e-38 344 275
0.029017664 0.662 -0.04062473 1.2809763e-38 345 275
0.030178372 0.662 -0.04062473 1.2626097e-38 346 275
-0.038916986 0.71600002 -0.045193922 1.3917925e-38 289 276
-0.037661601 0.71600002 -0.045193922 1.3643489e-38 290 276
-0.036304519 0.71399999 -0.045067675 1.3643489e-38 291 276
-0.035052639 0.71399999 -0.045067675 1.3828233e-38 292 276
-0.033658739 0.71100003 -0.044878319 1.3459092e-38 293 276
-0.032366529 0.70999998 -0.044815198 1.1424292e-38 294 276
-0.031121666 0.70999998 -0.044815198 1.041014e-38 295 276
-0.029750559 0.70700002 -0.044625837 1.1239875e-38 296 276
-0.028470624 0.70599997 -0.044562716 1.114768e-38 297 276
-0.027155625 0.704 -0.044436477 1.1146961e-38 298 276
-0.02592128 0.704 -0.044436477 1.0594146e-38 299 276
-0.024686933 0.704 -0.044436477 1.1239162e-38 300 276
-0.023452586 0.704 -0.044436477 1.1884531e-38 301 276
-0.022218239 0.704 -0.044436477 1.1887768e-38 302 276
-0.020983893 0.704 -0.044436477 1.1979964e-38 303 276
-0.019721493 0.70300001 -0.04437336 1.2255472e-38 304 276
-0.018488899 0.70300001 -0.04437336 1.2163276e-38 305 276
-0.017207211 0.70099998 -0.044247117 1.1519007e-38 306 276
-0.015978126 0.70099998 -0.044247117 1.2071822e-38 307 276
-0.014727999 0.69999999 -0.044183996 1.2535343e-38 308 276
-0.013500666 0.69999999 -0.044183996 1.3180713e-38 309 276
-0.012273333 0.69999999 -0.044183996 1.3365829e-38 310 276
-0.01101444 0.69800001 -0.04405776 1.3365829e-38 311 276
-0.0097906133 0.69800001 -0.04405776 1.3273274e-38 312 276
-0.0085667865 0.69800001 -0.04405776 1.3273274e-38 313 276
-0.0073429602 0.69800001 -0.04405776 1.3272555e-38 314 276
-0.006119133 0.69800001 -0.04405776 1.3272555e-38 315 276
-0.0048953067 0.69800001 -0.04405776 1.3180716e-38 316 276
-0.0036714801 0.69800001 -0.04405776 1.308852e-38 317 276
-0.0024476533 0.69800001 -0.04405776 1.3088517e-38 318 276
-0.0012238267 0.69800001 -0.04405776 1.2996322e-38 319 276
0 0.69800001 -0.04405776 1.2903769e-38 320 276
0.0012238267 0.69800001 -0.04405776 1.2903769e-38 321 276
0.0024476533 0.69800001 -0.04405776 1.2628261e-38 322 276
0.0036714801 0.69800001 -0.04405776 1.2352034e-38 323 276
0.0049093333 0.69999999 -0.044183996 1.2259836e-38 324 276
0.0061366665 0.69999999 -0.044183996 1.2259836e-38 325 276
0.0073639993 0.69999999 -0.044183996 1.2168359e-38 326 276
0.0085913334 0.69999999 -0.044183996 1.2075804e-38 327 276
0.0098186666 0.69999999 -0.044183996 1.2260198e-38 328 276
0.01063572 0.67400002 -0.042542879 1.2813372e-38 329 276
0.011764866 0.671 -0.042353518 1.3181435e-38 330 276
0.012922067 0.67000002 -0.042290401 1.2997403e-38 331 276
0.014054719 0.66799998 -0.042164158 1.3088517e-38 332 276
0.015225946 0.66799998 -0.042164158 1.2904125e-38 333 276
0.016372627 0.667 -0.042101037 1.2720091e-38 334 276
0.017515799 0.66600001 -0.042037919 1.2535699e-38 335 276
0.018683519 0.66600001 -0.042037919 1.2719012e-38 336 276
0.019851239 0.66600001 -0.042037919 1.2534981e-38 337 276
0.02101896 0.66600001 -0.042037919 1.2626094e-38 338 276
0.02218668 0.66600001 -0.042037919 1.2626094e-38 339 276
0.023354398 0.66600001 -0.042037919 1.2626092e-38 340 276
0.024448479 0.66399997 -0.041911677 1.2626092e-38 341 276
0.025574118 0.66299999 -0.041848559 1.2809042e-38 342 276
0.026736578 0.66299999 -0.041848559 1.2809042e-38 343 276
0.027899038 0.66299999 -0.041848559 1.2533897e-38 344 276
0.029061496 0.66299999 -0.041848559 1.2626094e-38 345 276
-0.037714198 0.71700001 -0.046514176 1.3735331e-38 290 277
-0.036457058 0.71700001 -0.046514176 1.3643136e-38 291 277
-0.035199918 0.71700001 -0.046514176 1.4011192e-38 292 277
-0.033658739 0.71100003 -0.046124939 1.4011192e-38 293 277
-0.032412119 0.71100003 -0.046124939 1.2439163e-38 294 277
-0.031165501 0.71100003 -0.046124939 1.0964032e-38 295 277
-0.02979264 0.708 -0.045930319 1.1605421e-38 296 277
-0.02855128 0.708 -0.045930319 1.1973843e-38 297 277
-0.027232772 0.70599997 -0.04580057 1.1515386e-38 298 277
-0.02592128 0.704 -0.045670826 1.1054767e-38 299 277
-0.024686933 0.704 -0.045670826 1.1237007e-38 300 277
-0.023519212 0.70599997 -0.04580057 1.1882376e-38 301 277
-0.022218239 0.704 -0.045670826 1.1885966e-38 302 277
-0.020983893 0.704 -0.045670826 1.2162913e-38 303 277
-0.019749546 0.704 -0.045670826 1.1980317e-38 304 277
-0.018515198 0.704 -0.045670826 1.2072513e-38 305 277
-0.017256306 0.70300001 -0.04560595 1.1887418e-38 306 277
-0.016023712 0.70300001 -0.04560595 1.1979614e-38 307 277
-0.014749039 0.70099998 -0.045476202 1.2073274e-38 308 277
-0.013519952 0.70099998 -0.045476202 1.2626447e-38 309 277
-0.012273333 0.69999999 -0.04541133 1.2904849e-38 310 277
-0.011045999 0.69999999 -0.04541133 1.327363e-38 311 277
-0.0098186666 0.69999999 -0.04541133 1.3182158e-38 312 277
-0.0085913334 0.69999999 -0.04541133 1.3089962e-38 313 277
-0.0073639993 0.69999999 -0.04541133 1.3272908e-38 314 277
-0.0061366665 0.69999999 -0.04541133 1.3272908e-38 315 277
-0.0049093333 0.69999999 -0.04541133 1.3181429e-38 316 277
-0.0036819996 0.69999999 -0.04541133 1.2997398e-38 317 277
-0.0024546667 0.69999999 -0.04541133 1.2905558e-38 318 277
-0.0012273333 0.69999999 -0.04541133 1.2720807e-38 319 277
0 0.69999999 -0.04541133 1.2720809e-38 320 277
0.0012273333 0.69999999 -0.04541133 1.2720809e-38 321 277
0.0024546667 0.69999999 -0.04541133 1.2628258e-38 322 277
0.0036819996 0.69999999 -0.04541133 1.2628258e-38 323 277
0.0049093333 0.69999999 -0.04541133 1.2537862e-38 324 277
0.0061366665 0.69999999 -0.04541133 1.2722612e-38 325 277
0.0073639993 0.69999999 -0.04541133 1.2537497e-38 326 277
0.0086036054 0.70099998 -0.045476202 1.2444943e-38 327 277
0.0094539737 0.67400002 -0.043724626 1.2630057e-38 328 277
0.01063572 0.67400002 -0.043724626 1.3091034e-38 329 277
0.011764866 0.671 -0.043530006 1.2998838e-38 330 277
0.012922067 0.67000002 -0.043465134 1.2814807e-38 331 277
0.014096799 0.67000002 -0.043465134 1.2996319e-38 332 277
0.015271533 0.67000002 -0.043465134 1.2720091e-38 333 277
0.016397171 0.66799998 -0.043335386 1.2811204e-38 334 277
0.0175421 0.667 -0.04327051 1.2534978e-38 335 277
0.018711573 0.667 -0.04327051 1.2718293e-38 336 277
0.019881045 0.667 -0.04327051 1.2626097e-38 337 277
0.02101896 0.66600001 -0.043205637 1.2809407e-38 338 277
0.02218668 0.66600001 -0.043205637 1.2901602e-38 339 277
0.023354398 0.66600001 -0.043205637 1.2809763e-38 340 277
0.024448479 0.66399997 -0.043075889 1.2625371e-38 341 277
0.025574118 0.66299999 -0.043011017 1.2808686e-38 342 277
0.026736578 0.66299999 -0.043011017 1.2716491e-38 343 277
0.027899038 0.66299999 -0.043011017 1.2533541e-38 344 277
-0.036457058 0.71700001 -0.04777132 1.345947e-38 291 278
-0.035199918 0.71700001 -0.04777132 1.3735684e-38 292 278
-0.033942781 0.71700001 -0.04777132 1.3735684e-38 293 278
-0.032548878 0.71399999 -0.047571439 1.3086331e-38 294 278
-0.031253166 0.713 -0.047504812 1.16112e-38 295 278
-0.029876797 0.70999998 -0.047304932 1.1237713e-38 296 278
-0.02855128 0.708 -0.047171678 1.1698332e-38 297 278
-0.027271347 0.70700002 -0.047105055 1.1791603e-38 298 278
-0.025994917 0.70599997 -0.047038425 1.1422822e-38 299 278
-0.024757065 0.70599997 -0.047038425 1.1512871e-38 300 278
-0.023519212 0.70599997 -0.047038425 1.1789459e-38 301 278
-0.022281358 0.70599997 -0.047038425 1.1609389e-38 302 278
-0.021043506 0.70599997 -0.047038425 1.1977812e-38 303 278
-0.019805651 0.70599997 -0.047038425 1.1979964e-38 304 278
-0.018515198 0.704 -0.046905171 1.207216e-38 305 278
-0.017280852 0.704 -0.046905171 1.2164002e-38 306 278
-0.016046507 0.704 -0.046905171 1.2164002e-38 307 278
-0.014791119 0.70300001 -0.046838548 1.1979263e-38 308 278
-0.013558527 0.70300001 -0.046838548 1.2071459e-38 309 278
-0.012290866 0.70099998 -0.046705291 1.2442779e-38 310 278
-0.011061779 0.70099998 -0.046705291 1.3180344e-38 311 278
-0.0098326923 0.70099998 -0.046705291 1.3458379e-38 312 278
-0.0086036054 0.70099998 -0.046705291 1.3273627e-38 313 278
-0.0073639993 0.69999999 -0.046638668 1.3273983e-38 314 278
-0.0061366665 0.69999999 -0.046638668 1.3181429e-38 315 278
-0.0049093333 0.69999999 -0.046638668 1.3181785e-38 316 278
-0.0036819996 0.69999999 -0.046638668 1.2997754e-38 317 278
-0.0024546667 0.69999999 -0.046638668 1.308887e-38 318 278
-0.0012273333 0.69999999 -0.046638668 1.2996675e-38 319 278
0 0.69999999 -0.046638668 1.2904122e-38 320 278
0.0012273333 0.69999999 -0.046638668 1.2904122e-38 321 278
0.0024546667 0.69999999 -0.046638668 1.2537144e-38 322 278
0.0036819996 0.69999999 -0.046638668 1.2629341e-38 323 278
0.0049093333 0.69999999 -0.046638668 1.2998482e-38 324 278
0.0061454331 0.70099998 -0.046705291 1.2998482e-38 325 278
0.0073745195 0.70099998 -0.046705291 1.2905921e-38 326 278
0.00824768 0.67199999 -0.044773117 1.2813725e-38 327 278
0.0094259195 0.67199999 -0.044773117 1.3091387e-38 328 278
0.01063572 0.67400002 -0.044906374 1.3183584e-38 329 278
0.011782399 0.67199999 -0.044773117 1.3090668e-38 330 278
0.012941353 0.671 -0.044706494 1.2906277e-38 331 278
0.01411784 0.671 -0.044706494 1.3088149e-38 332 278
0.015294326 0.671 -0.044706494 1.2903756e-38 333 278
0.016470812 0.671 -0.044706494 1.281156e-38 334 278
0.017620999 0.67000002 -0.044639867 1.2719006e-38 335 278
0.018795732 0.67000002 -0.044639867 1.2718287e-38 336 278
0.019881045 0.667 -0.044439986 1.2718287e-38 337 278
0.021050518 0.667 -0.044439986 1.2901958e-38 338 278
0.022219993 0.667 -0.044439986 1.2809763e-38 339 278
0.023389466 0.667 -0.044439986 1.2901236e-38 340 278
0.02452212 0.66600001 -0.04437336 1.2716844e-38 341 278
0.02568984 0.66600001 -0.04437336 1.2533178e-38 342 278
0.026857559 0.66600001 -0.04437336 1.2440983e-38 343 278
-0.036457058 0.71700001 -0.04902846 1.355059e-38 291 279
-0.035199918 0.71700001 -0.04902846 1.3642773e-38 292 279
-0.033942781 0.71700001 -0.04902846 1.3550218e-38 293 279
-0.032640055 0.71600002 -0.048960082 1.3734223e-38 294 279
-0.031296998 0.71399999 -0.048823316 1.2258734e-38 295 279
-0.029918881 0.71100003 -0.048618179 1.1238806e-38 296 279
-0.028631933 0.70999998 -0.048549797 1.1607587e-38 297 279
-0.027309919 0.708 -0.048413038 1.1517188e-38 298 279
-0.026068559 0.708 -0.048413038 1.1332795e-38 299 279
-0.024827199 0.708 -0.048413038 1.142319e-38 300 279
-0.023585839 0.708 -0.048413038 1.1515386e-38 301 279
-0.022312919 0.70700002 -0.048344657 1.160794e-38 302 279
-0.021073313 0.70700002 -0.048344657 1.206856e-38 303 279
-0.019805651 0.70599997 -0.048276275 1.2254029e-38 304 279
-0.018567799 0.70599997 -0.048276275 1.2438421e-38 305 279
-0.017329946 0.70599997 -0.048276275 1.2347305e-38 306 279
-0.016046507 0.704 -0.048139516 1.2531336e-38 307 279
-0.014812159 0.704 -0.048139516 1.2255472e-38 308 279
-0.013558527 0.70300001 -0.048071139 1.2255472e-38 309 279
-0.012325933 0.70300001 -0.048071139 1.2164373e-38 310 279
-0.01109334 0.70300001 -0.048071139 1.2625352e-38 311 279
-0.0098607466 0.70300001 -0.048071139 1.2720091e-38 312 279
-0.0086281532 0.70300001 -0.048071139 1.318071e-38 313 279
-0.0073955595 0.70300001 -0.048071139 1.2997403e-38 314 279
-0.0061454331 0.70099998 -0.047934376 1.2997403e-38 315 279
-0.0049163462 0.70099998 -0.047934376 1.2997401e-38 316 279
-0.0036872597 0.70099998 -0.047934376 1.2905205e-38 317 279
-0.0024581731 0.70099998 -0.047934376 1.2996322e-38 318 279
-0.0012290865 0.70099998 -0.047934376 1.2904125e-38 319 279
0 0.70099998 -0.047934376 1.2904125e-38 320 279
0.0012290865 0.70099998 -0.047934376 1.2904125e-38 321 279
0.0024581731 0.70099998 -0.047934376 1.2629341e-38 322 279
0.0036872597 0.70099998 -0.047934376 1.2997764e-38 323 279
0.0049163462 0.70099998 -0.047934376 1.2814454e-38 324 279
0.0061454331 0.70099998 -0.047934376 1.2998485e-38 325 279
0.0073745195 0.70099998 -0.047934376 1.2997766e-38 326 279
0.00824768 0.67199999 -0.045951359 1.3089962e-38 327 279
0.0094259195 0.67199999 -0.045951359 1.2907722e-38 328 279
0.01063572 0.67400002 -0.046088122 1.2907722e-38 329 279
0.011817466 0.67400002 -0.046088122 1.3272908e-38 330 279
0.012999214 0.67400002 -0.046088122 1.3088517e-38 331 279
0.01418096 0.67400002 -0.046088122 1.3087798e-38 332 279
0.01531712 0.67199999 -0.045951359 1.2810851e-38 333 279
0.01649536 0.67199999 -0.045951359 1.2810488e-38 334 279
0.0176473 0.671 -0.045882981 1.2718293e-38 335 279
0.018823786 0.671 -0.045882981 1.2810486e-38 336 279
0.019970467 0.67000002 -0.0458146 1.271829e-38 337 279
0.021082079 0.66799998 -0.045677837 1.2901958e-38 338 279
0.022253305 0.66799998 -0.045677837 1.2901958e-38 339 279
0.023389466 0.667 -0.045609459 1.2809042e-38 340 279
0.02452212 0.66600001 -0.045541082 1.2716488e-38 341 279
0.02568984 0.66600001 -0.045541082 1.2440983e-38 342 279
0.026857559 0.66600001 -0.045541082 1.2440983e-38 343 279
-0.036457058 0.71700001 -0.0502856 1.3274726e-38 291 280
-0.035199918 0.71700001 -0.0502856 1.3367628e-38 292 280
-0.033942781 0.71700001 -0.0502856 1.3275432e-38 293 280
-0.032685637 0.71700001 -0.0502856 1.4104094e-38 294 280
-0.031384666 0.71600002 -0.050215468 1.3274334e-38 295 280
-0.030045118 0.71399999 -0.050075196 1.216221e-38 296 280
-0.028752912 0.713 -0.050005067 1.1332089e-38 297 280
-0.027425639 0.71100003 -0.049864799 1.2067478e-38 298 280
