# .PCD v.7 - Point Cloud Data file format
FIELDS x y z rgb imX imY
SIZE 4 4 4 4 4 4
TYPE F F F F F F
COUNT 1 1 1 1 1 1
WIDTH 838
HEIGHT 1
VIEWPOINT 0 0 0 1 0 0 0
POINTS 838
DATA ascii
0.010239467 0.73000002 -0.033278264 1.8058763e-38 328 266
0.01153518 0.73100001 -0.033323854 1.8058763e-38 329 266
0.012816866 0.73100001 -0.033323854 1.8058763e-38 330 266
0.014098554 0.73100001 -0.033323854 1.8058763e-38 331 266
0.01538024 0.73100001 -0.033323854 1.7966209e-38 332 266
0.016661927 0.73100001 -0.033323854 1.7966209e-38 333 266
0.017943613 0.73100001 -0.033323854 1.7966565e-38 334 266
0.019225299 0.73100001 -0.033323854 1.7966565e-38 335 266
0.020506985 0.73100001 -0.033323854 1.7782897e-38 336 266
0.021788673 0.73100001 -0.033323854 1.7690701e-38 337 266
0.02307036 0.73100001 -0.033323854 1.7782897e-38 338 266
0.024352046 0.73100001 -0.033323854 1.7875092e-38 339 266
0.025633732 0.73100001 -0.033323854 1.7783252e-38 340 266
0.026989058 0.73299998 -0.033415023 1.7783252e-38 341 266
0.028274251 0.73299998 -0.033415023 1.7875092e-38 342 266
0.029599773 0.73400003 -0.033460613 1.7782897e-38 343 266
0.030844638 0.73299998 -0.033415023 1.7874013e-38 344 266
0.032042164 0.73100001 -0.033323854 1.7966209e-38 345 266
0.033323854 0.73100001 -0.033323854 1.7966209e-38 346 266
0.034605537 0.73100001 -0.033323854 1.7966209e-38 347 266
0.035887226 0.73100001 -0.033323854 1.7874016e-38 348 266
0.037168913 0.73100001 -0.033323854 1.7874016e-38 349 266
0.038450599 0.73100001 -0.033323854 1.7966209e-38 350 266
0.039732285 0.73100001 -0.033323854 1.7966209e-38 351 266
0.041126184 0.73299998 -0.033415023 1.7783252e-38 352 266
0.042411376 0.73299998 -0.033415023 1.7783252e-38 353 266
0.043696571 0.73299998 -0.033415023 1.7783252e-38 354 266
0.044859033 0.73100001 -0.033323854 1.7783252e-38 355 266
0.046140719 0.73100001 -0.033323854 1.7966565e-38 356 266
0.047357533 0.73000002 -0.033278264 1.7874369e-38 357 266
0.048637468 0.73000002 -0.033278264 1.8058041e-38 358 266
0.0499174 0.73000002 -0.033278264 1.8058041e-38 359 266
0.051197331 0.73000002 -0.033278264 1.7874366e-38 360 266
0.052477267 0.73000002 -0.033278264 1.7874366e-38 361 266
0.053609919 0.72799999 -0.033187091 1.7874369e-38 362 266
0.054886345 0.72799999 -0.033187091 1.7874369e-38 363 266
0.056162767 0.72799999 -0.033187091 1.7874369e-38 364 266
0.057439197 0.72799999 -0.033187091 1.7966565e-38 365 266
0.058715623 0.72799999 -0.033187091 1.7966209e-38 366 266
0.059909642 0.727 -0.033141505 1.7966209e-38 367 266
0.061184317 0.727 -0.033141505 1.7874016e-38 368 266
0.062458992 0.727 -0.033141505 1.7874016e-38 369 266
0.06373366 0.727 -0.033141505 1.7966212e-38 370 266
0.065008335 0.727 -0.033141505 1.7966212e-38 371 266
0.06628301 0.727 -0.033141505 1.7043887e-38 372 266
0.067650609 0.72799999 -0.033187091 1.6398517e-38 373 266
0.068927035 0.72799999 -0.033187091 1.639887e-38 374 266
0.070203468 0.72799999 -0.033187091 1.6030088e-38 375 266
0.071479887 0.72799999 -0.033187091 1.5844978e-38 376 266
0.068259016 0.68300003 -0.031135695 1.5844978e-38 377 266
0.069456547 0.68300003 -0.031135695 1.5476914e-38 378 266
0.070654072 0.68300003 -0.031135695 1.5292523e-38 379 266
0.07227239 0.68699998 -0.031318039 1.5200324e-38 380 266
0.073156074 0.68400002 -0.03118128 1.5015932e-38 381 266
0.074355356 0.68400002 -0.03118128 1.5015563e-38 382 266
0.075444184 0.68300003 -0.031135695 1.4923368e-38 383 266
0.076641709 0.68300003 -0.031135695 1.4740055e-38 384 266
0.077839233 0.68300003 -0.031135695 1.4647501e-38 385 266
0.079036765 0.68300003 -0.031135695 1.4648225e-38 386 266
0.080586702 0.68599999 -0.031272452 1.4648225e-38 387 266
0.081789486 0.68599999 -0.031272452 1.4372011e-38 388 266
0.082992278 0.68599999 -0.031272452 1.4372011e-38 389 266
0.084195063 0.68599999 -0.031272452 1.4464929e-38 390 266
0.085522331 0.68699998 -0.031318039 1.4649321e-38 391 266
0.086853124 0.68800002 -0.031363625 1.492698e-38 392 266
0.088059418 0.68800002 -0.031363625 1.5111373e-38 393 266
0.089265712 0.68800002 -0.031363625 1.5387602e-38 394 266
0.089814499 0.68300003 -0.031135695 1.5572352e-38 395 266
0.097099595 0.70999998 -0.032366529 1.5939357e-38 398 266
-0.11430506 0.70099998 -0.03318534 1.5754964e-38 227 267
-0.11243074 0.69700003 -0.03299598 1.5478003e-38 228 267
-0.11120867 0.69700003 -0.03299598 1.5201775e-38 229 267
-0.10982879 0.69599998 -0.032948639 1.4925182e-38 230 267
-0.10829638 0.69400001 -0.032853961 1.4648954e-38 231 267
-0.10692528 0.69300002 -0.03280662 1.4924461e-38 232 267
-0.10540513 0.69099998 -0.032711938 1.4832264e-38 233 267
-0.10419358 0.69099998 -0.032711938 1.4649304e-38 234 267
-0.10298203 0.69099998 -0.032711938 1.4649304e-38 235 267
-0.10162319 0.69 -0.032664597 1.4740418e-38 236 267
-0.1004134 0.69 -0.032664597 1.4648223e-38 237 267
-0.099203594 0.69 -0.032664597 1.4831898e-38 238 267
-0.097567737 0.68699998 -0.032522578 1.5015929e-38 239 267
-0.096363194 0.68699998 -0.032522578 1.5107409e-38 240 267
-0.095158651 0.68699998 -0.032522578 1.5199606e-38 241 267
-0.093954116 0.68699998 -0.032522578 1.4832987e-38 242 267
-0.092614569 0.68599999 -0.032475237 1.4925182e-38 243 267
-0.091411777 0.68599999 -0.032475237 1.4925179e-38 244 267
-0.095731996 0.72799999 -0.034463517 1.4925179e-38 245 267
-0.09445557 0.72799999 -0.034463517 1.5109924e-38 246 267
-0.093435131 0.73000002 -0.034558199 1.5202478e-38 247 267
-0.092281438 0.73100001 -0.034605537 1.5938608e-38 248 267
-0.090999752 0.73100001 -0.034605537 1.7229347e-38 249 267
-0.089718066 0.73100001 -0.034605537 1.7413022e-38 250 267
-0.088678338 0.73299998 -0.034700219 1.7320827e-38 251 267
-0.087393142 0.73299998 -0.034700219 1.7228994e-38 252 267
-0.086107947 0.73299998 -0.034700219 1.7228994e-38 253 267
-0.084822752 0.73299998 -0.034700219 1.7320476e-38 254 267
-0.083309628 0.73100001 -0.034605537 1.7320476e-38 255 267
-0.082027942 0.73100001 -0.034605537 1.7412669e-38 256 267
-0.080746263 0.73100001 -0.034605537 1.7412669e-38 257 267
-0.07946457 0.73100001 -0.034605537 1.7597056e-38 258 267
-0.078182884 0.73100001 -0.034605537 1.7597056e-38 259 267
-0.076901197 0.73100001 -0.034605537 1.7230432e-38 260 267
-0.075619511 0.73100001 -0.034605537 1.7414464e-38 261 267
-0.074337825 0.73100001 -0.034605537 1.7505941e-38 262 267
-0.072956197 0.73000002 -0.034558199 1.7505941e-38 263 267
-0.071676269 0.73000002 -0.034558199 1.7505944e-38 264 267
-0.070396334 0.73000002 -0.034558199 1.7505944e-38 265 267
-0.069116399 0.73000002 -0.034558199 1.7505944e-38 266 267
-0.067650609 0.72799999 -0.034463517 1.7413388e-38 267 267
-0.066374183 0.72799999 -0.034463517 1.7597056e-38 268 267
-0.065097757 0.72799999 -0.034463517 1.7597056e-38 269 267
-0.063996665 0.73000002 -0.034558199 1.7597056e-38 270 267
-0.06271673 0.73000002 -0.034558199 1.7597056e-38 271 267
-0.061436798 0.73000002 -0.034558199 1.778073e-38 272 267
-0.060156867 0.73000002 -0.034558199 1.778073e-38 273 267
-0.058876935 0.73000002 -0.034558199 1.7689253e-38 274 267
-0.057597004 0.73000002 -0.034558199 1.7689253e-38 275 267
-0.056394216 0.73100001 -0.034605537 1.7781452e-38 276 267
-0.055037133 0.73000002 -0.034558199 1.7781452e-38 277 267
-0.053757198 0.73000002 -0.034558199 1.7690335e-38 278 267
-0.052549154 0.73100001 -0.034605537 1.7690335e-38 279 267
-0.051197331 0.73000002 -0.034558199 1.7690332e-38 280 267
-0.0499174 0.73000002 -0.034558199 1.7690332e-38 281 267
-0.048637468 0.73000002 -0.034558199 1.7873647e-38 282 267
-0.047227785 0.72799999 -0.034463517 1.7873647e-38 283 267
-0.045951359 0.72799999 -0.034463517 1.7874366e-38 284 267
-0.044674929 0.72799999 -0.034463517 1.7874366e-38 285 267
-0.043398503 0.72799999 -0.034463517 1.7690332e-38 286 267
-0.042122077 0.72799999 -0.034463517 1.7690332e-38 287 267
-0.040845651 0.72799999 -0.034463517 1.7874366e-38 288 267
-0.039569225 0.72799999 -0.034463517 1.7690335e-38 289 267
-0.038292799 0.72799999 -0.034463517 1.787365e-38 290 267
-0.037016369 0.72799999 -0.034463517 1.7965846e-38 291 267
-0.035739943 0.72799999 -0.034463517 1.7965846e-38 292 267
-0.034463517 0.72799999 -0.034463517 1.7965846e-38 293 267
-0.033278264 0.73000002 -0.034558199 1.7966562e-38 294 267
-0.031910665 0.72799999 -0.034463517 1.7874366e-38 295 267
-0.030634239 0.72799999 -0.034463517 1.7966562e-38 296 267
-0.029357811 0.72799999 -0.034463517 1.7966562e-38 297 267
-0.028081384 0.72799999 -0.034463517 1.8058041e-38 298 267
-0.026804959 0.72799999 -0.034463517 1.8058041e-38 299 267
-0.025528532 0.72799999 -0.034463517 1.8242073e-38 300 267
-0.024252106 0.72799999 -0.034463517 1.8058041e-38 301 267
-0.023038799 0.73000002 -0.034558199 1.7966565e-38 302 267
-0.021758866 0.73000002 -0.034558199 1.805876e-38 303 267
-0.020478934 0.73000002 -0.034558199 1.8058763e-38 304 267
-0.019199001 0.73000002 -0.034558199 1.8058763e-38 305 267
-0.017992707 0.73299998 -0.034700219 1.8058044e-38 306 267
-0.016661927 0.73100001 -0.034605537 1.8242075e-38 307 267
-0.01538024 0.73100001 -0.034605537 1.8058763e-38 308 267
-0.014079267 0.73000002 -0.034558199 1.8058763e-38 309 267
-0.012799333 0.73000002 -0.034558199 1.8058763e-38 310 267
-0.011519399 0.73000002 -0.034558199 1.8058763e-38 311 267
-0.010211413 0.72799999 -0.034463517 1.8058763e-38 312 267
-0.0089349858 0.72799999 -0.034463517 1.8058763e-38 313 267
-0.0076585598 0.72799999 -0.034463517 1.8058763e-38 314 267
-0.0063821329 0.72799999 -0.034463517 1.8058763e-38 315 267
-0.0051057064 0.72799999 -0.034463517 1.8059481e-38 316 267
-0.0038240198 0.727 -0.03441618 1.7875448e-38 317 267
-0.0025493465 0.727 -0.03441618 1.805876e-38 318 267
-0.0012746733 0.727 -0.03441618 1.805876e-38 319 267
0 0.727 -0.03441618 1.833427e-38 320 267
0.0012746733 0.727 -0.03441618 1.8242073e-38 321 267
0.0025528532 0.72799999 -0.034463517 1.8242073e-38 322 267
0.0038292799 0.72799999 -0.034463517 1.8242073e-38 323 267
0.0051057064 0.72799999 -0.034463517 1.8058763e-38 324 267
0.0063821329 0.72799999 -0.034463517 1.8058763e-38 325 267
0.0076585598 0.72799999 -0.034463517 1.8058763e-38 326 267
0.0089349858 0.72799999 -0.034463517 1.8058763e-38 327 267
0.010211413 0.72799999 -0.034463517 1.8242075e-38 328 267
0.01148784 0.72799999 -0.034463517 1.8242075e-38 329 267
0.012746733 0.727 -0.03441618 1.7966209e-38 330 267
0.014021406 0.727 -0.03441618 1.7966209e-38 331 267
0.015296079 0.727 -0.03441618 1.7966209e-38 332 267
0.016593546 0.72799999 -0.034463517 1.7966209e-38 333 267
0.017869972 0.72799999 -0.034463517 1.7966565e-38 334 267
0.0191464 0.72799999 -0.034463517 1.7966565e-38 335 267
0.020422826 0.72799999 -0.034463517 1.7782897e-38 336 267
0.021699252 0.72799999 -0.034463517 1.7782897e-38 337 267
0.022975679 0.72799999 -0.034463517 1.7966209e-38 338 267
0.024218792 0.727 -0.03441618 1.7966209e-38 339 267
0.025423333 0.72500002 -0.034321502 1.7782897e-38 340 267
0.026694499 0.72500002 -0.034321502 1.7875092e-38 341 267
0.02788852 0.72299999 -0.03422682 1.7783252e-38 342 267
0.029156178 0.72299999 -0.03422682 1.7783252e-38 343 267
0.030423839 0.72299999 -0.03422682 1.7874369e-38 344 267
0.031691495 0.72299999 -0.03422682 1.7874369e-38 345 267
0.032959159 0.72299999 -0.03422682 1.7874369e-38 346 267
0.03422682 0.72299999 -0.03422682 1.7874369e-38 347 267
0.035494477 0.72299999 -0.03422682 1.7783252e-38 348 267
0.036863834 0.72500002 -0.034321502 1.7690698e-38 349 267
0.038135 0.72500002 -0.034321502 1.7783252e-38 350 267
0.039406165 0.72500002 -0.034321502 1.7783252e-38 351 267
0.040677335 0.72500002 -0.034321502 1.7966565e-38 352 267
0.041948501 0.72500002 -0.034321502 1.7966565e-38 353 267
0.043219667 0.72500002 -0.034321502 1.7966209e-38 354 267
0.044490833 0.72500002 -0.034321502 1.7966209e-38 355 267
0.045888241 0.727 -0.03441618 1.7874013e-38 356 267
0.047162913 0.727 -0.03441618 1.7966209e-38 357 267
0.048171077 0.72299999 -0.03422682 1.7966565e-38 358 267
0.049438741 0.72299999 -0.03422682 1.7874369e-38 359 267
0.050706398 0.72299999 -0.03422682 1.8058041e-38 360 267
0.051974058 0.72299999 -0.03422682 1.7965846e-38 361 267
0.053241719 0.72299999 -0.03422682 1.7874369e-38 362 267
0.054509375 0.72299999 -0.03422682 1.7966565e-38 363 267
0.055699892 0.722 -0.034179479 1.7966562e-38 364 267
0.056965802 0.722 -0.034179479 1.7966562e-38 365 267
0.058231708 0.722 -0.034179479 1.7966562e-38 366 267
0.059497613 0.722 -0.034179479 1.7874366e-38 367 267
0.060763516 0.722 -0.034179479 1.7874013e-38 368 267
0.062029421 0.722 -0.034179479 1.7874013e-38 369 267
0.063295327 0.722 -0.034179479 1.7966209e-38 370 267
0.064650662 0.72299999 -0.03422682 1.7966209e-38 371 267
0.065918319 0.72299999 -0.03422682 1.6860219e-38 372 267
0.067371838 0.72500002 -0.034321502 1.6399599e-38 373 267
0.06883236 0.727 -0.03441618 1.6123723e-38 374 267
0.070107035 0.727 -0.03441618 1.5478353e-38 375 267
0.0669633 0.68199998 -0.032285877 1.5383993e-38 376 267
0.068159081 0.68199998 -0.032285877 1.5568384e-38 377 267
0.069049768 0.67900002 -0.032143861 1.5292876e-38 378 267
0.070240289 0.67900002 -0.032143861 1.520068e-38 379 267
0.071535997 0.68000001 -0.032191198 1.5107406e-38 380 267
0.072728261 0.68000001 -0.032191198 1.5107406e-38 381 267
0.073920533 0.68000001 -0.032191198 1.4923368e-38 382 267
0.075112797 0.68000001 -0.032191198 1.4831172e-38 383 267
0.076305062 0.68000001 -0.032191198 1.4555661e-38 384 267
0.077497333 0.68000001 -0.032191198 1.4555661e-38 385 267
0.078921035 0.68199998 -0.032285877 1.4738974e-38 386 267
0.080116808 0.68199998 -0.032285877 1.4738974e-38 387 267
0.081431814 0.68300003 -0.032333218 1.4555308e-38 388 267
0.082629345 0.68300003 -0.032333218 1.4463113e-38 389 267
0.08382687 0.68300003 -0.032333218 1.4555311e-38 390 267
0.085024394 0.68300003 -0.032333218 1.4555311e-38 391 267
0.086221918 0.68300003 -0.032333218 1.4832984e-38 392 267
0.087419443 0.68300003 -0.032333218 1.5202125e-38 393 267
0.088616975 0.68300003 -0.032333218 1.5479804e-38 394 267
0.089814499 0.68300003 -0.032333218 1.5571999e-38 395 267
-0.11365282 0.69700003 -0.034218054 1.6031552e-38 227 268
-0.11243074 0.69700003 -0.034218054 1.5754593e-38 228 268
-0.11104912 0.69599998 -0.034168959 1.5201419e-38 229 268
-0.10951319 0.69400001 -0.034070771 1.5199974e-38 230 268
-0.10814034 0.69300002 -0.034021679 1.5107778e-38 231 268
-0.10692528 0.69300002 -0.034021679 1.483262e-38 232 268
-0.10540513 0.69099998 -0.033923492 1.4924817e-38 233 268
-0.10419358 0.69099998 -0.033923492 1.4925167e-38 234 268
-0.102833 0.69 -0.0338744 1.483297e-38 235 268
-0.10162319 0.69 -0.0338744 1.4831895e-38 236 268
-0.10012234 0.68800002 -0.033776212 1.4739699e-38 237 268
-0.098772272 0.68699998 -0.033727121 1.4739346e-38 238 268
-0.097425714 0.68599999 -0.033678025 1.4831901e-38 239 268
-0.095802136 0.68300003 -0.033530746 1.4831545e-38 240 268
-0.094604604 0.68300003 -0.033530746 1.5108132e-38 241 268
-0.09340708 0.68300003 -0.033530746 1.4832987e-38 242 268
-0.092074543 0.68199998 -0.03348165 1.4925182e-38 243 268
-0.090878762 0.68199998 -0.03348165 1.4925179e-38 244 268
-0.095731996 0.72799999 -0.035739943 1.4925179e-38 245 268
-0.09445557 0.72799999 -0.035739943 1.4926261e-38 246 268
-0.093435131 0.73000002 -0.035838135 1.5202488e-38 247 268
-0.092281438 0.73100001 -0.035887226 1.5755662e-38 248 268
-0.090999752 0.73100001 -0.035887226 1.6770174e-38 249 268
-0.089718066 0.73100001 -0.035887226 1.7321546e-38 250 268
-0.088678338 0.73299998 -0.035985414 1.7321546e-38 251 268
-0.087154694 0.73100001 -0.035887226 1.732083e-38 252 268
-0.085873008 0.73100001 -0.035887226 1.732083e-38 253 268
-0.084475599 0.73000002 -0.035838135 1.7320476e-38 254 268
-0.083195664 0.73000002 -0.035838135 1.7320476e-38 255 268
-0.081691302 0.72799999 -0.035739943 1.7320474e-38 256 268
-0.080414876 0.72799999 -0.035739943 1.7412669e-38 257 268
-0.07913845 0.72799999 -0.035739943 1.7230432e-38 258 268
-0.077862024 0.72799999 -0.035739943 1.7230432e-38 259 268
-0.076480396 0.727 -0.035690852 1.7230432e-38 260 268
-0.075205728 0.727 -0.035690852 1.7230432e-38 261 268
-0.073931053 0.727 -0.035690852 1.7597059e-38 262 268
-0.072656378 0.727 -0.035690852 1.7689256e-38 263 268
-0.071381703 0.727 -0.035690852 1.7689256e-38 264 268
-0.070107035 0.727 -0.035690852 1.7689256e-38 265 268
-0.06883236 0.727 -0.035690852 1.7688536e-38 266 268
-0.067557678 0.727 -0.035690852 1.7688536e-38 267 268
-0.06628301 0.727 -0.035690852 1.7688533e-38 268 268
-0.065008335 0.727 -0.035690852 1.7688533e-38 269 268
-0.063821331 0.72799999 -0.035739943 1.7688533e-38 270 268
-0.062544905 0.72799999 -0.035739943 1.778073e-38 271 268
-0.061184317 0.727 -0.035690852 1.7505941e-38 272 268
-0.059909642 0.727 -0.035690852 1.7505941e-38 273 268
-0.058715623 0.72799999 -0.035739943 1.7505944e-38 274 268
-0.057439197 0.72799999 -0.035739943 1.759814e-38 275 268
-0.056162767 0.72799999 -0.035739943 1.7781452e-38 276 268
-0.054660168 0.72500002 -0.035592668 1.7781452e-38 277 268
-0.053388998 0.72500002 -0.035592668 1.7781452e-38 278 268
-0.052261602 0.727 -0.035690852 1.7873647e-38 279 268
-0.050986931 0.727 -0.035690852 1.759814e-38 280 268
-0.049712259 0.727 -0.035690852 1.7690335e-38 281 268
-0.048437584 0.727 -0.035690852 1.7690335e-38 282 268
-0.047162913 0.727 -0.035690852 1.7690335e-38 283 268
-0.045888241 0.727 -0.035690852 1.7598858e-38 284 268
-0.044613566 0.727 -0.035690852 1.7598858e-38 285 268
-0.043338891 0.727 -0.035690852 1.7690332e-38 286 268
-0.041948501 0.72500002 -0.035592668 1.7690332e-38 287 268
-0.040677335 0.72500002 -0.035592668 1.7690335e-38 288 268
-0.039297458 0.72299999 -0.035494477 1.7874366e-38 289 268
-0.038029801 0.72299999 -0.035494477 1.7689979e-38 290 268
-0.036762137 0.72299999 -0.035494477 1.7874369e-38 291 268
-0.035494477 0.72299999 -0.035494477 1.7874369e-38 292 268
-0.034179479 0.722 -0.035445385 1.7874369e-38 293 268
-0.032913569 0.722 -0.035445385 1.7874369e-38 294 268
-0.031779166 0.72500002 -0.035592668 1.7874369e-38 295 268
-0.030508002 0.72500002 -0.035592668 1.7874369e-38 296 268
-0.029236834 0.72500002 -0.035592668 1.7966565e-38 297 268
-0.027965667 0.72500002 -0.035592668 1.7966209e-38 298 268
-0.026768139 0.727 -0.035690852 1.7966209e-38 299 268
-0.025493465 0.727 -0.035690852 1.7966209e-38 300 268
-0.024218792 0.727 -0.035690852 1.7966209e-38 301 268
-0.022944121 0.727 -0.035690852 1.7966209e-38 302 268
-0.021669446 0.727 -0.035690852 1.8058763e-38 303 268
-0.020394772 0.727 -0.035690852 1.7875092e-38 304 268
-0.019120099 0.727 -0.035690852 1.7875092e-38 305 268
-0.017747238 0.72299999 -0.035494477 1.8058763e-38 306 268
-0.01647958 0.72299999 -0.035494477 1.8058763e-38 307 268
-0.015254001 0.72500002 -0.035592668 1.8058763e-38 308 268
-0.013982833 0.72500002 -0.035592668 1.8058763e-38 309 268
-0.012711667 0.72500002 -0.035592668 1.8058763e-38 310 268
-0.0114405 0.72500002 -0.035592668 1.8058763e-38 311 268
-0.010169334 0.72500002 -0.035592668 1.8242075e-38 312 268
-0.0088981669 0.72500002 -0.035592668 1.8242075e-38 313 268
-0.0076270006 0.72500002 -0.035592668 1.8058763e-38 314 268
-0.0063558333 0.72500002 -0.035592668 1.8058763e-38 315 268
-0.0050846669 0.72500002 -0.035592668 1.8058763e-38 316 268
-0.0038135003 0.72500002 -0.035592668 1.8058763e-38 317 268
-0.0025423334 0.72500002 -0.035592668 1.8058763e-38 318 268
-0.0012711667 0.72500002 -0.035592668 1.8058763e-38 319 268
0 0.72500002 -0.035592668 1.805876e-38 320 268
0.0012711667 0.72500002 -0.035592668 1.805876e-38 321 268
0.0025493465 0.727 -0.035690852 1.8058763e-38 322 268
0.0038240198 0.727 -0.035690852 1.8058763e-38 323 268
0.0050986931 0.727 -0.035690852 1.8058044e-38 324 268
0.0063733663 0.727 -0.035690852 1.8242075e-38 325 268
0.0076480396 0.727 -0.035690852 1.805876e-38 326 268
0.0089227129 0.727 -0.035690852 1.805876e-38 327 268
0.010197386 0.727 -0.035690852 1.8058763e-38 328 268
0.01147206 0.727 -0.035690852 1.8058763e-38 329 268
0.012711667 0.72500002 -0.035592668 1.7966212e-38 330 268
0.01394426 0.72299999 -0.035494477 1.7966212e-38 331 268
0.015211919 0.72299999 -0.035494477 1.7966209e-38 332 268
0.016525166 0.72500002 -0.035592668 1.7966209e-38 333 268
0.017796334 0.72500002 -0.035592668 1.7966565e-38 334 268
0.0190675 0.72500002 -0.035592668 1.7966565e-38 335 268
0.020338668 0.72500002 -0.035592668 1.7966209e-38 336 268
0.021609833 0.72500002 -0.035592668 1.7874013e-38 337 268
0.02281788 0.72299999 -0.035494477 1.7966209e-38 338 268
0.024085538 0.72299999 -0.035494477 1.7966209e-38 339 268
0.025353199 0.72299999 -0.035494477 1.7874369e-38 340 268
0.026584039 0.722 -0.035445385 1.7966565e-38 341 268
0.027849946 0.722 -0.035445385 1.7966562e-38 342 268
0.029115854 0.722 -0.035445385 1.7874366e-38 343 268
0.030381758 0.722 -0.035445385 1.7874369e-38 344 268
0.031647664 0.722 -0.035445385 1.7966565e-38 345 268
0.032913569 0.722 -0.035445385 1.7966565e-38 346 268
0.034179479 0.722 -0.035445385 1.7874369e-38 347 268
0.035445385 0.722 -0.035445385 1.7874369e-38 348 268
0.03671129 0.722 -0.035445385 1.7874369e-38 349 268
0.0379772 0.722 -0.035445385 1.7783252e-38 350 268
0.039243106 0.722 -0.035445385 1.7690698e-38 351 268
0.040509012 0.722 -0.035445385 1.7966209e-38 352 268
0.041774917 0.722 -0.035445385 1.7966209e-38 353 268
0.043040827 0.722 -0.035445385 1.7966209e-38 354 268
0.044306733 0.722 -0.035445385 1.7874013e-38 355 268
0.045572639 0.722 -0.035445385 1.7966565e-38 356 268
0.046838548 0.722 -0.035445385 1.7966565e-38 357 268
0.0479712 0.72000003 -0.035347197 1.7874369e-38 358 268
0.0492336 0.72000003 -0.035347197 1.7966565e-38 359 268
0.050496001 0.72000003 -0.035347197 1.7965846e-38 360 268
0.051758397 0.72000003 -0.035347197 1.7965846e-38 361 268
0.053020801 0.72000003 -0.035347197 1.7965846e-38 362 268
0.054207806 0.71899998 -0.035298105 1.8058041e-38 363 268
0.055468451 0.71899998 -0.035298105 1.7966562e-38 364 268
0.056729097 0.71899998 -0.035298105 1.7966562e-38 365 268
0.057989739 0.71899998 -0.035298105 1.7966562e-38 366 268
0.059250388 0.71899998 -0.035298105 1.7966562e-38 367 268
0.060511041 0.71899998 -0.035298105 1.7966562e-38 368 268
0.061857603 0.72000003 -0.035347197 1.7874366e-38 369 268
0.06312 0.72000003 -0.035347197 1.7966209e-38 370 268
0.064561233 0.722 -0.035445385 1.8058763e-38 371 268
0.065827139 0.722 -0.035445385 1.6951337e-38 372 268
0.067371838 0.72500002 -0.035592668 1.6674751e-38 373 268
0.06883236 0.727 -0.035690852 1.6122284e-38 374 268
0.070107035 0.727 -0.035690852 1.5845697e-38 375 268
0.0669633 0.68199998 -0.03348165 1.5385069e-38 376 268
0.067359567 0.67400002 -0.033088908 1.5200678e-38 377 268
0.068541311 0.67400002 -0.033088908 1.5199959e-38 378 268
0.069826499 0.67500001 -0.033137999 1.5107762e-38 379 268
0.071115203 0.676 -0.033187091 1.501556e-38 380 268
0.072300449 0.676 -0.033187091 1.501556e-38 381 268
0.073703118 0.67799997 -0.033285279 1.4923721e-38 382 268
0.075002335 0.67900002 -0.033334374 1.4831166e-38 383 268
0.076192856 0.67900002 -0.033334374 1.4555661e-38 384 268
0.077497333 0.68000001 -0.033383466 1.4555661e-38 385 268
0.078689598 0.68000001 -0.033383466 1.446311e-38 386 268
0.080116808 0.68199998 -0.03348165 1.446311e-38 387 268
0.081312582 0.68199998 -0.03348165 1.4463113e-38 388 268
0.082508355 0.68199998 -0.03348165 1.4463113e-38 389 268
0.083704129 0.68199998 -0.03348165 1.455603e-38 390 268
0.085024394 0.68300003 -0.033530746 1.4648225e-38 391 268
0.086221918 0.68300003 -0.033530746 1.4742233e-38 392 268
0.087419443 0.68300003 -0.033530746 1.5480157e-38 393 268
0.088616975 0.68300003 -0.033530746 1.5295782e-38 394 268
-0.11243074 0.69700003 -0.035440128 1.5938988e-38 228 269
-0.11104912 0.69599998 -0.035389278 1.5569845e-38 229 269
-0.1093554 0.69300002 -0.035236739 1.5016306e-38 230 269
-0.10782824 0.69099998 -0.035135046 1.492411e-38 231 269
-0.10661669 0.69099998 -0.035135046 1.5107776e-38 232 269
-0.10525259 0.69 -0.035084199 1.5107776e-38 233 269
-0.1040428 0.69 -0.035084199 1.4925533e-38 234 269
-0.10238589 0.68699998 -0.034931656 1.4833337e-38 235 269
-0.10103408 0.68599999 -0.034880809 1.5016285e-38 236 269
-0.099540241 0.68400002 -0.03477912 1.4739699e-38 237 269
-0.098340958 0.68400002 -0.03477912 1.4739699e-38 238 269
-0.09685763 0.68199998 -0.034677424 1.4739699e-38 239 269
-0.095661856 0.68199998 -0.034677424 1.4739702e-38 240 269
-0.09446609 0.68199998 -0.034677424 1.4831898e-38 241 269
-0.092996798 0.68000001 -0.034575731 1.4740065e-38 242 269
-0.091669522 0.67900002 -0.034524884 1.4924817e-38 243 269
-0.090479009 0.67900002 -0.034524884 1.4924817e-38 244 269
-0.089288503 0.67900002 -0.034524884 1.4924817e-38 245 269
-0.094844811 0.73100001 -0.037168913 1.5201046e-38 246 269
-0.093563125 0.73100001 -0.037168913 1.5293242e-38 247 269
-0.092155196 0.73000002 -0.037118066 1.5479438e-38 248 269
-0.090875268 0.73000002 -0.037118066 1.6677622e-38 249 269
-0.089595333 0.73000002 -0.037118066 1.7228997e-38 250 269
-0.088315405 0.73000002 -0.037118066 1.7321192e-38 251 269
-0.087035462 0.73000002 -0.037118066 1.7321192e-38 252 269
-0.08552058 0.72799999 -0.037016369 1.7321192e-38 253 269
-0.084244154 0.72799999 -0.037016369 1.732083e-38 254 269
-0.082853764 0.727 -0.036965527 1.7413025e-38 255 269
-0.081579089 0.727 -0.036965527 1.7321548e-38 256 269
-0.080083504 0.72500002 -0.036863834 1.7321548e-38 257 269
-0.078812331 0.72500002 -0.036863834 1.7413741e-38 258 269
-0.077541165 0.72500002 -0.036863834 1.7413741e-38 259 269
-0.076059602 0.72299999 -0.036762137 1.7413741e-38 260 269
-0.074791931 0.72299999 -0.036762137 1.7413741e-38 261 269
-0.073727667 0.72500002 -0.036863834 1.7597056e-38 262 269
-0.072456501 0.72500002 -0.036863834 1.7689253e-38 263 269
-0.071185336 0.72500002 -0.036863834 1.7689256e-38 264 269
-0.069914162 0.72500002 -0.036863834 1.7597059e-38 265 269
-0.068643004 0.72500002 -0.036863834 1.7688536e-38 266 269
-0.067371838 0.72500002 -0.036863834 1.7780733e-38 267 269
-0.066100664 0.72500002 -0.036863834 1.7689256e-38 268 269
-0.064829499 0.72500002 -0.036863834 1.7597059e-38 269 269
-0.063558333 0.72500002 -0.036863834 1.7689256e-38 270 269
-0.062115334 0.72299999 -0.036762137 1.7689256e-38 271 269
-0.060595199 0.72000003 -0.036609601 1.7505944e-38 272 269
-0.059332799 0.72000003 -0.036609601 1.7505944e-38 273 269
-0.058070403 0.72000003 -0.036609601 1.7505944e-38 274 269
-0.056965802 0.722 -0.03671129 1.7505944e-38 275 269
-0.055699892 0.722 -0.03671129 1.7781452e-38 276 269
-0.054283202 0.72000003 -0.036609601 1.7781452e-38 277 269
-0.053020801 0.72000003 -0.036609601 1.7781452e-38 278 269
-0.051758397 0.72000003 -0.036609601 1.7781452e-38 279 269
-0.050496001 0.72000003 -0.036609601 1.759814e-38 280 269
-0.049438741 0.72299999 -0.036762137 1.759814e-38 281 269
-0.048104454 0.722 -0.03671129 1.759814e-38 282 269
-0.046838548 0.722 -0.03671129 1.7690335e-38 283 269
-0.04563576 0.72299999 -0.036762137 1.7690332e-38 284 269
-0.044368099 0.72299999 -0.036762137 1.7690332e-38 285 269
-0.043040827 0.722 -0.03671129 1.7690332e-38 286 269
-0.041774917 0.722 -0.03671129 1.7690332e-38 287 269
-0.040509012 0.722 -0.03671129 1.7874363e-38 288 269
-0.039243106 0.722 -0.03671129 1.7874363e-38 289 269
-0.0379772 0.722 -0.03671129 1.7690335e-38 290 269
-0.036609601 0.72000003 -0.036609601 1.7690335e-38 291 269
-0.035347197 0.72000003 -0.036609601 1.7874369e-38 292 269
-0.034084801 0.72000003 -0.036609601 1.7874369e-38 293 269
-0.0328224 0.72000003 -0.036609601 1.7874013e-38 294 269
-0.031647664 0.722 -0.03671129 1.7874013e-38 295 269
-0.030381758 0.722 -0.03671129 1.7874369e-38 296 269
-0.029115854 0.722 -0.03671129 1.7874369e-38 297 269
-0.02788852 0.72299999 -0.036762137 1.7874369e-38 298 269
-0.026620859 0.72299999 -0.036762137 1.7874369e-38 299 269
-0.025423333 0.72500002 -0.036863834 1.7965846e-38 300 269
-0.024085538 0.72299999 -0.036762137 1.7965846e-38 301 269
-0.022786319 0.722 -0.03671129 1.7965846e-38 302 269
-0.021520413 0.722 -0.03671129 1.7965846e-38 303 269
-0.020254506 0.722 -0.03671129 1.7966565e-38 304 269
-0.0189886 0.722 -0.03671129 1.7966565e-38 305 269
-0.017722692 0.722 -0.03671129 1.8058763e-38 306 269
-0.016456785 0.722 -0.03671129 1.8058763e-38 307 269
-0.015190879 0.722 -0.03671129 1.8058407e-38 308 269
-0.013924973 0.722 -0.03671129 1.8058407e-38 309 269
-0.012659066 0.722 -0.03671129 1.8058044e-38 310 269
-0.01139316 0.722 -0.03671129 1.8242075e-38 311 269
-0.01014128 0.72299999 -0.036762137 1.8242075e-38 312 269
-0.0088736191 0.72299999 -0.036762137 1.8242075e-38 313 269
-0.0076059597 0.72299999 -0.036762137 1.8242073e-38 314 269
-0.0063382997 0.72299999 -0.036762137 1.8242073e-38 315 269
-0.0050706398 0.72299999 -0.036762137 1.8058763e-38 316 269
-0.0038029798 0.72299999 -0.036762137 1.7966209e-38 317 269
-0.0025353199 0.72299999 -0.036762137 1.8241719e-38 318 269
-0.0012676599 0.72299999 -0.036762137 1.8241719e-38 319 269
0 0.72299999 -0.036762137 1.8058407e-38 320 269
0.0012676599 0.72299999 -0.036762137 1.7966212e-38 321 269
0.0025353199 0.72299999 -0.036762137 1.8057688e-38 322 269
0.0038135003 0.72500002 -0.036863834 1.8057688e-38 323 269
0.0050706398 0.72299999 -0.036762137 1.805876e-38 324 269
0.0063382997 0.72299999 -0.036762137 1.805876e-38 325 269
0.0076059597 0.72299999 -0.036762137 1.805876e-38 326 269
0.0088736191 0.72299999 -0.036762137 1.805876e-38 327 269
0.010169334 0.72500002 -0.036863834 1.7875448e-38 328 269
0.0114405 0.72500002 -0.036863834 1.7783252e-38 329 269
0.012676599 0.72299999 -0.036762137 1.7966209e-38 330 269
0.013924973 0.722 -0.03671129 1.7966209e-38 331 269
0.015190879 0.722 -0.03671129 1.7966565e-38 332 269
0.016456785 0.722 -0.03671129 1.7966565e-38 333 269
0.017747238 0.72299999 -0.036762137 1.7966565e-38 334 269
0.019014901 0.72299999 -0.036762137 1.7966565e-38 335 269
0.020254506 0.722 -0.03671129 1.7966565e-38 336 269
0.021520413 0.722 -0.03671129 1.7874369e-38 337 269
0.022786319 0.722 -0.03671129 1.7874013e-38 338 269
0.024052227 0.722 -0.03671129 1.7874013e-38 339 269
0.025248 0.72000003 -0.036609601 1.7966209e-38 340 269
0.026510401 0.72000003 -0.036609601 1.7874013e-38 341 269
0.027772799 0.72000003 -0.036609601 1.7874369e-38 342 269
0.029035201 0.72000003 -0.036609601 1.7874369e-38 343 269
0.0302976 0.72000003 -0.036609601 1.7873647e-38 344 269
0.03156 0.72000003 -0.036609601 1.7965843e-38 345 269
0.0328224 0.72000003 -0.036609601 1.7874366e-38 346 269
0.034084801 0.72000003 -0.036609601 1.7874366e-38 347 269
0.035347197 0.72000003 -0.036609601 1.7874366e-38 348 269
0.036609601 0.72000003 -0.036609601 1.7874366e-38 349 269
0.037871998 0.72000003 -0.036609601 1.7874369e-38 350 269
0.039134402 0.72000003 -0.036609601 1.7874369e-38 351 269
0.040396802 0.72000003 -0.036609601 1.7874013e-38 352 269
0.041659199 0.72000003 -0.036609601 1.7874013e-38 353 269
0.042921603 0.72000003 -0.036609601 1.7874369e-38 354 269
0.044183999 0.72000003 -0.036609601 1.7874369e-38 355 269
0.045383278 0.71899998 -0.036558751 1.7783252e-38 356 269
0.046643924 0.71899998 -0.036558751 1.7783252e-38 357 269
0.04790457 0.71899998 -0.036558751 1.7874369e-38 358 269
0.049165215 0.71899998 -0.036558751 1.7874369e-38 359 269
0.0502856 0.71700001 -0.036457058 1.7965846e-38 360 269
0.051542737 0.71700001 -0.036457058 1.7965846e-38 361 269
0.052799881 0.71700001 -0.036457058 1.7874369e-38 362 269
0.054057021 0.71700001 -0.036457058 1.7874369e-38 363 269
0.055314157 0.71700001 -0.036457058 1.7874369e-38 364 269
0.056571297 0.71700001 -0.036457058 1.7874369e-38 365 269
0.057828441 0.71700001 -0.036457058 1.7965846e-38 366 269
0.059085581 0.71700001 -0.036457058 1.7965846e-38 367 269
0.060342718 0.71700001 -0.036457058 1.7965846e-38 368 269
0.061771683 0.71899998 -0.036558751 1.7965846e-38 369 269
0.06312 0.72000003 -0.036609601 1.7874369e-38 370 269
0.064382397 0.72000003 -0.036609601 1.7597784e-38 371 269
0.065644801 0.72000003 -0.036609601 1.6675107e-38 372 269
0.067093052 0.722 -0.03671129 1.6490716e-38 373 269
0.06883236 0.727 -0.036965527 1.5938611e-38 374 269
0.064803198 0.67199999 -0.034168959 1.5385437e-38 375 269
0.06598144 0.67199999 -0.034168959 1.5200678e-38 376 269
0.067159683 0.67199999 -0.034168959 1.5108482e-38 377 269
0.068337917 0.67199999 -0.034168959 1.5291071e-38 378 269
0.069723055 0.67400002 -0.034270655 1.5198876e-38 379 269
0.070904799 0.67400002 -0.034270655 1.4832248e-38 380 269
0.07208655 0.67400002 -0.034270655 1.4832248e-38 381 269
0.073376998 0.67500001 -0.034321502 1.4923721e-38 382 269
0.074670963 0.676 -0.034372345 1.4831166e-38 383 269
0.075856209 0.676 -0.034372345 1.4555658e-38 384 269
0.077269398 0.67799997 -0.034474038 1.4463463e-38 385 269
0.078689598 0.68000001 -0.034575731 1.4463463e-38 386 269
0.079881869 0.68000001 -0.034575731 1.4463463e-38 387 269
0.081074134 0.68000001 -0.034575731 1.4463466e-38 388 269
0.082508355 0.68199998 -0.034677424 1.4463466e-38 389 269
0.083704129 0.68199998 -0.034677424 1.4648225e-38 390 269
0.084899902 0.68199998 -0.034677424 1.4832617e-38 391 269
0.086221918 0.68300003 -0.034728274 1.5019549e-38 392 269
-0.11057046 0.69300002 -0.036451802 1.5847155e-38 229 270
-0.1093554 0.69300002 -0.036451802 1.5660599e-38 230 270
-0.10782824 0.69099998 -0.036346599 1.5199621e-38 231 270
-0.1064624 0.69 -0.036293998 1.5107411e-38 232 270
-0.10494752 0.68800002 -0.0361888 1.538364e-38 233 270
-0.10359043 0.68699998 -0.036136195 1.492517e-38 234 270
-0.1019388 0.68400002 -0.035978399 1.492517e-38 235 270
-0.10059224 0.68300003 -0.035925802 1.4925167e-38 236 270
-0.099249184 0.68199998 -0.035873197 1.4740774e-38 237 270
-0.098053411 0.68199998 -0.035873197 1.4740418e-38 238 270
-0.096573599 0.68000001 -0.035767999 1.4648223e-38 239 270
-0.095381334 0.68000001 -0.035767999 1.4739702e-38 240 270
-0.094050556 0.67900002 -0.035715401 1.4739702e-38 241 270
-0.092860043 0.67900002 -0.035715401 1.4922661e-38 242 270
-0.09153451 0.67799997 -0.0356628 1.5107411e-38 243 270
-0.090345755 0.67799997 -0.0356628 1.4924817e-38 244 270
-0.089288503 0.67900002 -0.035715401 1.5201043e-38 245 270
-0.08809799 0.67900002 -0.035715401 1.5109929e-38 246 270
-0.093563125 0.73100001 -0.038450599 1.5294321e-38 247 270
-0.092155196 0.73000002 -0.038398001 1.5479438e-38 248 270
-0.090626292 0.72799999 -0.038292799 1.649323e-38 249 270
-0.089349858 0.72799999 -0.038292799 1.7044966e-38 250 270
-0.088073432 0.72799999 -0.038292799 1.7228997e-38 251 270
-0.086797006 0.72799999 -0.038292799 1.7320474e-38 252 270
-0.085403107 0.727 -0.038240198 1.7412669e-38 253 270
-0.084128432 0.727 -0.038240198 1.7413025e-38 254 270
-0.082625829 0.72500002 -0.038135 1.7413025e-38 255 270
-0.081130236 0.72299999 -0.038029801 1.7413022e-38 256 270
-0.079752117 0.722 -0.0379772 1.7413022e-38 257 270
-0.078486212 0.722 -0.0379772 1.7413022e-38 258 270
-0.077220306 0.722 -0.0379772 1.7597053e-38 259 270
-0.075743996 0.72000003 -0.037871998 1.7597053e-38 260 270
-0.074481606 0.72000003 -0.037871998 1.7597053e-38 261 270
-0.073422581 0.722 -0.0379772 1.7689253e-38 262 270
-0.072156675 0.722 -0.0379772 1.7689253e-38 263 270
-0.070890769 0.722 -0.0379772 1.7689253e-38 264 270
-0.069721296 0.72299999 -0.038029801 1.7689253e-38 265 270
-0.06845364 0.72299999 -0.038029801 1.7780733e-38 266 270
-0.067185976 0.72299999 -0.038029801 1.7780733e-38 267 270
-0.065827139 0.722 -0.0379772 1.7689256e-38 268 270
-0.064561233 0.722 -0.0379772 1.7689256e-38 269 270
-0.063032329 0.71899998 -0.037819397 1.7689253e-38 270 270
-0.061599858 0.71700001 -0.037714198 1.7689253e-38 271 270
-0.060342718 0.71700001 -0.037714198 1.7505941e-38 272 270
-0.059085581 0.71700001 -0.037714198 1.7505941e-38 273 270
-0.057828441 0.71700001 -0.037714198 1.7505941e-38 274 270
-0.056571297 0.71700001 -0.037714198 1.7505941e-38 275 270
-0.055468451 0.71899998 -0.037819397 1.7781449e-38 276 270
-0.054207806 0.71899998 -0.037819397 1.7781449e-38 277 270
-0.052799881 0.71700001 -0.037714198 1.7781449e-38 278 270
-0.051542737 0.71700001 -0.037714198 1.7781449e-38 279 270
-0.050425861 0.71899998 -0.037819397 1.7781449e-38 280 270
-0.049165215 0.71899998 -0.037819397 1.7781449e-38 281 270
-0.04790457 0.71899998 -0.037819397 1.7598137e-38 282 270
-0.0467088 0.72000003 -0.037871998 1.7690332e-38 283 270
-0.045446403 0.72000003 -0.037871998 1.7690332e-38 284 270
-0.044183999 0.72000003 -0.037871998 1.7690332e-38 285 270
-0.042921603 0.72000003 -0.037871998 1.7873647e-38 286 270
-0.041659199 0.72000003 -0.037871998 1.7873647e-38 287 270
-0.040396802 0.72000003 -0.037871998 1.7690335e-38 288 270
-0.039134402 0.72000003 -0.037871998 1.7690335e-38 289 270
-0.037871998 0.72000003 -0.037871998 1.7873645e-38 290 270
-0.036609601 0.72000003 -0.037871998 1.7873645e-38 291 270
-0.035298105 0.71899998 -0.037819397 1.7873647e-38 292 270
-0.03403746 0.71899998 -0.037819397 1.7873647e-38 293 270
-0.0328224 0.72000003 -0.037871998 1.787365e-38 294 270
-0.03156 0.72000003 -0.037871998 1.787365e-38 295 270
-0.0302976 0.72000003 -0.037871998 1.787365e-38 296 270
-0.029035201 0.72000003 -0.037871998 1.7965846e-38 297 270
-0.027734226 0.71899998 -0.037819397 1.787365e-38 298 270
-0.02647358 0.71899998 -0.037819397 1.7965846e-38 299 270
-0.025212931 0.71899998 -0.037819397 1.7690698e-38 300 270
-0.02388566 0.71700001 -0.037714198 1.7690698e-38 301 270
-0.02262852 0.71700001 -0.037714198 1.7965846e-38 302 270
-0.021430992 0.71899998 -0.037819397 1.8058041e-38 303 270
-0.020114239 0.71700001 -0.037714198 1.7783252e-38 304 270
-0.018857099 0.71700001 -0.037714198 1.7783252e-38 305 270
-0.017673599 0.72000003 -0.037871998 1.8058763e-38 306 270
-0.0164112 0.72000003 -0.037871998 1.8058763e-38 307 270
-0.0151488 0.72000003 -0.037871998 1.796549e-38 308 270
-0.0138864 0.72000003 -0.037871998 1.8242075e-38 309 270
-0.012624 0.72000003 -0.037871998 1.8058041e-38 310 270
-0.011361601 0.72000003 -0.037871998 1.8242073e-38 311 270
-0.010127253 0.722 -0.0379772 1.8242429e-38 312 270
-0.0088367993 0.72000003 -0.037871998 1.8242429e-38 313 270
-0.0075743999 0.72000003 -0.037871998 1.8242429e-38 314 270
-0.0063295332 0.722 -0.0379772 1.8242429e-38 315 270
-0.0050636264 0.722 -0.0379772 1.8242073e-38 316 270
-0.0037977197 0.722 -0.0379772 1.8058041e-38 317 270
-0.0025318132 0.722 -0.0379772 1.8058407e-38 318 270
-0.0012624001 0.72000003 -0.037871998 1.7966212e-38 319 270
0 0.72000003 -0.037871998 1.7966212e-38 320 270
0.0012624001 0.72000003 -0.037871998 1.7966212e-38 321 270
0.0025318132 0.722 -0.0379772 1.7966209e-38 322 270
0.0037872 0.72000003 -0.037871998 1.8058763e-38 323 270
0.0050496003 0.72000003 -0.037871998 1.8058763e-38 324 270
0.0063120001 0.72000003 -0.037871998 1.8058763e-38 325 270
0.0075743999 0.72000003 -0.037871998 1.805876e-38 326 270
0.0088367993 0.72000003 -0.037871998 1.7966565e-38 327 270
0.010127253 0.722 -0.0379772 1.7966209e-38 328 270
0.01139316 0.722 -0.0379772 1.7874013e-38 329 270
0.012659066 0.722 -0.0379772 1.7966209e-38 330 270
0.013924973 0.722 -0.0379772 1.7966209e-38 331 270
0.015190879 0.722 -0.0379772 1.7783252e-38 332 270
0.016456785 0.722 -0.0379772 1.7690698e-38 333 270
0.017722692 0.722 -0.0379772 1.7966565e-38 334 270
0.018935999 0.72000003 -0.037871998 1.7874369e-38 335 270
0.020198401 0.72000003 -0.037871998 1.7874369e-38 336 270
0.021460801 0.72000003 -0.037871998 1.7874369e-38 337 270
0.022691639 0.71899998 -0.037819397 1.7965846e-38 338 270
0.023952285 0.71899998 -0.037819397 1.7965846e-38 339 270
0.025212931 0.71899998 -0.037819397 1.7965846e-38 340 270
0.02639994 0.71700001 -0.037714198 1.7965846e-38 341 270
0.027657079 0.71700001 -0.037714198 1.7874369e-38 342 270
0.028914221 0.71700001 -0.037714198 1.7874369e-38 343 270
0.030255521 0.71899998 -0.037819397 1.7874369e-38 344 270
0.031428497 0.71700001 -0.037714198 1.7874369e-38 345 270
0.032685637 0.71700001 -0.037714198 1.7874366e-38 346 270
0.03403746 0.71899998 -0.037819397 1.7874366e-38 347 270
0.035298105 0.71899998 -0.037819397 1.787365e-38 348 270
0.036558751 0.71899998 -0.037819397 1.7965846e-38 349 270
0.037819397 0.71899998 -0.037819397 1.7966209e-38 350 270
0.038971342 0.71700001 -0.037714198 1.7874013e-38 351 270
0.040228479 0.71700001 -0.037714198 1.7874013e-38 352 270
0.041601337 0.71899998 -0.037819397 1.7874013e-38 353 270
0.042742759 0.71700001 -0.037714198 1.7874013e-38 354 270
0.043999899 0.71700001 -0.037714198 1.7874013e-38 355 270
0.045257039 0.71700001 -0.037714198 1.7783252e-38 356 270
0.046514176 0.71700001 -0.037714198 1.7690698e-38 357 270
0.04777132 0.71700001 -0.037714198 1.7874369e-38 358 270
0.04902846 0.71700001 -0.037714198 1.7874369e-38 359 270
0.050215468 0.71600002 -0.037661601 1.7966565e-38 360 270
0.051470853 0.71600002 -0.037661601 1.7966565e-38 361 270
0.052726239 0.71600002 -0.037661601 1.7966209e-38 362 270
0.053981625 0.71600002 -0.037661601 1.7874013e-38 363 270
0.055237014 0.71600002 -0.037661601 1.7874369e-38 364 270
0.056492399 0.71600002 -0.037661601 1.7874369e-38 365 270
0.057828441 0.71700001 -0.037714198 1.7965843e-38 366 270
0.059085581 0.71700001 -0.037714198 1.7965843e-38 367 270
0.060342718 0.71700001 -0.037714198 1.8058039e-38 368 270
0.061771683 0.71899998 -0.037819397 1.8058039e-38 369 270
0.063032329 0.71899998 -0.037819397 1.7780733e-38 370 270
0.064382397 0.72000003 -0.037871998 1.7135363e-38 371 270
0.065644801 0.72000003 -0.037871998 1.6121205e-38 372 270
0.067093052 0.722 -0.0379772 1.5660226e-38 373 270
0.063530281 0.671 -0.0352946 1.5476188e-38 374 270
0.064706765 0.671 -0.0352946 1.5383993e-38 375 270
0.065883249 0.671 -0.0352946 1.5199959e-38 376 270
0.06705974 0.671 -0.0352946 1.5015566e-38 377 270
0.068236224 0.671 -0.0352946 1.501556e-38 378 270
0.069412716 0.671 -0.0352946 1.4923365e-38 379 270
0.0705892 0.671 -0.0352946 1.5014842e-38 380 270
0.071872637 0.67199999 -0.035347197 1.5014842e-38 381 270
0.073268294 0.67400002 -0.035452399 1.4831169e-38 382 270
0.074450038 0.67400002 -0.035452399 1.4831169e-38 383 270
0.075743996 0.67500001 -0.035505001 1.4555661e-38 384 270
0.077041462 0.676 -0.035557602 1.4555661e-38 385 270
0.078573883 0.67900002 -0.035715401 1.4555661e-38 386 270
0.079881869 0.68000001 -0.035767999 1.4555661e-38 387 270
0.081074134 0.68000001 -0.035767999 1.4555305e-38 388 270
0.082266398 0.68000001 -0.035767999 1.4647501e-38 389 270
0.083458669 0.68000001 -0.035767999 1.4464923e-38 390 270
0.084650926 0.68000001 -0.035767999 1.474187e-38 391 270
0.085843198 0.68000001 -0.035767999 1.4926997e-38 392 270
-0.10903979 0.69099998 -0.03755815 1.5662047e-38 230 271
-0.10782824 0.69099998 -0.03755815 1.5201069e-38 231 271
-0.1064624 0.69 -0.037503798 1.5199255e-38 232 271
-0.10479497 0.68699998 -0.037340738 1.5199255e-38 233 271
-0.10343964 0.68599999 -0.037286382 1.5015932e-38 234 271
-0.10164072 0.68199998 -0.037068974 1.5108129e-38 235 271
-0.10044495 0.68199998 -0.037068974 1.4649302e-38 236 271
-0.098958135 0.68000001 -0.036960267 1.4649302e-38 237 271
-0.09776587 0.68000001 -0.036960267 1.4649302e-38 238 271
-0.096431576 0.67900002 -0.036905911 1.4557106e-38 239 271
-0.095241062 0.67900002 -0.036905911 1.4739702e-38 240 271
-0.093912028 0.67799997 -0.036851559 1.4739702e-38 241 271
-0.092723273 0.67799997 -0.036851559 1.4831898e-38 242 271
-0.091264501 0.676 -0.036742851 1.5108126e-38 243 271
-0.090079248 0.676 -0.036742851 1.5017365e-38 244 271
-0.088893995 0.676 -0.036742851 1.5385788e-38 245 271
-0.087708741 0.676 -0.036742851 1.5477989e-38 246 271
-0.093563125 0.73100001 -0.039732285 1.5662382e-38 247 271
-0.092155196 0.73000002 -0.039677933 1.5755309e-38 248 271
-0.090626292 0.72799999 -0.039569225 1.6216647e-38 249 271
-0.089227132 0.727 -0.039514873 1.6860584e-38 250 271
-0.087952457 0.727 -0.039514873 1.6953139e-38 251 271
-0.086677782 0.727 -0.039514873 1.7228644e-38 252 271
-0.085168168 0.72500002 -0.039406165 1.7228644e-38 253 271
-0.083897002 0.72500002 -0.039406165 1.7321546e-38 254 271
-0.082625829 0.72500002 -0.039406165 1.7321546e-38 255 271
-0.081130236 0.72299999 -0.039297458 1.7320827e-38 256 271
-0.079752117 0.722 -0.039243106 1.7320827e-38 257 271
-0.078268804 0.72000003 -0.039134402 1.7321548e-38 258 271
-0.076899439 0.71899998 -0.039080046 1.7321548e-38 259 271
-0.075428396 0.71700001 -0.038971342 1.7321548e-38 260 271
-0.07417126 0.71700001 -0.038971342 1.7413744e-38 261 271
-0.073219202 0.72000003 -0.039134402 1.7597056e-38 262 271
-0.071956798 0.72000003 -0.039134402 1.7597056e-38 263 271
-0.070694394 0.72000003 -0.039134402 1.7597059e-38 264 271
-0.069432005 0.72000003 -0.039134402 1.7597059e-38 265 271
-0.068358958 0.722 -0.039243106 1.768818e-38 266 271
-0.066907197 0.72000003 -0.039134402 1.768818e-38 267 271
-0.065644801 0.72000003 -0.039134402 1.7689256e-38 268 271
-0.064024724 0.71600002 -0.038916986 1.7689256e-38 269 271
-0.062769331 0.71600002 -0.038916986 1.7689253e-38 270 271
-0.061513945 0.71600002 -0.038916986 1.7689253e-38 271 271
-0.06025856 0.71600002 -0.038916986 1.7689609e-38 272 271
-0.059003171 0.71600002 -0.038916986 1.7689609e-38 273 271
-0.057747785 0.71600002 -0.038916986 1.7505941e-38 274 271
-0.056571297 0.71700001 -0.038971342 1.7505941e-38 275 271
-0.055314157 0.71700001 -0.038971342 1.7689256e-38 276 271
-0.054057021 0.71700001 -0.038971342 1.7689256e-38 277 271
-0.052799881 0.71700001 -0.038971342 1.7781452e-38 278 271
-0.051542737 0.71700001 -0.038971342 1.7781452e-38 279 271
-0.050425861 0.71899998 -0.039080046 1.7598137e-38 280 271
-0.04902846 0.71700001 -0.038971342 1.7598137e-38 281 271
-0.04777132 0.71700001 -0.038971342 1.759814e-38 282 271
-0.046514176 0.71700001 -0.038971342 1.7690335e-38 283 271
-0.045383278 0.71899998 -0.039080046 1.7690335e-38 284 271
-0.044122629 0.71899998 -0.039080046 1.7690335e-38 285 271
-0.042861983 0.71899998 -0.039080046 1.787365e-38 286 271
-0.041601337 0.71899998 -0.039080046 1.787365e-38 287 271
-0.040340692 0.71899998 -0.039080046 1.787365e-38 288 271
-0.039080046 0.71899998 -0.039080046 1.787365e-38 289 271
-0.037819397 0.71899998 -0.039080046 1.7781452e-38 290 271
-0.036558751 0.71899998 -0.039080046 1.7873647e-38 291 271
-0.035298105 0.71899998 -0.039080046 1.7781452e-38 292 271
-0.03403746 0.71899998 -0.039080046 1.7873647e-38 293 271
-0.032685637 0.71700001 -0.038971342 1.787365e-38 294 271
-0.031428497 0.71700001 -0.038971342 1.787365e-38 295 271
-0.030171359 0.71700001 -0.038971342 1.8056962e-38 296 271
-0.028914221 0.71700001 -0.038971342 1.8149158e-38 297 271
-0.027657079 0.71700001 -0.038971342 1.787365e-38 298 271
-0.026363119 0.71600002 -0.038916986 1.787365e-38 299 271
-0.025107734 0.71600002 -0.038916986 1.7874369e-38 300 271
-0.023852346 0.71600002 -0.038916986 1.7874369e-38 301 271
-0.022596961 0.71600002 -0.038916986 1.7874369e-38 302 271
-0.021341572 0.71600002 -0.038916986 1.7874369e-38 303 271
-0.020030079 0.71399999 -0.038808275 1.7966565e-38 304 271
-0.018778199 0.71399999 -0.038808275 1.7874369e-38 305 271
-0.017599959 0.71700001 -0.038971342 1.796549e-38 306 271
-0.016388407 0.71899998 -0.039080046 1.796549e-38 307 271
-0.01512776 0.71899998 -0.039080046 1.796549e-38 308 271
-0.013867113 0.71899998 -0.039080046 1.8058044e-38 309 271
-0.012606465 0.71899998 -0.039080046 1.7966565e-38 310 271
-0.01134582 0.71899998 -0.039080046 1.7966565e-38 311 271
-0.010099201 0.72000003 -0.039134402 1.7966562e-38 312 271
-0.0088245263 0.71899998 -0.039080046 1.7966562e-38 313 271
-0.0075638802 0.71899998 -0.039080046 1.8242073e-38 314 271
-0.0063032326 0.71899998 -0.039080046 1.8242073e-38 315 271
-0.0050496003 0.72000003 -0.039134402 1.8242075e-38 316 271
-0.0037872 0.72000003 -0.039134402 1.8058044e-38 317 271
-0.0025248001 0.72000003 -0.039134402 1.7966212e-38 318 271
-0.0012606466 0.71899998 -0.039080046 1.7966212e-38 319 271
0 0.71899998 -0.039080046 1.796549e-38 320 271
0.0012606466 0.71899998 -0.039080046 1.8058044e-38 321 271
0.0025212932 0.71899998 -0.039080046 1.7782897e-38 322 271
0.0037714199 0.71700001 -0.038971342 1.7875092e-38 323 271
0.0050285598 0.71700001 -0.038971342 1.7875092e-38 324 271
0.0062857 0.71700001 -0.038971342 1.7782897e-38 325 271
0.0075428397 0.71700001 -0.038971342 1.7966209e-38 326 271
0.0087999795 0.71700001 -0.038971342 1.7966209e-38 327 271
0.01005712 0.71700001 -0.038971342 1.796549e-38 328 271
0.01131426 0.71700001 -0.038971342 1.8058044e-38 329 271
0.0125714 0.71700001 -0.038971342 1.7874013e-38 330 271
0.013828539 0.71700001 -0.038971342 1.7966209e-38 331 271
0.015085679 0.71700001 -0.038971342 1.7690701e-38 332 271
