# .PCD v.7 - Point Cloud Data file format
FIELDS x y z rgb imX imY
SIZE 4 4 4 4 4 4
TYPE F F F F F F
COUNT 1 1 1 1 1 1
WIDTH 846
HEIGHT 1
VIEWPOINT 0 0 0 1 0 0 0
POINTS 846
DATA ascii
0.052529868 0.74900001 -0.014445714 1.8245336e-38 360 251
0.053699337 0.74699998 -0.014407139 1.8245336e-38 361 251
0.055009075 0.74699998 -0.014407139 1.8153138e-38 362 251
0.056318816 0.74699998 -0.014407139 1.7969105e-38 363 251
0.057551414 0.74599999 -0.014387853 1.8152418e-38 364 251
0.058543798 0.74199998 -0.014310705 1.8060222e-38 365 251
0.05984477 0.74199998 -0.014310705 1.7784717e-38 366 251
0.061145745 0.74199998 -0.014310705 1.7323739e-38 367 251
0.062446713 0.74199998 -0.014310705 1.7138991e-38 368 251
0.063060381 0.73400003 -0.014156413 1.6862405e-38 369 251
0.064347334 0.73400003 -0.014156413 1.6493978e-38 370 251
0.06563428 0.73400003 -0.014156413 1.6309228e-38 371 251
-0.083823353 0.74699998 -0.015716879 1.5933981e-38 256 252
-0.082513615 0.74699998 -0.015716879 1.7962285e-38 257 252
-0.081095167 0.74599999 -0.015695838 1.7784008e-38 258 252
-0.079787187 0.74599999 -0.015695838 1.7507421e-38 259 252
-0.078479193 0.74599999 -0.015695838 1.7507421e-38 260 252
-0.07727465 0.74699998 -0.015716879 1.7507421e-38 261 252
-0.07596492 0.74699998 -0.015716879 1.7323386e-38 262 252
-0.074655175 0.74699998 -0.015716879 1.7323386e-38 263 252
-0.073639996 0.75 -0.01578 1.7231906e-38 264 252
-0.072324999 0.75 -0.01578 1.7231906e-38 265 252
-0.071199358 0.75199997 -0.015822079 1.7048594e-38 266 252
-0.070066705 0.75400001 -0.01586416 1.7048594e-38 267 252
-0.068835862 0.755 -0.015885198 1.7048594e-38 268 252
-0.067512102 0.755 -0.015885198 1.7048594e-38 269 252
-0.06636367 0.75700003 -0.015927281 1.7048594e-38 270 252
-0.065380037 0.76099998 -0.016011439 1.7140791e-38 271 252
-0.064045757 0.76099998 -0.016011439 1.7324459e-38 272 252
-0.062793881 0.76200002 -0.01603248 1.7416655e-38 273 252
-0.061619148 0.764 -0.016074561 1.7416655e-38 274 252
-0.060437392 0.76599997 -0.016116638 1.7416655e-38 275 252
-0.059171494 0.76700002 -0.01613768 1.7416655e-38 276 252
-0.057977475 0.76899999 -0.016179759 1.750885e-38 277 252
-0.056629159 0.76899999 -0.016179759 1.7783998e-38 278 252
-0.055280842 0.76899999 -0.016179759 1.7783998e-38 279 252
-0.054072797 0.77100003 -0.016221842 1.7692162e-38 280 252
-0.052720979 0.77100003 -0.016221842 1.7692162e-38 281 252
-0.051502414 0.773 -0.016263919 1.7968029e-38 282 252
-0.050147086 0.773 -0.016263919 1.7968029e-38 283 252
-0.048791755 0.773 -0.016263919 1.7968029e-38 284 252
-0.047436431 0.773 -0.016263919 1.7783998e-38 285 252
-0.046140719 0.77399999 -0.016284959 1.7968026e-38 286 252
-0.044783637 0.77399999 -0.016284959 1.8060222e-38 287 252
-0.043426558 0.77399999 -0.016284959 1.8059503e-38 288 252
-0.042069476 0.77399999 -0.016284959 1.8059503e-38 289 252
-0.040922798 0.778 -0.016369121 1.7876912e-38 290 252
-0.039558705 0.778 -0.016369121 1.7876912e-38 291 252
-0.038194612 0.778 -0.016369121 1.8060225e-38 292 252
-0.036925197 0.77999997 -0.016411198 1.7968029e-38 293 252
-0.035466425 0.778 -0.016369121 1.8060225e-38 294 252
-0.034102332 0.778 -0.016369121 1.8060225e-38 295 252
-0.032738242 0.778 -0.016369121 1.8060578e-38 296 252
-0.031293493 0.77600002 -0.01632704 1.8152773e-38 297 252
-0.029932907 0.77600002 -0.01632704 1.8152773e-38 298 252
-0.028498679 0.77399999 -0.016284959 1.8152773e-38 299 252
-0.027141599 0.77399999 -0.016284959 1.8152773e-38 300 252
-0.025751207 0.773 -0.016263919 1.8152773e-38 301 252
-0.02433276 0.77100003 -0.016221842 1.8152418e-38 302 252
-0.02298094 0.77100003 -0.016221842 1.8152418e-38 303 252
-0.021629119 0.77100003 -0.016221842 1.8152418e-38 304 252
-0.020277301 0.77100003 -0.016221842 1.8152418e-38 305 252
-0.018925481 0.77100003 -0.016221842 1.8152418e-38 306 252
-0.017528072 0.76899999 -0.016179759 1.8152418e-38 307 252
-0.016179759 0.76899999 -0.016179759 1.8060222e-38 308 252
-0.01487002 0.77100003 -0.016221842 1.8060222e-38 309 252
-0.013518199 0.77100003 -0.016221842 1.8060222e-38 310 252
-0.01216638 0.77100003 -0.016221842 1.8060222e-38 311 252
-0.010842613 0.773 -0.016263919 1.787691e-38 312 252
-0.0094872871 0.773 -0.016263919 1.787691e-38 313 252
-0.0081319595 0.773 -0.016263919 1.787691e-38 314 252
-0.0067853997 0.77399999 -0.016284959 1.787691e-38 315 252
-0.0054283198 0.77399999 -0.016284959 1.8060222e-38 316 252
-0.0040712398 0.77399999 -0.016284959 1.8060222e-38 317 252
-0.0027141599 0.77399999 -0.016284959 1.815242e-38 318 252
-0.0013553266 0.773 -0.016263919 1.8060225e-38 319 252
0 0.773 -0.016263919 1.8060225e-38 320 252
0.0013570799 0.77399999 -0.016284959 1.815242e-38 321 252
0.0027106532 0.773 -0.016263919 1.8060225e-38 322 252
0.0040659797 0.773 -0.016263919 1.8060225e-38 323 252
0.0054072798 0.77100003 -0.016221842 1.8060225e-38 324 252
0.0067590997 0.77100003 -0.016221842 1.8060225e-38 325 252
0.0081109209 0.77100003 -0.016221842 1.787691e-38 326 252
0.0094627403 0.77100003 -0.016221842 1.7969105e-38 327 252
0.010786506 0.76899999 -0.016179759 1.8060222e-38 328 252
0.012134819 0.76899999 -0.016179759 1.8060222e-38 329 252
0.013483133 0.76899999 -0.016179759 1.8060222e-38 330 252
0.014831445 0.76899999 -0.016179759 1.8060222e-38 331 252
0.016221842 0.77100003 -0.016221842 1.8060222e-38 332 252
0.01757366 0.77100003 -0.016221842 1.8060222e-38 333 252
0.018925481 0.77100003 -0.016221842 1.787691e-38 334 252
0.0202247 0.76899999 -0.016179759 1.787691e-38 335 252
0.021573013 0.76899999 -0.016179759 1.7969461e-38 336 252
0.02298094 0.77100003 -0.016221842 1.8153494e-38 337 252
0.02433276 0.77100003 -0.016221842 1.7969461e-38 338 252
0.02568458 0.77100003 -0.016221842 1.8153494e-38 339 252
0.027036399 0.77100003 -0.016221842 1.7969461e-38 340 252
0.028314579 0.76899999 -0.016179759 1.8153494e-38 341 252
0.02966289 0.76899999 -0.016179759 1.824497e-38 342 252
0.031011207 0.76899999 -0.016179759 1.824497e-38 343 252
0.03227536 0.76700002 -0.01613768 1.8337169e-38 344 252
0.033620168 0.76700002 -0.01613768 1.8337169e-38 345 252
0.034919381 0.76599997 -0.016116638 1.8337169e-38 346 252
0.036262438 0.76599997 -0.016116638 1.8337169e-38 347 252
0.037507307 0.764 -0.016074561 1.8337169e-38 348 252
0.038846854 0.764 -0.016074561 1.8337169e-38 349 252
0.040081199 0.76200002 -0.01603248 1.8336813e-38 350 252
0.041417241 0.76200002 -0.01603248 1.8429367e-38 351 252
0.042697169 0.76099998 -0.016011439 1.8337535e-38 352 252
0.043915741 0.759 -0.015969358 1.8337535e-38 353 252
0.045127295 0.75700003 -0.015927281 1.8153866e-38 354 252
0.046454567 0.75700003 -0.015927281 1.8153866e-38 355 252
0.047655597 0.755 -0.015885198 1.8153866e-38 356 252
0.048784744 0.75199997 -0.015822079 1.8153866e-38 357 252
0.049969997 0.75 -0.01578 1.8337537e-38 358 252
0.051216617 0.74900001 -0.01575896 1.8337537e-38 359 252
0.052389596 0.74699998 -0.015716879 1.8153143e-38 360 252
0.053627454 0.74599999 -0.015695838 1.8153143e-38 361 252
0.054935437 0.74599999 -0.015695838 1.7969828e-38 362 252
0.056092639 0.74400002 -0.015653761 1.7969828e-38 363 252
0.057242822 0.74199998 -0.015611678 1.8152418e-38 364 252
0.0584649 0.741 -0.01559064 1.8152418e-38 365 252
0.059602812 0.73900002 -0.01554856 1.8060578e-38 366 252
0.060816113 0.73799998 -0.015527519 1.7691797e-38 367 252
0.061941758 0.736 -0.015485439 1.7507404e-38 368 252
0.063060381 0.73400003 -0.01544336 1.7230458e-38 369 252
0.064347334 0.73400003 -0.01544336 1.658724e-38 370 252
0.06563428 0.73400003 -0.01544336 1.6495044e-38 371 252
0.066921227 0.73400003 -0.01544336 1.6219536e-38 372 252
-0.084791198 0.74400002 -0.016958239 1.6205147e-38 255 253
-0.083486721 0.74400002 -0.016958239 1.7227221e-38 256 253
-0.082182243 0.74400002 -0.016958239 1.8333569e-38 257 253
-0.080660343 0.74199998 -0.016912652 1.7508497e-38 258 253
-0.079359367 0.74199998 -0.016912652 1.7324106e-38 259 253
-0.078268796 0.74400002 -0.016958239 1.723119e-38 260 253
-0.076964319 0.74400002 -0.016958239 1.7323386e-38 261 253
-0.07586322 0.74599999 -0.017003827 1.7231906e-38 262 253
-0.074555233 0.74599999 -0.017003827 1.7231906e-38 263 253
-0.073345438 0.74699998 -0.017026618 1.7231906e-38 264 253
-0.072228566 0.74900001 -0.017072206 1.713971e-38 265 253
-0.071199358 0.75199997 -0.017140586 1.6956398e-38 266 253
-0.069880851 0.75199997 -0.017140586 1.7048594e-38 267 253
-0.068744689 0.75400001 -0.017186172 1.713971e-38 268 253
-0.067422673 0.75400001 -0.017186172 1.713971e-38 269 253
-0.066188328 0.755 -0.017208965 1.7231906e-38 270 253
-0.065208219 0.759 -0.017300138 1.7324462e-38 271 253
-0.064045757 0.76099998 -0.017345725 1.7416657e-38 272 253
-0.06271147 0.76099998 -0.017345725 1.7416657e-38 273 253
-0.061457843 0.76200002 -0.01736852 1.7416657e-38 274 253
-0.0602796 0.764 -0.017414106 1.7416657e-38 275 253
-0.058940053 0.764 -0.017414106 1.7416655e-38 276 253
-0.057751291 0.76599997 -0.017459691 1.7416655e-38 277 253
-0.056408234 0.76599997 -0.017459691 1.7783998e-38 278 253
-0.055137072 0.76700002 -0.017482487 1.7783998e-38 279 253
-0.053932533 0.76899999 -0.017528072 1.7783998e-38 280 253
-0.052584216 0.76899999 -0.017528072 1.7783998e-38 281 253
-0.051235907 0.76899999 -0.017528072 1.7783995e-38 282 253
-0.050017338 0.77100003 -0.01757366 1.7783995e-38 283 253
-0.04866552 0.77100003 -0.01757366 1.7967307e-38 284 253
-0.047313701 0.77100003 -0.01757366 1.7967307e-38 285 253
-0.045961879 0.77100003 -0.01757366 1.7968382e-38 286 253
-0.044494338 0.76899999 -0.017528072 1.7968382e-38 287 253
-0.043146025 0.76899999 -0.017528072 1.7968382e-38 288 253
-0.041797712 0.76899999 -0.017528072 1.7968382e-38 289 253
-0.0404494 0.76899999 -0.017528072 1.7968382e-38 290 253
-0.039101087 0.76899999 -0.017528072 1.8060578e-38 291 253
-0.037850961 0.77100003 -0.01757366 1.8243171e-38 292 253
-0.036499143 0.77100003 -0.01757366 1.8335367e-38 293 253
-0.035238493 0.773 -0.017619247 1.8059503e-38 294 253
-0.033883166 0.773 -0.017619247 1.8152057e-38 295 253
-0.032569919 0.77399999 -0.01764204 1.8060222e-38 296 253
-0.031091858 0.77100003 -0.01757366 1.8060222e-38 297 253
-0.02966289 0.76899999 -0.017528072 1.8060578e-38 298 253
-0.028314579 0.76899999 -0.017528072 1.8060578e-38 299 253
-0.026966266 0.76899999 -0.017528072 1.8336083e-38 300 253
-0.025617953 0.76899999 -0.017528072 1.8336083e-38 301 253
-0.024269639 0.76899999 -0.017528072 1.8152773e-38 302 253
-0.022921326 0.76899999 -0.017528072 1.8152773e-38 303 253
-0.021573013 0.76899999 -0.017528072 1.8152418e-38 304 253
-0.0202247 0.76899999 -0.017528072 1.8152418e-38 305 253
-0.018876385 0.76899999 -0.017528072 1.8152418e-38 306 253
-0.017482487 0.76700002 -0.017482487 1.8152418e-38 307 253
-0.01613768 0.76700002 -0.017482487 1.8152418e-38 308 253
-0.014792874 0.76700002 -0.017482487 1.8060222e-38 309 253
-0.013448066 0.76700002 -0.017482487 1.7968382e-38 310 253
-0.012134819 0.76899999 -0.017528072 1.8060578e-38 311 253
-0.010786506 0.76899999 -0.017528072 1.8060222e-38 312 253
-0.0094381925 0.76899999 -0.017528072 1.8060222e-38 313 253
-0.0081109209 0.77100003 -0.01757366 1.7968029e-38 314 253
-0.0067766332 0.773 -0.017619247 1.8060225e-38 315 253
-0.0054213065 0.773 -0.017619247 1.8060225e-38 316 253
-0.0040659797 0.773 -0.017619247 1.8060225e-38 317 253
-0.0027106532 0.773 -0.017619247 1.8060222e-38 318 253
-0.00135182 0.77100003 -0.01757366 1.8060222e-38 319 253
0 0.77100003 -0.01757366 1.8060225e-38 320 253
0.00135182 0.77100003 -0.01757366 1.8060225e-38 321 253
0.0027036399 0.77100003 -0.01757366 1.8060222e-38 322 253
0.0040449398 0.76899999 -0.017528072 1.8060222e-38 323 253
0.0053792265 0.76700002 -0.017482487 1.7968026e-38 324 253
0.006724033 0.76700002 -0.017482487 1.7968026e-38 325 253
0.00806884 0.76700002 -0.017482487 1.8060222e-38 326 253
0.0094136465 0.76700002 -0.017482487 1.8060222e-38 327 253
0.010758453 0.76700002 -0.017482487 1.8060222e-38 328 253
0.01210326 0.76700002 -0.017482487 1.8060222e-38 329 253
0.013448066 0.76700002 -0.017482487 1.8060222e-38 330 253
0.014792874 0.76700002 -0.017482487 1.8060222e-38 331 253
0.01613768 0.76700002 -0.017482487 1.787691e-38 332 253
0.017459691 0.76599997 -0.017459691 1.787691e-38 333 253
0.018802745 0.76599997 -0.017459691 1.8060222e-38 334 253
0.020172099 0.76700002 -0.017482487 1.7968026e-38 335 253
0.021516906 0.76700002 -0.017482487 1.8060578e-38 336 253
0.022861714 0.76700002 -0.017482487 1.8060578e-38 337 253
0.024206521 0.76700002 -0.017482487 1.8152773e-38 338 253
0.025551327 0.76700002 -0.017482487 1.8152773e-38 339 253
0.026896132 0.76700002 -0.017482487 1.8152773e-38 340 253
0.02824094 0.76700002 -0.017482487 1.8152773e-38 341 253
0.029585747 0.76700002 -0.017482487 1.8152773e-38 342 253
0.030890226 0.76599997 -0.017459691 1.8152773e-38 343 253
0.032233275 0.76599997 -0.017459691 1.8428283e-38 344 253
0.033576332 0.76599997 -0.017459691 1.8520478e-38 345 253
0.034828212 0.764 -0.017414106 1.8520478e-38 346 253
0.036073081 0.76200002 -0.01736852 1.8520478e-38 347 253
0.037409119 0.76200002 -0.01736852 1.8520481e-38 348 253
0.038745161 0.76200002 -0.01736852 1.8520481e-38 349 253
0.040028598 0.76099998 -0.017345725 1.8429365e-38 350 253
0.041362885 0.76099998 -0.017345725 1.8337169e-38 351 253
0.042584959 0.759 -0.017300138 1.8337532e-38 352 253
0.043800019 0.75700003 -0.017254554 1.8337532e-38 353 253
0.045127295 0.75700003 -0.017254554 1.8154222e-38 354 253
0.04614773 0.75199997 -0.017140586 1.8154222e-38 355 253
0.047466237 0.75199997 -0.017140586 1.8153866e-38 356 253
0.048655 0.75 -0.017095 1.8153866e-38 357 253
0.049969997 0.75 -0.017095 1.8153866e-38 358 253
0.051216617 0.74900001 -0.017072206 1.8061671e-38 359 253
0.052389596 0.74699998 -0.017026618 1.8154222e-38 360 253
0.053627454 0.74599999 -0.017003827 1.7969472e-38 361 253
0.054935437 0.74599999 -0.017003827 1.7969472e-38 362 253
0.056092639 0.74400002 -0.016958239 1.7877275e-38 363 253
0.057242822 0.74199998 -0.016912652 1.815242e-38 364 253
0.0583071 0.73900002 -0.016844273 1.815242e-38 365 253
0.059522156 0.73799998 -0.016821479 1.7876912e-38 366 253
0.060651302 0.736 -0.016775893 1.7692162e-38 367 253
0.061941758 0.736 -0.016775893 1.704895e-38 368 253
0.063060381 0.73400003 -0.016730307 1.6772004e-38 369 253
0.064347334 0.73400003 -0.016730307 1.64043e-38 370 253
0.06563428 0.73400003 -0.016730307 1.6127714e-38 371 253
0.066921227 0.73400003 -0.016730307 1.6310663e-38 372 253
0.068208173 0.73400003 -0.016730307 1.6218467e-38 373 253
-0.084563263 0.74199998 -0.018213626 1.6023268e-38 255 254
-0.083262287 0.74199998 -0.018213626 1.7690348e-38 256 254
-0.081961311 0.74199998 -0.018213626 1.8151326e-38 257 254
-0.080551639 0.741 -0.018189078 1.759997e-38 258 254
-0.079252414 0.741 -0.018189078 1.7323741e-38 259 254
-0.077953197 0.741 -0.018189078 1.7323741e-38 260 254
-0.076757424 0.74199998 -0.018213626 1.7231187e-38 261 254
-0.075456448 0.74199998 -0.018213626 1.7231906e-38 262 254
-0.074355356 0.74400002 -0.01826272 1.713971e-38 263 254
-0.073247254 0.74599999 -0.018311813 1.7139713e-38 264 254
-0.07193926 0.74599999 -0.018311813 1.6955682e-38 265 254
-0.070915319 0.74900001 -0.018385453 1.6956401e-38 266 254
-0.069694996 0.75 -0.018409999 1.6956401e-38 267 254
-0.068379998 0.75 -0.018409999 1.6956401e-38 268 254
-0.067243837 0.75199997 -0.018459093 1.6956401e-38 269 254
-0.06592533 0.75199997 -0.018459093 1.7231906e-38 270 254
-0.064778648 0.75400001 -0.018508185 1.7324462e-38 271 254
-0.063540794 0.755 -0.018532733 1.7324462e-38 272 254
-0.062546656 0.759 -0.01863092 1.7324462e-38 273 254
-0.061377186 0.76099998 -0.018680012 1.7416657e-38 274 254
-0.060042895 0.76099998 -0.018680012 1.7416657e-38 275 254
-0.058785759 0.76200002 -0.01870456 1.7416655e-38 276 254
-0.057600506 0.764 -0.018753653 1.7416655e-38 277 254
-0.056260962 0.764 -0.018753653 1.7691444e-38 278 254
-0.055065181 0.76599997 -0.018802745 1.7783998e-38 279 254
-0.053722132 0.76599997 -0.018802745 1.7875115e-38 280 254
-0.052447457 0.76700002 -0.018827293 1.7875115e-38 281 254
-0.051102653 0.76700002 -0.018827293 1.7783998e-38 282 254
-0.04988759 0.76899999 -0.018876385 1.7783998e-38 283 254
-0.048539277 0.76899999 -0.018876385 1.7967307e-38 284 254
-0.047068235 0.76700002 -0.018827293 1.7967307e-38 285 254
-0.045723427 0.76700002 -0.018827293 1.7783992e-38 286 254
-0.04437862 0.76700002 -0.018827293 1.7783992e-38 287 254
-0.042977702 0.76599997 -0.018802745 1.7968026e-38 288 254
-0.041634649 0.76599997 -0.018802745 1.7783995e-38 289 254
-0.040291596 0.76599997 -0.018802745 1.7968026e-38 290 254
-0.038948543 0.76599997 -0.018802745 1.7968026e-38 291 254
-0.037605491 0.76599997 -0.018802745 1.8059503e-38 292 254
-0.036262438 0.76599997 -0.018802745 1.8152057e-38 293 254
-0.034737039 0.76200002 -0.01870456 1.8060222e-38 294 254
-0.033401001 0.76200002 -0.01870456 1.8060222e-38 295 254
-0.032233275 0.76599997 -0.018802745 1.8060222e-38 296 254
-0.030890226 0.76599997 -0.018802745 1.8060222e-38 297 254
-0.029547172 0.76599997 -0.018802745 1.8060578e-38 298 254
-0.028204117 0.76599997 -0.018802745 1.8060578e-38 299 254
-0.026861066 0.76599997 -0.018802745 1.8060578e-38 300 254
-0.025551327 0.76700002 -0.018827293 1.8152773e-38 301 254
-0.024206521 0.76700002 -0.018827293 1.8152055e-38 302 254
-0.022861714 0.76700002 -0.018827293 1.8336086e-38 303 254
-0.021488851 0.76599997 -0.018802745 1.8060222e-38 304 254
-0.020145798 0.76599997 -0.018802745 1.8152418e-38 305 254
-0.018802745 0.76599997 -0.018802745 1.8060222e-38 306 254
-0.017459691 0.76599997 -0.018802745 1.8152418e-38 307 254
-0.016116638 0.76599997 -0.018802745 1.8060222e-38 308 254
-0.014773586 0.76599997 -0.018802745 1.8060222e-38 309 254
-0.013430533 0.76599997 -0.018802745 1.8060222e-38 310 254
-0.012087479 0.76599997 -0.018802745 1.8060222e-38 311 254
-0.010758453 0.76700002 -0.018827293 1.8060225e-38 312 254
-0.0094136465 0.76700002 -0.018827293 1.8060225e-38 313 254
-0.00806884 0.76700002 -0.018827293 1.8060225e-38 314 254
-0.0067415666 0.76899999 -0.018876385 1.7968029e-38 315 254
-0.0053932532 0.76899999 -0.018876385 1.7968029e-38 316 254
-0.00403442 0.76700002 -0.018827293 1.7968029e-38 317 254
-0.0026896133 0.76700002 -0.018827293 1.7784717e-38 318 254
-0.0013430532 0.76599997 -0.018802745 1.7784717e-38 319 254
0 0.76599997 -0.018802745 1.7784717e-38 320 254
0.00133604 0.76200002 -0.01870456 1.7784717e-38 321 254
0.00267208 0.76200002 -0.01870456 1.7784717e-38 322 254
0.0040291594 0.76599997 -0.018802745 1.7784717e-38 323 254
0.0053722127 0.76599997 -0.018802745 1.7784717e-38 324 254
0.0067152665 0.76599997 -0.018802745 1.7784717e-38 325 254
0.0080583189 0.76599997 -0.018802745 1.7876912e-38 326 254
0.0094013726 0.76599997 -0.018802745 1.7876912e-38 327 254
0.010744425 0.76599997 -0.018802745 1.7968029e-38 328 254
0.012087479 0.76599997 -0.018802745 1.8060225e-38 329 254
0.013430533 0.76599997 -0.018802745 1.8060225e-38 330 254
0.014773586 0.76599997 -0.018802745 1.8060225e-38 331 254
0.016074561 0.764 -0.018753653 1.7876912e-38 332 254
0.01736852 0.76200002 -0.01870456 1.7784717e-38 333 254
0.018680012 0.76099998 -0.018680012 1.7784714e-38 334 254
0.020014299 0.76099998 -0.018680012 1.7784714e-38 335 254
0.02137664 0.76200002 -0.01870456 1.8060222e-38 336 254
0.022772292 0.764 -0.018753653 1.8060222e-38 337 254
0.024111839 0.764 -0.018753653 1.787691e-38 338 254
0.025451386 0.764 -0.018753653 1.787691e-38 339 254
0.026790932 0.764 -0.018753653 1.787691e-38 340 254
0.028130481 0.764 -0.018753653 1.7969105e-38 341 254
0.029547172 0.76599997 -0.018802745 1.8152418e-38 342 254
0.030809574 0.764 -0.018753653 1.8152418e-38 343 254
0.032149121 0.764 -0.018753653 1.815242e-38 344 254
0.033401001 0.76200002 -0.01870456 1.8244617e-38 345 254
0.034737039 0.76200002 -0.01870456 1.8244617e-38 346 254
0.036025736 0.76099998 -0.018680012 1.8244617e-38 347 254
0.037360024 0.76099998 -0.018680012 1.8336813e-38 348 254
0.038694311 0.76099998 -0.018680012 1.8336813e-38 349 254
0.0399234 0.759 -0.01863092 1.8336813e-38 350 254
0.041254178 0.759 -0.01863092 1.8336813e-38 351 254
0.042472746 0.75700003 -0.018581826 1.8337532e-38 352 254
0.043684296 0.755 -0.018532733 1.8337532e-38 353 254
0.044829223 0.75199997 -0.018459093 1.8337535e-38 354 254
0.046024997 0.75 -0.018409999 1.8337535e-38 355 254
0.047339998 0.75 -0.018409999 1.8337537e-38 356 254
0.048655 0.75 -0.018409999 1.8337537e-38 357 254
0.04990337 0.74900001 -0.018385453 1.806239e-38 358 254
0.051079858 0.74699998 -0.018336359 1.7970194e-38 359 254
0.052319467 0.74599999 -0.018311813 1.7969472e-38 360 254
0.053627454 0.74599999 -0.018311813 1.7969472e-38 361 254
0.054935437 0.74599999 -0.018311813 1.7969828e-38 362 254
0.056243423 0.74599999 -0.018311813 1.7877631e-38 363 254
0.057011388 0.73900002 -0.018139986 1.7876912e-38 364 254
0.058070395 0.736 -0.018066347 1.7876912e-38 365 254
0.059360851 0.736 -0.018066347 1.8060222e-38 366 254
0.060486492 0.73400003 -0.018017253 1.7783995e-38 367 254
0.061773442 0.73400003 -0.018017253 1.7507051e-38 368 254
0.062974468 0.73299998 -0.017992707 1.732266e-38 369 254
0.064259663 0.73299998 -0.017992707 1.6862405e-38 370 254
0.065544859 0.73299998 -0.017992707 1.6493622e-38 371 254
0.066830046 0.73299998 -0.017992707 1.6218111e-38 372 254
0.068115242 0.73299998 -0.017992707 1.6218111e-38 373 254
0.068927035 0.72799999 -0.017869972 1.6125916e-38 374 254
-0.084449299 0.741 -0.019488299 1.6861319e-38 255 255
-0.083150074 0.741 -0.019488299 1.7599604e-38 256 255
-0.081629939 0.73900002 -0.0194357 1.7691799e-38 257 255
-0.080334224 0.73900002 -0.0194357 1.7324462e-38 258 255
-0.079038516 0.73900002 -0.0194357 1.7324462e-38 259 255
-0.0777428 0.73900002 -0.0194357 1.7231187e-38 260 255
-0.076447085 0.73900002 -0.0194357 1.7323741e-38 261 255
-0.075354755 0.741 -0.019488299 1.7231187e-38 262 255
-0.074155472 0.74199998 -0.0195146 1.7138991e-38 263 255
-0.073050879 0.74400002 -0.019567199 1.7138991e-38 264 255
-0.07193926 0.74599999 -0.019619798 1.7138991e-38 265 255
-0.070725955 0.74699998 -0.019646099 1.6955682e-38 266 255
-0.069602072 0.74900001 -0.0196987 1.7139713e-38 267 255
-0.068288825 0.74900001 -0.0196987 1.7139713e-38 268 255
-0.067065001 0.75 -0.019724999 1.7231909e-38 269 255
-0.065749995 0.75 -0.019724999 1.7324462e-38 270 255
-0.064606823 0.75199997 -0.0197776 1.7324462e-38 271 255
-0.06345664 0.75400001 -0.019830201 1.7324462e-38 272 255
-0.062217031 0.755 -0.0198565 1.7231906e-38 273 255
-0.061215881 0.759 -0.0199617 1.7324462e-38 274 255
-0.059885096 0.759 -0.0199617 1.7324462e-38 275 255
-0.058708608 0.76099998 -0.020014299 1.7416655e-38 276 255
-0.057374325 0.76099998 -0.020014299 1.7416655e-38 277 255
-0.056113683 0.76200002 -0.0200406 1.7875112e-38 278 255
-0.054921411 0.764 -0.020093199 1.7967307e-38 279 255
-0.053581864 0.764 -0.020093199 1.7783992e-38 280 255
-0.052242316 0.764 -0.020093199 1.7691797e-38 281 255
-0.051036026 0.76599997 -0.020145798 1.7967663e-38 282 255
-0.04969297 0.76599997 -0.020145798 1.7967663e-38 283 255
-0.048349917 0.76599997 -0.020145798 1.7967661e-38 284 255
-0.047006864 0.76599997 -0.020145798 1.7967661e-38 285 255
-0.045663811 0.76599997 -0.020145798 1.7967661e-38 286 255
-0.044320758 0.76599997 -0.020145798 1.7967661e-38 287 255
-0.042865492 0.764 -0.020093199 1.7968379e-38 288 255
-0.041525945 0.764 -0.020093199 1.7968379e-38 289 255
-0.040186398 0.764 -0.020093199 1.7784348e-38 290 255
-0.038846854 0.764 -0.020093199 1.7968379e-38 291 255
-0.037409119 0.76200002 -0.0200406 1.8059859e-38 292 255
-0.036025736 0.76099998 -0.020014299 1.8059859e-38 293 255
-0.034691449 0.76099998 -0.020014299 1.8059503e-38 294 255
-0.033357166 0.76099998 -0.020014299 1.8152057e-38 295 255
-0.032149121 0.764 -0.020093199 1.8059503e-38 296 255
-0.030809574 0.764 -0.020093199 1.8152057e-38 297 255
-0.029392879 0.76200002 -0.0200406 1.8060578e-38 298 255
-0.028056841 0.76200002 -0.0200406 1.8060578e-38 299 255
-0.0267208 0.76200002 -0.0200406 1.8060575e-38 300 255
-0.025451386 0.764 -0.020093199 1.8152771e-38 301 255
-0.024174958 0.76599997 -0.020145798 1.8060578e-38 302 255
-0.022772292 0.764 -0.020093199 1.8152773e-38 303 255
-0.021432746 0.764 -0.020093199 1.8152418e-38 304 255
-0.0200406 0.76200002 -0.0200406 1.8060222e-38 305 255
-0.01870456 0.76200002 -0.0200406 1.8060222e-38 306 255
-0.01736852 0.76200002 -0.0200406 1.8060222e-38 307 255
-0.016074561 0.764 -0.020093199 1.8060578e-38 308 255
-0.014735013 0.764 -0.020093199 1.8060578e-38 309 255
-0.0133604 0.76200002 -0.0200406 1.8060222e-38 310 255
-0.01202436 0.76200002 -0.0200406 1.8060222e-38 311 255
-0.01068832 0.76200002 -0.0200406 1.8060225e-38 312 255
-0.0093522798 0.76200002 -0.0200406 1.7968029e-38 313 255
-0.0080057196 0.76099998 -0.020014299 1.7968029e-38 314 255
-0.0066714329 0.76099998 -0.020014299 1.7968029e-38 315 255
-0.0053231199 0.759 -0.0199617 1.7968026e-38 316 255
-0.0039818203 0.75700003 -0.019909101 1.7968026e-38 317 255
-0.0026545466 0.75700003 -0.019909101 1.7968026e-38 318 255
-0.00133078 0.759 -0.0199617 1.7968026e-38 319 255
0 0.75700003 -0.019909101 1.7968029e-38 320 255
0.0013272733 0.75700003 -0.019909101 1.7783998e-38 321 255
0.0026475333 0.755 -0.0198565 1.7968026e-38 322 255
0.0039712996 0.755 -0.0198565 1.7968026e-38 323 255
0.0052950666 0.755 -0.0198565 1.7783995e-38 324 255
0.0066714329 0.76099998 -0.020014299 1.7968026e-38 325 255
0.0079846792 0.759 -0.0199617 1.7968029e-38 326 255
0.00931546 0.759 -0.0199617 1.7968029e-38 327 255
0.01064624 0.759 -0.0199617 1.7968029e-38 328 255
0.012008579 0.76099998 -0.020014299 1.8060225e-38 329 255
0.013342866 0.76099998 -0.020014299 1.8060225e-38 330 255
0.014638579 0.759 -0.0199617 1.8060225e-38 331 255
0.015969358 0.759 -0.0199617 1.7968026e-38 332 255
0.017300138 0.759 -0.0199617 1.7968026e-38 333 255
0.018581826 0.75700003 -0.019909101 1.787691e-38 334 255
0.019909101 0.75700003 -0.019909101 1.7784714e-38 335 255
0.021236373 0.75700003 -0.019909101 1.7968382e-38 336 255
0.022563647 0.75700003 -0.019909101 1.7968382e-38 337 255
0.023954039 0.759 -0.0199617 1.7784714e-38 338 255
0.025351444 0.76099998 -0.020014299 1.7784714e-38 339 255
0.026685731 0.76099998 -0.020014299 1.8059503e-38 340 255
0.028020019 0.76099998 -0.020014299 1.8152057e-38 341 255
0.029392879 0.76200002 -0.0200406 1.8152057e-38 342 255
0.030728921 0.76200002 -0.0200406 1.8152057e-38 343 255
0.032022879 0.76099998 -0.020014299 1.8336088e-38 344 255
0.033357166 0.76099998 -0.020014299 1.8336088e-38 345 255
0.034600276 0.759 -0.0199617 1.8336088e-38 346 255
0.035931058 0.759 -0.0199617 1.8336088e-38 347 255
0.03726184 0.759 -0.0199617 1.8428286e-38 348 255
0.038592618 0.759 -0.0199617 1.8428286e-38 349 255
0.039818201 0.75700003 -0.019909101 1.8336813e-38 350 255
0.041036766 0.755 -0.0198565 1.8336813e-38 351 255
0.042304426 0.75400001 -0.019830201 1.8337169e-38 352 255
0.04351072 0.75199997 -0.0197776 1.8337169e-38 353 255
0.044709999 0.75 -0.019724999 1.8245336e-38 354 255
0.045963634 0.74900001 -0.0196987 1.8245336e-38 355 255
0.047276881 0.74900001 -0.0196987 1.8337537e-38 356 255
0.048590127 0.74900001 -0.0196987 1.8244983e-38 357 255
0.049770117 0.74699998 -0.019646099 1.8061671e-38 358 255
0.051011477 0.74599999 -0.019619798 1.8061671e-38 359 255
0.052179199 0.74400002 -0.019567199 1.8062027e-38 360 255
0.05348368 0.74400002 -0.019567199 1.7969472e-38 361 255
0.054788161 0.74400002 -0.019567199 1.8153143e-38 362 255
0.055489492 0.736 -0.019356798 1.7969111e-38 363 255
0.056779943 0.736 -0.019356798 1.7876912e-38 364 255
0.057912603 0.73400003 -0.019304199 1.7876912e-38 365 255
0.059199546 0.73400003 -0.019304199 1.7692162e-38 366 255
0.06023927 0.73100001 -0.019225299 1.7692162e-38 367 255
0.06152096 0.73100001 -0.019225299 1.7414502e-38 368 255
0.06271673 0.73000002 -0.019199001 1.7230111e-38 369 255
0.063996665 0.73000002 -0.019199001 1.6678016e-38 370 255
0.065097757 0.72799999 -0.0191464 1.658582e-38 371 255
0.066374183 0.72799999 -0.0191464 1.6217758e-38 372 255
0.067650609 0.72799999 -0.0191464 1.6125563e-38 373 255
0.068927035 0.72799999 -0.0191464 1.6309228e-38 374 255
-0.084449299 0.741 -0.020787518 1.6862402e-38 255 256
-0.082813434 0.73799998 -0.020703359 1.7507768e-38 256 256
-0.081519477 0.73799998 -0.020703359 1.7600323e-38 257 256
-0.080225512 0.73799998 -0.020703359 1.7507771e-38 258 256
-0.078931555 0.73799998 -0.020703359 1.7507771e-38 259 256
-0.077427194 0.736 -0.020647252 1.7323386e-38 260 256
-0.076136746 0.736 -0.020647252 1.723119e-38 261 256
-0.075049676 0.73799998 -0.020703359 1.723119e-38 262 256
-0.073855661 0.73900002 -0.020731414 1.723119e-38 263 256
-0.072559945 0.73900002 -0.020731414 1.6955682e-38 264 256
-0.07126423 0.73900002 -0.020731414 1.6955682e-38 265 256
-0.070631281 0.74599999 -0.020927785 1.6955326e-38 266 256
-0.069416218 0.74699998 -0.020955838 1.6955326e-38 267 256
-0.068288825 0.74900001 -0.021011947 1.7139713e-38 268 256
-0.067065001 0.75 -0.02104 1.7231909e-38 269 256
-0.065749995 0.75 -0.02104 1.7048594e-38 270 256
-0.064606823 0.75199997 -0.021096105 1.7140791e-38 271 256
-0.06345664 0.75400001 -0.021152213 1.7324462e-38 272 256
-0.062134624 0.75400001 -0.021152213 1.7324462e-38 273 256
-0.060893264 0.755 -0.021180267 1.7324462e-38 274 256
-0.059727304 0.75700003 -0.021236373 1.7324462e-38 275 256
-0.058554318 0.759 -0.02129248 1.7507771e-38 276 256
-0.05722354 0.759 -0.02129248 1.7599967e-38 277 256
-0.056040037 0.76099998 -0.021348584 1.7783992e-38 278 256
-0.05470575 0.76099998 -0.021348584 1.7783992e-38 279 256
-0.053441599 0.76200002 -0.02137664 1.7875109e-38 280 256
-0.052105557 0.76200002 -0.02137664 1.7875109e-38 281 256
-0.050902773 0.764 -0.021432746 1.805878e-38 282 256
-0.049563225 0.764 -0.021432746 1.805878e-38 283 256
-0.048223678 0.764 -0.021432746 1.8058777e-38 284 256
-0.046884131 0.764 -0.021432746 1.8058777e-38 285 256
-0.045544583 0.764 -0.021432746 1.7784348e-38 286 256
-0.04420504 0.764 -0.021432746 1.7784348e-38 287 256
-0.042865492 0.764 -0.021432746 1.7784348e-38 288 256
-0.041417241 0.76200002 -0.02137664 1.7784348e-38 289 256
-0.040081199 0.76200002 -0.02137664 1.7783992e-38 290 256
-0.038745161 0.76200002 -0.02137664 1.7783992e-38 291 256
-0.037360024 0.76099998 -0.021348584 1.7968026e-38 292 256
-0.035931058 0.759 -0.02129248 1.7968026e-38 293 256
-0.034600276 0.759 -0.02129248 1.8059503e-38 294 256
-0.033269498 0.759 -0.02129248 1.8152057e-38 295 256
-0.032022879 0.76099998 -0.021348584 1.8060578e-38 296 256
-0.030688593 0.76099998 -0.021348584 1.7968382e-38 297 256
-0.029354304 0.76099998 -0.021348584 1.8060578e-38 298 256
-0.027946379 0.759 -0.02129248 1.8060578e-38 299 256
-0.026615599 0.759 -0.02129248 1.8060578e-38 300 256
-0.025351444 0.76099998 -0.021348584 1.8060578e-38 301 256
-0.02404872 0.76200002 -0.02137664 1.7877266e-38 302 256
-0.02271268 0.76200002 -0.02137664 1.7877266e-38 303 256
-0.02137664 0.76200002 -0.02137664 1.8060578e-38 304 256
-0.020014299 0.76099998 -0.021348584 1.8152773e-38 305 256
-0.018680012 0.76099998 -0.021348584 1.8060578e-38 306 256
-0.017345725 0.76099998 -0.021348584 1.8060578e-38 307 256
-0.016011439 0.76099998 -0.021348584 1.7877266e-38 308 256
-0.014677152 0.76099998 -0.021348584 1.7877266e-38 309 256
-0.013342866 0.76099998 -0.021348584 1.8060225e-38 310 256
-0.01197702 0.759 -0.02129248 1.7968029e-38 311 256
-0.01064624 0.759 -0.02129248 1.8060227e-38 312 256
-0.00931546 0.759 -0.02129248 1.8060227e-38 313 256
-0.0079636406 0.75700003 -0.021236373 1.7784717e-38 314 256
-0.0066363667 0.75700003 -0.021236373 1.7876912e-38 315 256
-0.0053090933 0.75700003 -0.021236373 1.7784714e-38 316 256
-0.0039818203 0.75700003 -0.021236373 1.7784714e-38 317 256
-0.0026545466 0.75700003 -0.021236373 1.7968029e-38 318 256
-0.0013272733 0.75700003 -0.021236373 1.7968029e-38 319 256
0 0.75700003 -0.021236373 1.7692162e-38 320 256
0.0013237667 0.755 -0.021180267 1.7692162e-38 321 256
0.0026475333 0.755 -0.021180267 1.7692162e-38 322 256
0.0039712996 0.755 -0.021180267 1.7692162e-38 323 256
0.0052950666 0.755 -0.021180267 1.7692162e-38 324 256
0.0066188332 0.755 -0.021180267 1.7692162e-38 325 256
0.0079425992 0.755 -0.021180267 1.7783998e-38 326 256
0.0092663663 0.755 -0.021180267 1.7968029e-38 327 256
0.010590133 0.755 -0.021180267 1.7784717e-38 328 256
0.01194546 0.75700003 -0.021236373 1.7784717e-38 329 256
0.013272733 0.75700003 -0.021236373 1.7784717e-38 330 256
0.014600007 0.75700003 -0.021236373 1.7784717e-38 331 256
0.015927281 0.75700003 -0.021236373 1.7784717e-38 332 256
0.017208965 0.755 -0.021180267 1.7784717e-38 333 256
0.018532733 0.755 -0.021180267 1.7784714e-38 334 256
0.019830201 0.75400001 -0.021152213 1.7784714e-38 335 256
0.021152213 0.75400001 -0.021152213 1.7692518e-38 336 256
0.022504034 0.755 -0.021180267 1.7784714e-38 337 256
0.023827799 0.755 -0.021180267 1.7783995e-38 338 256
0.025151566 0.755 -0.021180267 1.7968026e-38 339 256
0.026475333 0.755 -0.021180267 1.8060222e-38 340 256
0.027799098 0.755 -0.021180267 1.7968026e-38 341 256
0.029122867 0.755 -0.021180267 1.8060225e-38 342 256
0.030607941 0.759 -0.02129248 1.8060225e-38 343 256
0.031854562 0.75700003 -0.021236373 1.815242e-38 344 256
0.033094164 0.755 -0.021180267 1.815242e-38 345 256
0.034417931 0.755 -0.021180267 1.815242e-38 346 256
0.035741698 0.755 -0.021180267 1.815242e-38 347 256
0.037065465 0.755 -0.021180267 1.815242e-38 348 256
0.038389232 0.755 -0.021180267 1.815242e-38 349 256
0.039660402 0.75400001 -0.021152213 1.8153138e-38 350 256
0.040873703 0.75199997 -0.021096105 1.8153138e-38 351 256
0.04208 0.75 -0.02104 1.8245689e-38 352 256
0.04333714 0.74900001 -0.021011947 1.8245689e-38 353 256
0.044531155 0.74699998 -0.020955838 1.8153141e-38 354 256
0.045840897 0.74699998 -0.020955838 1.8245336e-38 355 256
0.047087517 0.74599999 -0.020927785 1.8244983e-38 356 256
0.048395503 0.74599999 -0.020927785 1.8244983e-38 357 256
0.04970349 0.74599999 -0.020927785 1.8061671e-38 358 256
0.050669577 0.741 -0.020787518 1.8061671e-38 359 256
0.051758397 0.73799998 -0.020703359 1.778616e-38 360 256
0.052908584 0.736 -0.020647252 1.778616e-38 361 256
0.053978115 0.73299998 -0.020563092 1.7877275e-38 362 256
0.055263311 0.73299998 -0.020563092 1.7877275e-38 363 256
0.056394216 0.73100001 -0.020506985 1.7876912e-38 364 256
0.057675898 0.73100001 -0.020506985 1.7876912e-38 365 256
0.058957584 0.73100001 -0.020506985 1.7968029e-38 366 256
0.059992049 0.72799999 -0.020422826 1.7691444e-38 367 256
0.061268479 0.72799999 -0.020422826 1.7507054e-38 368 256
0.062458992 0.727 -0.020394772 1.7230108e-38 369 256
0.063558333 0.72500002 -0.020338668 1.6862405e-38 370 256
0.064829499 0.72500002 -0.020338668 1.6678372e-38 371 256
0.066100664 0.72500002 -0.020338668 1.631031e-38 372 256
0.067557678 0.727 -0.020394772 1.6218114e-38 373 256
0.06883236 0.727 -0.020394772 1.6217388e-38 374 256
-0.082813434 0.73799998 -0.021997318 1.7232262e-38 256 257
-0.08129856 0.736 -0.021937706 1.7416655e-38 257 257
-0.080008104 0.736 -0.021937706 1.7599251e-38 258 257
-0.07850375 0.73400003 -0.021878093 1.7507054e-38 259 257
-0.077216797 0.73400003 -0.021878093 1.7323741e-38 260 257
-0.07592985 0.73400003 -0.021878093 1.7231187e-38 261 257
-0.07484629 0.736 -0.021937706 1.7231187e-38 262 257
-0.073555835 0.736 -0.021937706 1.7138991e-38 263 257
-0.072461754 0.73799998 -0.021997318 1.7138991e-38 264 257
-0.07126423 0.73900002 -0.022027127 1.7138991e-38 265 257
-0.070441924 0.74400002 -0.022176161 1.6771651e-38 266 257
-0.069323286 0.74599999 -0.022235774 1.6863846e-38 267 257
-0.068106472 0.74699998 -0.022265578 1.6956045e-38 268 257
-0.066975579 0.74900001 -0.022325192 1.7048241e-38 269 257
-0.065662332 0.74900001 -0.022325192 1.7048594e-38 270 257
-0.064434998 0.75 -0.022355 1.7048594e-38 271 257
-0.063288316 0.75199997 -0.022414612 1.7048594e-38 272 257
-0.062134624 0.75400001 -0.022474226 1.7140791e-38 273 257
-0.060812615 0.75400001 -0.022474226 1.7324462e-38 274 257
-0.059569497 0.755 -0.022504034 1.7324462e-38 275 257
-0.058245733 0.755 -0.022504034 1.7507771e-38 276 257
-0.057072755 0.75700003 -0.022563647 1.7599967e-38 277 257
-0.055745479 0.75700003 -0.022563647 1.7967663e-38 278 257
-0.054418206 0.75700003 -0.022563647 1.7967663e-38 279 257
-0.053231198 0.759 -0.02262326 1.805878e-38 280 257
-0.052037176 0.76099998 -0.022682872 1.805878e-38 281 257
-0.050702889 0.76099998 -0.022682872 1.805878e-38 282 257
-0.049368605 0.76099998 -0.022682872 1.805878e-38 283 257
-0.048097439 0.76200002 -0.02271268 1.7875465e-38 284 257
-0.046761397 0.76200002 -0.02271268 1.7967661e-38 285 257
-0.045425359 0.76200002 -0.02271268 1.7784348e-38 286 257
-0.044089317 0.76200002 -0.02271268 1.7784348e-38 287 257
-0.042753279 0.76200002 -0.02271268 1.7967661e-38 288 257
-0.041417241 0.76200002 -0.02271268 1.7875465e-38 289 257
-0.040028598 0.76099998 -0.022682872 1.7691797e-38 290 257
-0.038694311 0.76099998 -0.022682872 1.7783992e-38 291 257
-0.03726184 0.759 -0.02262326 1.796731e-38 292 257
-0.03583638 0.75700003 -0.022563647 1.8059506e-38 293 257
-0.034509107 0.75700003 -0.022563647 1.8059506e-38 294 257
-0.033094164 0.755 -0.022504034 1.8059506e-38 295 257
-0.031770397 0.755 -0.022504034 1.7968026e-38 296 257
-0.030446632 0.755 -0.022504034 1.7968026e-38 297 257
-0.029122867 0.755 -0.022504034 1.7968026e-38 298 257
-0.027799098 0.755 -0.022504034 1.7968026e-38 299 257
-0.026475333 0.755 -0.022504034 1.8060222e-38 300 257
-0.025218192 0.75700003 -0.022563647 1.7968026e-38 301 257
-0.02389092 0.75700003 -0.022563647 1.7968026e-38 302 257
-0.022563647 0.75700003 -0.022563647 1.7968026e-38 303 257
-0.02129248 0.759 -0.02262326 1.787691e-38 304 257
-0.019909101 0.75700003 -0.022563647 1.787691e-38 305 257
-0.018581826 0.75700003 -0.022563647 1.7968382e-38 306 257
-0.017254554 0.75700003 -0.022563647 1.8060578e-38 307 257
-0.015927281 0.75700003 -0.022563647 1.7968026e-38 308 257
-0.014638579 0.759 -0.02262326 1.7968026e-38 309 257
-0.013272733 0.75700003 -0.022563647 1.7967673e-38 310 257
-0.01194546 0.75700003 -0.022563647 1.7967673e-38 311 257
-0.010590133 0.755 -0.022504034 1.7968029e-38 312 257
-0.0092663663 0.755 -0.022504034 1.7968029e-38 313 257
-0.0079425992 0.755 -0.022504034 1.8060222e-38 314 257
-0.0066188332 0.755 -0.022504034 1.7968026e-38 315 257
-0.0052950666 0.755 -0.022504034 1.7968026e-38 316 257
-0.0039712996 0.755 -0.022504034 1.7783995e-38 317 257
-0.0026475333 0.755 -0.022504034 1.7783995e-38 318 257
-0.0013237667 0.755 -0.022504034 1.7783995e-38 319 257
0 0.755 -0.022504034 1.7692162e-38 320 257
0.0013220133 0.75400001 -0.022474226 1.7692162e-38 321 257
0.0026440267 0.75400001 -0.022474226 1.7783998e-38 322 257
0.00396604 0.75400001 -0.022474226 1.7783998e-38 323 257
0.0052880533 0.75400001 -0.022474226 1.7692518e-38 324 257
0.0066100666 0.75400001 -0.022474226 1.7692518e-38 325 257
0.00793208 0.75400001 -0.022474226 1.7692162e-38 326 257
0.0092540924 0.75400001 -0.022474226 1.7692162e-38 327 257
0.010576107 0.75400001 -0.022474226 1.7692162e-38 328 257
0.01189812 0.75400001 -0.022474226 1.7784717e-38 329 257
0.013220133 0.75400001 -0.022474226 1.7784714e-38 330 257
0.014542146 0.75400001 -0.022474226 1.7692518e-38 331 257
0.01586416 0.75400001 -0.022474226 1.7692162e-38 332 257
0.017186172 0.75400001 -0.022474226 1.7692162e-38 333 257
0.018409999 0.75 -0.022355 1.7783998e-38 334 257
0.019724999 0.75 -0.022355 1.7783998e-38 335 257
0.021096105 0.75199997 -0.022414612 1.7692162e-38 336 257
0.022414612 0.75199997 -0.022414612 1.7784717e-38 337 257
0.023733119 0.75199997 -0.022414612 1.7968029e-38 338 257
0.025051624 0.75199997 -0.022414612 1.7968029e-38 339 257
0.02637013 0.75199997 -0.022414612 1.7968029e-38 340 257
0.027688639 0.75199997 -0.022414612 1.7968029e-38 341 257
0.029007144 0.75199997 -0.022414612 1.8059506e-38 342 257
0.030406307 0.75400001 -0.022474226 1.8151701e-38 343 257
0.03172832 0.75400001 -0.022474226 1.8152057e-38 344 257
0.033050332 0.75400001 -0.022474226 1.8152057e-38 345 257
0.034372345 0.75400001 -0.022474226 1.8060225e-38 346 257
0.035694357 0.75400001 -0.022474226 1.8060225e-38 347 257
0.037016369 0.75400001 -0.022474226 1.815242e-38 348 257
0.038236689 0.75199997 -0.022414612 1.815242e-38 349 257
0.039449997 0.75 -0.022355 1.8152418e-38 350 257
0.040710647 0.74900001 -0.022325192 1.8244973e-38 351 257
0.042023893 0.74900001 -0.022325192 1.8337166e-38 352 257
0.043221418 0.74699998 -0.022265578 1.8337166e-38 353 257
0.044471547 0.74599999 -0.022235774 1.8245692e-38 354 257
0.045779534 0.74599999 -0.022235774 1.8245692e-38 355 257
0.046961278 0.74400002 -0.022176161 1.8062027e-38 356 257
0.048265759 0.74400002 -0.022176161 1.8062027e-38 357 257
0.049436983 0.74199998 -0.022116546 1.8061671e-38 358 257
0.050464436 0.73799998 -0.021997318 1.8061671e-38 359 257
0.051758397 0.73799998 -0.021997318 1.8061671e-38 360 257
0.052764814 0.73400003 -0.021878093 1.7969475e-38 361 257
0.053757198 0.73000002 -0.021758866 1.7693963e-38 362 257
0.054810952 0.727 -0.021669446 1.7693963e-38 363 257
0.055777039 0.72299999 -0.021550218 1.7785436e-38 364 257
0.057044696 0.72299999 -0.021550218 1.7601046e-38 365 257
0.058634974 0.727 -0.021669446 1.7692162e-38 366 257
0.059744831 0.72500002 -0.021609833 1.7599967e-38 367 257
0.061016005 0.72500002 -0.021609833 1.7323739e-38 368 257
0.062115334 0.72299999 -0.021550218 1.7046793e-38 369 257
0.063382991 0.72299999 -0.021550218 1.6678372e-38 370 257
0.064561233 0.722 -0.021520413 1.6585818e-38 371 257
0.065827139 0.722 -0.021520413 1.631031e-38 372 257
0.067557678 0.727 -0.021669446 1.6218114e-38 373 257
-0.08129856 0.736 -0.023228159 1.759997e-38 257 258
-0.079790697 0.73400003 -0.023165042 1.759997e-38 258 258
-0.07839679 0.73299998 -0.023133477 1.7507774e-38 259 258
-0.077111594 0.73299998 -0.023133477 1.7231187e-38 260 258
-0.075826399 0.73299998 -0.023133477 1.7323741e-38 261 258
-0.074642912 0.73400003 -0.023165042 1.7231187e-38 262 258
-0.073355958 0.73400003 -0.023165042 1.7231187e-38 263 258
-0.072069012 0.73400003 -0.023165042 1.6955682e-38 264 258
-0.070974931 0.736 -0.023228159 1.6863128e-38 265 258
-0.069684476 0.736 -0.023228159 1.6863849e-38 266 258
-0.068951584 0.74199998 -0.023417519 1.6771654e-38 267 258
-0.067832954 0.74400002 -0.023480639 1.6863846e-38 268 258
-0.066707321 0.74599999 -0.023543758 1.6956401e-38 269 258
-0.065486997 0.74699998 -0.023575317 1.7048594e-38 270 258
-0.064349085 0.74900001 -0.02363844 1.7140791e-38 271 258
-0.06312 0.75 -0.023669999 1.7231906e-38 272 258
-0.061969809 0.75199997 -0.023733119 1.7324462e-38 273 258
-0.060812615 0.75400001 -0.02379624 1.7507771e-38 274 258
-0.059490599 0.75400001 -0.02379624 1.7507771e-38 275 258
-0.058168583 0.75400001 -0.02379624 1.7691799e-38 276 258
-0.056846574 0.75400001 -0.02379624 1.7691799e-38 277 258
-0.055598196 0.755 -0.023827799 1.7875109e-38 278 258
-0.054274432 0.755 -0.023827799 1.7875109e-38 279 258
-0.052950665 0.755 -0.023827799 1.805878e-38 280 258
-0.051626898 0.755 -0.023827799 1.805878e-38 281 258
-0.050303131 0.755 -0.023827799 1.805878e-38 282 258
-0.049109112 0.75700003 -0.02389092 1.805878e-38 283 258
-0.04778184 0.75700003 -0.02389092 1.7784345e-38 284 258
-0.046454567 0.75700003 -0.02389092 1.7784345e-38 285 258
-0.045127295 0.75700003 -0.02389092 1.7784345e-38 286 258
-0.043915741 0.759 -0.023954039 1.769215e-38 287 258
-0.042584959 0.759 -0.023954039 1.7875109e-38 288 258
-0.041254178 0.759 -0.023954039 1.7967663e-38 289 258
-0.039818201 0.75700003 -0.02389092 1.7691797e-38 290 258
-0.038135 0.75 -0.023669999 1.7691797e-38 291 258
-0.036819998 0.75 -0.023669999 1.7967307e-38 292 258
-0.035694357 0.75400001 -0.02379624 1.7967307e-38 293 258
-0.034281172 0.75199997 -0.023733119 1.7967307e-38 294 258
-0.032874998 0.75 -0.023669999 1.7967307e-38 295 258
-0.03156 0.75 -0.023669999 1.7967307e-38 296 258
-0.030244999 0.75 -0.023669999 1.8059503e-38 297 258
-0.029084291 0.75400001 -0.02379624 1.8059506e-38 298 258
-0.027688639 0.75199997 -0.023733119 1.796731e-38 299 258
-0.02637013 0.75199997 -0.023733119 1.7968026e-38 300 258
-0.025118252 0.75400001 -0.02379624 1.7968026e-38 301 258
-0.023733119 0.75199997 -0.023733119 1.7968382e-38 302 258
-0.022414612 0.75199997 -0.023733119 1.7968382e-38 303 258
-0.021096105 0.75199997 -0.023733119 1.7968382e-38 304 258
-0.019830201 0.75400001 -0.02379624 1.8060578e-38 305 258
-0.018459093 0.75199997 -0.023733119 1.7968382e-38 306 258
-0.017140586 0.75199997 -0.023733119 1.7968382e-38 307 258
-0.01586416 0.75400001 -0.02379624 1.7968029e-38 308 258
-0.014542146 0.75400001 -0.02379624 1.7968029e-38 309 258
-0.013220133 0.75400001 -0.02379624 1.7968029e-38 310 258
-0.01189812 0.75400001 -0.02379624 1.7968029e-38 311 258
-0.010548052 0.75199997 -0.023733119 1.7968026e-38 312 258
-0.0092295464 0.75199997 -0.023733119 1.7968026e-38 313 258
-0.0079110395 0.75199997 -0.023733119 1.7968026e-38 314 258
-0.0065925326 0.75199997 -0.023733119 1.7968026e-38 315 258
-0.0052740262 0.75199997 -0.023733119 1.7967307e-38 316 258
-0.0039555198 0.75199997 -0.023733119 1.7967307e-38 317 258
-0.0026440267 0.75400001 -0.02379624 1.7968029e-38 318 258
-0.0013220133 0.75400001 -0.02379624 1.7783998e-38 319 258
0 0.75400001 -0.02379624 1.7692162e-38 320 258
0.0013220133 0.75400001 -0.02379624 1.7692162e-38 321 258
0.0026370131 0.75199997 -0.023733119 1.7783998e-38 322 258
0.003945 0.75 -0.023669999 1.7968029e-38 323 258
0.00526 0.75 -0.023669999 1.7783995e-38 324 258
0.006575 0.75 -0.023669999 1.7783995e-38 325 258
0.00789 0.75 -0.023669999 1.7783995e-38 326 258
0.0092049995 0.75 -0.023669999 1.7783995e-38 327 258
0.01052 0.75 -0.023669999 1.7692518e-38 328 258
0.011835 0.75 -0.023669999 1.7692518e-38 329 258
0.01315 0.75 -0.023669999 1.7692162e-38 330 258
0.014465 0.75 -0.023669999 1.7692162e-38 331 258
0.01578 0.75 -0.023669999 1.7692162e-38 332 258
0.017095 0.75 -0.023669999 1.7692162e-38 333 258
0.018385453 0.74900001 -0.02363844 1.7783995e-38 334 258
0.0196987 0.74900001 -0.02363844 1.7968026e-38 335 258
0.02104 0.75 -0.023669999 1.7784714e-38 336 258
0.022325192 0.74900001 -0.02363844 1.7692518e-38 337 258
0.02363844 0.74900001 -0.02363844 1.7968026e-38 338 258
0.024951685 0.74900001 -0.02363844 1.7968026e-38 339 258
0.026264934 0.74900001 -0.02363844 1.7968026e-38 340 258
0.027615 0.75 -0.023669999 1.7968026e-38 341 258
0.028929999 0.75 -0.023669999 1.7968026e-38 342 258
0.030325651 0.75199997 -0.023733119 1.8060222e-38 343 258
0.031644158 0.75199997 -0.023733119 1.8060222e-38 344 258
0.032962665 0.75199997 -0.023733119 1.8060222e-38 345 258
0.034281172 0.75199997 -0.023733119 1.8060222e-38 346 258
0.035599679 0.75199997 -0.023733119 1.8060222e-38 347 258
0.036819998 0.75 -0.023669999 1.8152057e-38 348 258
0.038084153 0.74900001 -0.02363844 1.8336088e-38 349 258
0.0393974 0.74900001 -0.02363844 1.8336088e-38 350 258
0.040601939 0.74699998 -0.023575317 1.8336088e-38 351 258
0.041911677 0.74699998 -0.023575317 1.8244973e-38 352 258
0.04316356 0.74599999 -0.023543758 1.8152418e-38 353 258
0.044352323 0.74400002 -0.023480639 1.8153138e-38 354 258
0.045534063 0.74199998 -0.023417519 1.8245692e-38 355 258
0.046835039 0.74199998 -0.023417519 1.8062743e-38 356 258
0.048136011 0.74199998 -0.023417519 1.7970547e-38 357 258
0.049436983 0.74199998 -0.023417519 1.7969472e-38 358 258
0.050464436 0.73799998 -0.023291279 1.7969472e-38 359 258
0.051758397 0.73799998 -0.023291279 1.7969472e-38 360 258
0.052764814 0.73400003 -0.023165042 1.7877275e-38 361 258
0.053536277 0.727 -0.022944121 1.7693963e-38 362 258
0.054509375 0.72299999 -0.02281788 1.7601767e-38 363 258
0.055699892 0.722 -0.022786319 1.7601049e-38 364 258
0.056571297 0.71700001 -0.02262852 1.7508853e-38 365 258
0.057828441 0.71700001 -0.02262852 1.7507771e-38 366 258
0.059497613 0.722 -0.022786319 1.7231543e-38 367 258
0.060763516 0.722 -0.022786319 1.7231187e-38 368 258
0.062029421 0.722 -0.022786319 1.69546e-38 369 258
0.06312 0.72000003 -0.022723202 1.6585818e-38 370 258
0.064382397 0.72000003 -0.022723202 1.6493622e-38 371 258
0.065827139 0.722 -0.022786319 1.6584739e-38 372 258
-0.08129856 0.736 -0.024518613 1.7416301e-38 257 259
-0.079681985 0.73299998 -0.024418673 1.7691446e-38 258 259
-0.078075938 0.73000002 -0.024318734 1.7599251e-38 259 259
-0.076585598 0.72799999 -0.024252106 1.7507771e-38 260 259
