# .PCD v.7 - Point Cloud Data file format
FIELDS x y z rgb imX imY
SIZE 4 4 4 4 4 4
TYPE F F F F F F
COUNT 1 1 1 1 1 1
WIDTH 669
HEIGHT 1
VIEWPOINT 0 0 0 1 0 0 0
POINTS 669
DATA ascii
-0.0054423464 0.77600002 -0.028572321 1.9536781e-38 316 261
-0.0040817601 0.77600002 -0.028572321 1.7231891e-38 317 261
-0.0013605866 0.77600002 -0.028572321 1.2899775e-38 319 261
0 0.77600002 -0.028572321 1.0597436e-38 320 261
-0.013570799 0.77399999 -0.029855758 2.2489225e-38 310 262
-0.01221372 0.77399999 -0.029855758 2.2489225e-38 311 262
-0.0068029333 0.77600002 -0.029932907 1.3913216e-38 315 262
-0.0054283198 0.77399999 -0.029855758 1.0313997e-38 316 262
-0.0040712398 0.77399999 -0.029855758 6.7183685e-39 317 262
-0.0027141599 0.77399999 -0.029855758 4.2337767e-39 318 262
-0.0013570799 0.77399999 -0.029855758 4.3259723e-39 319 262
0 0.77399999 -0.029855758 3.8722193e-39 320 262
0.0013605866 0.77600002 -0.029932907 3.9644149e-39 321 262
0.0027211732 0.77600002 -0.029932907 4.3314318e-39 322 262
0.0040817601 0.77600002 -0.029932907 3.4098342e-39 323 262
-0.014966453 0.77600002 -0.031293493 2.1383603e-38 309 263
-0.013570799 0.77399999 -0.031212838 2.0825745e-38 310 263
-0.01221372 0.77399999 -0.031212838 1.8613048e-38 311 263
-0.010884693 0.77600002 -0.031293493 1.5478025e-38 312 263
-0.0094995592 0.77399999 -0.031212838 1.1790199e-38 313 263
-0.0081319595 0.773 -0.03117251 8.8474986e-39 314 263
-0.0067766332 0.773 -0.03117251 7.4645642e-39 315 263
-0.0054283198 0.77399999 -0.031212838 5.713255e-39 316 263
-0.0040712398 0.77399999 -0.031212838 4.9756899e-39 317 263
-0.0027141599 0.77399999 -0.031212838 4.6065795e-39 318 263
-0.0013570799 0.77399999 -0.031212838 5.1593946e-39 319 263
0 0.77399999 -0.031212838 5.5285386e-39 320 263
0.0013605866 0.77600002 -0.031293493 5.436343e-39 321 263
0.0027211732 0.77600002 -0.031293493 5.2537468e-39 322 263
0.0040817601 0.77600002 -0.031293493 4.9768012e-39 323 263
0.0054563731 0.778 -0.031374145 1.3916015e-39 324 263
0.0068379994 0.77999997 -0.031454798 4.7000531e-40 325 263
-0.014966453 0.77600002 -0.032654081 1.9816611e-38 309 264
-0.013570799 0.77399999 -0.032569919 1.6679092e-38 310 264
-0.01216638 0.77100003 -0.032443684 1.2253702e-38 311 264
-0.01081456 0.77100003 -0.032443684 7.090056e-39 312 264
-0.0094872871 0.773 -0.032527838 4.2319914e-39 313 264
-0.0081319595 0.773 -0.032527838 3.1360962e-39 314 264
-0.0067766332 0.773 -0.032527838 4.1502481e-39 315 264
-0.0054283198 0.77399999 -0.032569919 4.6105298e-39 316 264
-0.0040712398 0.77399999 -0.032569919 5.1633448e-39 317 264
-0.0027141599 0.77399999 -0.032569919 5.1629973e-39 318 264
-0.0013570799 0.77399999 -0.032569919 5.1629973e-39 319 264
0 0.77399999 -0.032569919 5.5285512e-39 320 264
0.0013605866 0.77600002 -0.032654081 5.5285512e-39 321 264
0.0027211732 0.77600002 -0.032654081 5.2541097e-39 322 264
0.0040817601 0.77600002 -0.032654081 4.8856874e-39 323 264
0.0054563731 0.778 -0.032738242 2.5861468e-39 324 264
0.0068379994 0.77999997 -0.032822397 3.78469e-39 325 264
0.0082371598 0.78299999 -0.032948639 1.1883124e-38 326 264
-0.014966453 0.77600002 -0.034014668 1.1507501e-38 309 265
-0.013448066 0.76700002 -0.033620168 6.5372381e-39 310 265
-0.01210326 0.76700002 -0.033620168 5.9840657e-39 311 265
-0.010786506 0.76899999 -0.033707831 4.4243309e-39 312 265
-0.0094381925 0.76899999 -0.033707831 4.7934721e-39 313 265
-0.0081109209 0.77100003 -0.033795502 5.3466599e-39 314 265
-0.0067766332 0.773 -0.033883166 5.4388555e-39 315 265
-0.0054213065 0.773 -0.033883166 5.3463096e-39 316 265
-0.0040712398 0.77399999 -0.033927001 5.3463096e-39 317 265
-0.0027141599 0.77399999 -0.033927001 5.0707975e-39 318 265
-0.0013570799 0.77399999 -0.033927001 4.9786018e-39 319 265
0 0.77399999 -0.033927001 5.1611952e-39 320 265
0.0013605866 0.77600002 -0.034014668 5.1611952e-39 321 265
0.0027281865 0.778 -0.034102332 4.9786018e-39 322 265
0.0040922803 0.778 -0.034102332 3.7800587e-39 323 265
0.0054703997 0.77999997 -0.034189999 2.0318968e-39 324 265
0.0068467669 0.78100002 -0.034233831 8.5777865e-39 325 265
-0.018680012 0.76099998 -0.034691449 1.8894306e-38 306 266
-0.017345725 0.76099998 -0.034691449 1.4837696e-38 307 266
-0.016011439 0.76099998 -0.034691449 8.2900509e-39 308 266
-0.014735013 0.764 -0.034828212 4.9710082e-39 309 266
-0.013395466 0.764 -0.034828212 2.9520832e-39 310 266
-0.012087479 0.76599997 -0.034919381 3.8736808e-39 311 266
-0.010758453 0.76700002 -0.034964975 5.0700814e-39 312 266
-0.0094381925 0.76899999 -0.035056144 5.4385052e-39 313 266
-0.0081109209 0.77100003 -0.03514732 5.1630001e-39 314 266
-0.0067590997 0.77100003 -0.03514732 4.9782487e-39 315 266
-0.0054213065 0.773 -0.035238493 4.7949337e-39 316 266
-0.0040712398 0.77399999 -0.03528408 4.7949337e-39 317 266
-0.0027141599 0.77399999 -0.03528408 4.703094e-39 318 266
-0.0013570799 0.77399999 -0.03528408 4.6105396e-39 319 266
0 0.77600002 -0.035375252 4.9778802e-39 320 266
0.0013605866 0.77600002 -0.035375252 4.9778802e-39 321 266
-0.024951685 0.74900001 -0.03545766 2.2027898e-38 301 267
-0.02363844 0.74900001 -0.03545766 2.2304117e-38 302 267
-0.022474226 0.75400001 -0.035694357 2.1750944e-38 303 267
-0.021152213 0.75400001 -0.035694357 1.8249305e-38 304 267
-0.019909101 0.75700003 -0.03583638 1.3639523e-38 305 267
-0.01863092 0.759 -0.035931058 1.065979e-38 306 267
-0.017345725 0.76099998 -0.036025736 8.2652143e-39 307 267
-0.016011439 0.76099998 -0.036025736 2.7687584e-39 308 267
-0.014735013 0.764 -0.036167759 4.5208355e-39 309 267
-0.013395466 0.764 -0.036167759 5.3484578e-39 310 267
-0.012087479 0.76599997 -0.036262438 5.2562621e-39 311 267
-0.010758453 0.76700002 -0.036309779 5.4381395e-39 312 267
-0.0094381925 0.76899999 -0.036404461 5.2537468e-39 313 267
-0.0080898795 0.76899999 -0.036404461 5.2537468e-39 314 267
-0.0067590997 0.77100003 -0.036499143 5.1615512e-39 315 267
-0.0054213065 0.773 -0.036593821 4.7030912e-39 316 267
-0.0040712398 0.77399999 -0.036641158 4.7030912e-39 317 267
-0.0027141599 0.77399999 -0.036641158 4.7942078e-39 318 267
-0.0013605866 0.77600002 -0.036735836 4.7942078e-39 319 267
0 0.77600002 -0.036735836 4.2421158e-39 320 267
-0.027504537 0.74699998 -0.036672719 2.0650004e-38 299 268
-0.026194798 0.74699998 -0.036672719 2.1843508e-38 300 268
-0.024951685 0.74900001 -0.036770906 2.20279e-38 301 268
-0.02363844 0.74900001 -0.036770906 2.1105922e-38 302 268
-0.022414612 0.75199997 -0.036918186 1.8247856e-38 303 268
-0.021096105 0.75199997 -0.036918186 1.3727047e-38 304 268
-0.0198565 0.755 -0.037065465 9.6704392e-39 305 268
-0.01863092 0.759 -0.03726184 4.974618e-39 306 268
-0.017345725 0.76099998 -0.037360024 5.0668136e-39 307 268
-0.016011439 0.76099998 -0.037360024 5.0707849e-39 308 268
-0.01469644 0.76200002 -0.037409119 5.6239586e-39 309 268
-0.013395466 0.764 -0.037507307 5.0718709e-39 310 268
-0.012087479 0.76599997 -0.037605491 4.8878383e-39 311 268
-0.010758453 0.76700002 -0.037654586 4.978599e-39 312 268
-0.0094136465 0.76700002 -0.037654586 4.7942078e-39 313 268
-0.0080898795 0.76899999 -0.03775277 5.1615512e-39 314 268
-0.0067590997 0.77100003 -0.037850961 5.0689968e-39 315 268
-0.0054213065 0.773 -0.037949149 4.6101767e-39 316 268
-0.0040712398 0.77399999 -0.037998237 4.6101767e-39 317 268
-0.028814279 0.74699998 -0.03798246 2.0004631e-38 298 269
-0.027504537 0.74699998 -0.03798246 2.0834392e-38 299 269
-0.026194798 0.74699998 -0.03798246 2.2028622e-38 300 269
-0.024951685 0.74900001 -0.038084153 2.0553852e-38 301 269
-0.02363844 0.74900001 -0.038084153 1.7048263e-38 302 269
-0.022414612 0.75199997 -0.038236689 1.0133591e-38 303 269
-0.021096105 0.75199997 -0.038236689 5.8872192e-39 304 269
-0.0198565 0.755 -0.038389232 5.5184367e-39 305 269
-0.018581826 0.75700003 -0.038490929 5.4384926e-39 306 269
-0.017345725 0.76099998 -0.038694311 5.991665e-39 307 269
-0.016011439 0.76099998 -0.038694311 5.8061989e-39 308 269
-0.01469644 0.76200002 -0.038745161 5.6218077e-39 309 269
-0.013395466 0.764 -0.038846854 5.0707849e-39 310 269
-0.012087479 0.76599997 -0.038948543 4.9785892e-39 311 269
-0.010758453 0.76700002 -0.038999394 4.8867537e-39 312 269
-0.0094136465 0.76700002 -0.038999394 4.8867537e-39 313 269
-0.0080898795 0.76899999 -0.039101087 4.9785892e-39 314 269
-0.0067590997 0.77100003 -0.03920278 4.6094466e-39 315 269
-0.028775707 0.74599999 -0.039239597 2.1107739e-38 298 270
-0.027504537 0.74699998 -0.039292198 2.1568716e-38 299 270
-0.026194798 0.74699998 -0.039292198 2.0552769e-38 300 270
-0.024885058 0.74699998 -0.039292198 1.4836641e-38 301 270
-0.02363844 0.74900001 -0.0393974 8.8525783e-39 302 270
-0.022355 0.75 -0.039449997 4.6115808e-39 303 270
-0.021096105 0.75199997 -0.039555199 3.6900182e-39 304 270
-0.0198565 0.755 -0.039712999 4.5197789e-39 305 270
-0.018581826 0.75700003 -0.039818201 5.8065647e-39 306 270
-0.017345725 0.76099998 -0.040028598 5.6221734e-39 307 270
-0.016011439 0.76099998 -0.040028598 5.4381395e-39 308 270
-0.01469644 0.76200002 -0.040081199 5.2537468e-39 309 270
-0.013395466 0.764 -0.040186398 4.9785892e-39 310 270
-0.01205592 0.764 -0.040186398 4.9785892e-39 311 270
-0.010758453 0.76700002 -0.040344197 4.8867537e-39 312 270
-0.0094136465 0.76700002 -0.040344197 4.4261343e-39 313 270
-0.028775707 0.74599999 -0.040547583 2.1844591e-38 298 271
-0.027467718 0.74599999 -0.040547583 2.0830079e-38 299 271
-0.026159734 0.74599999 -0.040547583 1.7419932e-38 300 271
-0.024885058 0.74699998 -0.040601939 8.2925648e-39 301 271
-0.023575317 0.74699998 -0.040601939 3.1397101e-39 302 271
-0.022325192 0.74900001 -0.040710647 3.6006869e-39 303 271
-0.021096105 0.75199997 -0.040873703 5.0711646e-39 304 271
-0.0197776 0.75199997 -0.040873703 5.3481102e-39 305 271
-0.018581826 0.75700003 -0.041145474 5.2551929e-39 306 271
-0.017345725 0.76099998 -0.041362885 5.0708003e-39 307 271
-0.016011439 0.76099998 -0.041362885 4.978599e-39 308 271
-0.01469644 0.76200002 -0.041417241 4.8864034e-39 309 271
-0.013395466 0.764 -0.041525945 4.9789522e-39 310 271
-0.01205592 0.764 -0.041525945 4.7945609e-39 311 271
-0.028775707 0.74599999 -0.04185557 2.1016275e-38 298 272
-0.027467718 0.74599999 -0.04185557 1.5115755e-38 299 272
-0.026159734 0.74599999 -0.04185557 8.3005032e-39 300 272
-0.024885058 0.74699998 -0.041911677 3.321579e-39 301 272
-0.023575317 0.74699998 -0.041911677 4.0595238e-39 302 272
-0.022325192 0.74900001 -0.042023893 4.98112e-39 303 272
-0.021096105 0.75199997 -0.04219221 5.8065675e-39 304 272
-0.0197776 0.75199997 -0.04219221 5.6218175e-39 305 272
-0.018532733 0.755 -0.042360533 5.0707975e-39 306 272
-0.017300138 0.759 -0.042584959 4.8864062e-39 307 272
-0.016011439 0.76099998 -0.042697169 4.7030912e-39 308 272
-0.01469644 0.76200002 -0.042753279 4.6108955e-39 309 272
-0.02869856 0.74400002 -0.043047838 1.6417321e-38 298 273
-0.027394081 0.74400002 -0.043047838 7.6590966e-39 299 273
-0.026159734 0.74599999 -0.04316356 3.0457404e-39 300 273
-0.024885058 0.74699998 -0.043221418 3.967338e-39 301 273
-0.023575317 0.74699998 -0.043221418 5.5314197e-39 302 273
-0.022325192 0.74900001 -0.04333714 5.5314197e-39 303 273
-0.02104 0.75 -0.043394998 5.2551929e-39 304 273
-0.0197776 0.75199997 -0.04351072 5.0708003e-39 305 273
-0.018508185 0.75400001 -0.043626439 4.7956427e-39 306 273
-0.017300138 0.759 -0.043915741 4.7956427e-39 307 273
-0.02869856 0.74400002 -0.044352323 9.2221218e-39 298 274
-0.027394081 0.74400002 -0.044352323 2.5840364e-39 299 274
-0.026089599 0.74400002 -0.044352323 4.1470629e-39 300 274
-0.024851745 0.74599999 -0.044471547 5.6225517e-39 301 274
-0.023575317 0.74699998 -0.044531155 5.8062115e-39 302 274
-0.022265578 0.74699998 -0.044531155 5.4377891e-39 303 274
-0.021011947 0.74900001 -0.044650383 5.2537468e-39 304 274
-0.019830201 0.75400001 -0.044948451 5.2537468e-39 305 274
-0.018508185 0.75400001 -0.044948451 4.7956399e-39 306 274
-0.028621411 0.74199998 -0.045534063 4.5205104e-39 298 275
-0.027320439 0.74199998 -0.045534063 3.6911098e-39 299 275
-0.026089599 0.74400002 -0.0456568 5.2548454e-39 300 275
-0.024851745 0.74599999 -0.045779534 5.5310722e-39 301 275
-0.023543758 0.74599999 -0.045779534 5.4377919e-39 302 275
-0.022265578 0.74699998 -0.045840897 5.2530405e-39 303 275
-0.021011947 0.74900001 -0.045963634 4.7942106e-39 304 275
-0.019724999 0.75 -0.046024997 4.8864062e-39 305 275
-0.018508185 0.75400001 -0.046270464 4.7956399e-39 306 275
-0.017208965 0.755 -0.04633183 4.7956399e-39 307 275
-0.028621411 0.74199998 -0.046835039 3.3201567e-39 298 276
-0.027320439 0.74199998 -0.046835039 5.3484606e-39 299 276
-0.026089599 0.74400002 -0.046961278 5.8987659e-39 300 276
-0.024851745 0.74599999 -0.047087517 5.6218203e-39 301 276
-0.023543758 0.74599999 -0.047087517 5.0697255e-39 302 276
-0.022265578 0.74699998 -0.047150634 4.9775299e-39 303 276
-0.021011947 0.74900001 -0.047276881 4.977883e-39 304 276
-0.019724999 0.75 -0.047339998 4.977883e-39 305 276
-0.018459093 0.75199997 -0.047466237 4.886388e-39 306 276
-0.017140586 0.75199997 -0.047466237 5.9005385e-39 307 276
-0.029801406 0.73900002 -0.047941394 4.0580749e-39 297 277
-0.028505694 0.73900002 -0.047941394 5.0682779e-39 298 277
-0.027283618 0.741 -0.048071139 5.8062017e-39 299 277
-0.025984399 0.741 -0.048071139 5.713653e-39 300 277
-0.02478512 0.74400002 -0.048265759 5.5289016e-39 301 277
-0.023543758 0.74599999 -0.048395503 5.0689996e-39 302 277
-0.022235774 0.74599999 -0.048395503 5.0689996e-39 303 277
-0.020955838 0.74699998 -0.048460379 4.6087305e-39 304 277
-0.0196987 0.74900001 -0.048590127 4.4239805e-39 305 277
-0.018409999 0.75 -0.048655 7.3742183e-39 306 277
-0.029761078 0.73799998 -0.049170475 3.1390095e-39 297 278
-0.028467119 0.73799998 -0.049170475 6.171757e-39 298 278
-0.027209979 0.73900002 -0.049237106 6.171757e-39 299 278
-0.025984399 0.741 -0.049370356 5.4367059e-39 300 278
-0.024718491 0.74199998 -0.049436983 5.1604792e-39 301 278
-0.023480639 0.74400002 -0.04957024 4.7934861e-39 302 278
-0.022235774 0.74599999 -0.04970349 4.7012905e-39 303 278
-0.020955838 0.74699998 -0.049770117 4.4243182e-39 304 278
-0.030970879 0.736 -0.050327681 1.3908854e-39 296 279
-0.029680425 0.736 -0.050327681 3.3269936e-39 297 279
-0.028389972 0.736 -0.050327681 5.8043996e-39 298 279
-0.027173158 0.73799998 -0.050464436 5.6200084e-39 299 279
-0.025879199 0.73799998 -0.050464436 5.0693527e-39 300 279
-0.024685178 0.741 -0.050669577 4.9771571e-39 301 279
-0.023417519 0.74199998 -0.050737958 4.3339387e-39 302 279
-0.022176161 0.74400002 -0.050874721 4.1491887e-39 303 279
-0.032173667 0.73400003 -0.051477864 6.2675078e-39 295 280
-0.030886721 0.73400003 -0.051477864 6.2660756e-39 296 280
-0.029599773 0.73400003 -0.051477864 5.9898489e-39 297 280
-0.028312827 0.73400003 -0.051477864 5.9873434e-39 298 280
-0.02709952 0.736 -0.051618133 5.8029521e-39 299 280
-0.025879199 0.73799998 -0.051758397 4.7934861e-39 300 280
-0.024685178 0.741 -0.051968798 4.7012905e-39 301 280
-0.023385961 0.741 -0.051968798 4.7941924e-39 302 280
-0.032173667 0.73400003 -0.052764814 9.9499155e-39 295 281
-0.030886721 0.73400003 -0.052764814 8.2911201e-39 296 281
-0.029599773 0.73400003 -0.052764814 5.9862293e-39 297 281
-0.028312827 0.73400003 -0.052764814 5.2497657e-39 298 281
-0.02702588 0.73400003 -0.052764814 5.5259925e-39 299 281
-0.025809066 0.736 -0.052908584 5.1597337e-39 300 281
-0.024585238 0.73799998 -0.053052358 4.6987569e-39 301 281
0.031428497 0.71700001 -0.051542737 2.0918296e-38 345 281
0.032685637 0.71700001 -0.051542737 1.9625753e-38 346 281
0.033942781 0.71700001 -0.051542737 1.8058427e-38 347 281
0.035199918 0.71700001 -0.051542737 1.584609e-38 348 281
0.036457058 0.71700001 -0.051542737 1.3817428e-38 349 281
0.037714198 0.71700001 -0.051542737 1.0784348e-38 350 281
0.038971342 0.71700001 -0.051542737 1.1245326e-38 351 281
0.040228479 0.71700001 -0.051542737 1.1442338e-38 352 281
0.041427758 0.71600002 -0.051470853 1.6052119e-38 353 281
0.042683143 0.71600002 -0.051470853 2.0555312e-38 354 281
-0.032129832 0.73299998 -0.053978115 7.643936e-39 295 282
-0.030844638 0.73299998 -0.053978115 5.4388163e-39 296 282
-0.029559445 0.73299998 -0.053978115 5.4388163e-39 297 282
-0.028274251 0.73299998 -0.053978115 5.8054562e-39 298 282
-0.026989058 0.73299998 -0.053978115 4.6991101e-39 299 282
-0.025738932 0.73400003 -0.054051761 5.2511852e-39 300 282
0.028793238 0.71399999 -0.052578956 1.7601414e-38 343 282
0.030045118 0.71399999 -0.052578956 1.6490012e-38 344 282
0.031296998 0.71399999 -0.052578956 1.4830491e-38 345 282
0.032640055 0.71600002 -0.052726239 1.252956e-38 346 282
0.033942781 0.71700001 -0.052799881 1.1331376e-38 347 282
0.035199918 0.71700001 -0.052799881 9.2137798e-39 348 282
0.036457058 0.71700001 -0.052799881 7.6464541e-39 349 282
0.037714198 0.71700001 -0.052799881 4.9793053e-39 350 282
0.038971342 0.71700001 -0.052799881 4.5183272e-39 351 282
0.040228479 0.71700001 -0.052799881 2.6899185e-39 352 282
0.041427758 0.71600002 -0.052726239 7.3922558e-39 353 282
0.042683143 0.71600002 -0.052726239 1.3108718e-38 354 282
0.043938532 0.71600002 -0.052726239 1.6519957e-38 355 282
-0.032129832 0.73299998 -0.055263311 4.7866099e-39 295 283
-0.03076048 0.73100001 -0.055112526 3.7821872e-39 296 283
-0.029478792 0.73100001 -0.055112526 5.3495143e-39 297 283
-0.028197108 0.73100001 -0.055112526 7.279136e-39 298 283
-0.026915418 0.73100001 -0.055112526 5.7118102e-39 299 283
-0.025633732 0.73100001 -0.055112526 6.538687e-39 300 283
-0.024352046 0.73100001 -0.055112526 1.1701642e-38 301 283
-0.02281788 0.72299999 -0.054509375 1.4652991e-38 302 283
-0.021371379 0.71700001 -0.054057021 1.6866045e-38 303 283
-0.020114239 0.71700001 -0.054057021 1.9442475e-38 304 283
-0.018857099 0.71700001 -0.054057021 2.0364432e-38 305 283
-0.017599959 0.71700001 -0.054057021 2.0184341e-38 306 283
0.023685781 0.71100003 -0.053604662 1.7324106e-38 339 283
0.024932399 0.71100003 -0.053604662 1.5757509e-38 340 283
0.026179021 0.71100003 -0.053604662 1.4097627e-38 341 283
0.027618507 0.71600002 -0.053981625 1.1975701e-38 342 283
0.028793238 0.71399999 -0.053830836 9.4864207e-39 343 283
0.030045118 0.71399999 -0.053830836 7.6360299e-39 344 283
0.031296998 0.71399999 -0.053830836 5.7921173e-39 345 283
0.032640055 0.71600002 -0.053981625 3.4969543e-39 346 283
0.03389544 0.71600002 -0.053981625 3.9579311e-39 347 283
0.035150826 0.71600002 -0.053981625 4.0548281e-39 348 283
0.036457058 0.71700001 -0.054057021 4.5161663e-39 349 283
0.037714198 0.71700001 -0.054057021 4.0573686e-39 350 283
0.038971342 0.71700001 -0.054057021 2.9513798e-39 351 283
0.040228479 0.71700001 -0.054057021 1.0844649e-41 352 283
0.041485619 0.71700001 -0.054057021 1.0844649e-41 353 283
0.042683143 0.71600002 -0.053981625 4.8089579e-39 354 283
0.043938532 0.71600002 -0.053981625 1.485828e-38 355 283
-0.032042164 0.73100001 -0.056394216 4.3339233e-39 295 284
-0.030718399 0.73000002 -0.056317069 4.8888921e-39 296 284
-0.029438468 0.73000002 -0.056317069 6.6402504e-39 297 284
-0.028081384 0.72799999 -0.056162767 7.7440644e-39 298 284
-0.026804959 0.72799999 -0.056162767 6.5455212e-39 299 284
-0.025528532 0.72799999 -0.056162767 8.839252e-39 300 284
-0.024252106 0.72799999 -0.056162767 1.4002207e-38 301 284
-0.02281788 0.72299999 -0.055777039 1.4741587e-38 302 284
-0.021520413 0.722 -0.055699892 1.3912186e-38 303 284
-0.020114239 0.71700001 -0.055314157 1.2529252e-38 304 284
-0.018857099 0.71700001 -0.055314157 1.2437056e-38 305 284
-0.017599959 0.71700001 -0.055314157 1.1980021e-38 306 284
-0.016342819 0.71700001 -0.055314157 1.2440998e-38 307 284
-0.01512776 0.71899998 -0.055468451 1.2810501e-38 308 284
-0.013828539 0.71700001 -0.055314157 1.2718305e-38 309 284
-0.0125714 0.71700001 -0.055314157 1.3635583e-38 310 284
-0.01131426 0.71700001 -0.055314157 1.3450833e-38 311 284
-0.01005712 0.71700001 -0.055314157 1.2436661e-38 312 284
-0.0087999795 0.71700001 -0.055314157 1.0132129e-38 313 284
-0.0075638802 0.71899998 -0.055468451 8.2979374e-39 314 284
0 0.71600002 -0.055237014 1.5577079e-38 320 284
0.0012553866 0.71600002 -0.055237014 1.5669276e-38 321 284
0.0050075199 0.71399999 -0.05508272 1.622065e-38 324 284
0.0062593995 0.71399999 -0.05508272 1.622065e-38 325 284
0.0075112795 0.71399999 -0.05508272 1.6218483e-38 326 284
0.0099729598 0.71100003 -0.054851279 1.5940451e-38 328 284
0.01121958 0.71100003 -0.054851279 1.5663864e-38 329 284
0.0124662 0.71100003 -0.054851279 1.4469284e-38 330 284
0.01371282 0.71100003 -0.054851279 1.4192697e-38 331 284
0.015001519 0.713 -0.055005573 1.3636652e-38 332 284
0.016251646 0.713 -0.055005573 1.2991283e-38 333 284
0.022533838 0.71399999 -0.05508272 7.4620671e-39 338 284
0.023685781 0.71100003 -0.054851279 7.6460982e-39 339 284
0.024932399 0.71100003 -0.054851279 6.3607768e-39 340 284
0.026179021 0.71100003 -0.054851279 6.0841885e-39 341 284
0.02754136 0.71399999 -0.05508272 5.7147067e-39 342 284
0.028793238 0.71399999 -0.05508272 5.5299553e-39 343 284
0.030045118 0.71399999 -0.05508272 5.5278071e-39 344 284
0.031296998 0.71399999 -0.05508272 5.2515804e-39 345 284
0.032640055 0.71600002 -0.055237014 5.7100502e-39 346 284
0.03389544 0.71600002 -0.055237014 5.5260191e-39 347 284
0.035150826 0.71600002 -0.055237014 5.2533909e-39 348 284
0.036406212 0.71600002 -0.055237014 5.3459452e-39 349 284
0.037714198 0.71700001 -0.055314157 5.2541097e-39 350 284
0.038971342 0.71700001 -0.055314157 4.8856874e-39 351 284
0.040228479 0.71700001 -0.055314157 3.137213e-39 352 284
0.041485619 0.71700001 -0.055314157 7.6230636e-43 353 284
0.042742759 0.71700001 -0.055314157 2.7684024e-39 354 284
0.043999899 0.71700001 -0.055314157 1.5491759e-38 355 284
-0.031910665 0.72799999 -0.057439197 4.7945259e-39 295 285
-0.030592158 0.727 -0.057360299 6.7284831e-39 296 285
-0.029317487 0.727 -0.057360299 7.7426336e-39 297 285
-0.028042812 0.727 -0.057360299 8.5709468e-39 298 285
-0.026694499 0.72500002 -0.057202499 8.29472e-39 299 285
-0.025423333 0.72500002 -0.057202499 9.8577017e-39 300 285
-0.024218792 0.727 -0.057360299 1.3084549e-38 301 285
-0.02281788 0.72299999 -0.057044696 1.3176028e-38 302 285
-0.021520413 0.722 -0.056965802 1.0317962e-38 303 285
-0.020170346 0.71899998 -0.056729097 5.9873308e-39 304 285
-0.018857099 0.71700001 -0.056571297 4.6043963e-39 305 285
-0.017599959 0.71700001 -0.056571297 4.514028e-39 306 285
-0.016342819 0.71700001 -0.056571297 4.7909736e-39 307 285
-0.01512776 0.71899998 -0.056729097 5.525666e-39 308 285
-0.013828539 0.71700001 -0.056571297 5.8022515e-39 309 285
-0.0125714 0.71700001 -0.056571297 6.6294954e-39 310 285
-0.01131426 0.71700001 -0.056571297 6.5372984e-39 311 285
-0.01005712 0.71700001 -0.056571297 5.6167658e-39 312 285
-0.0087999795 0.71700001 -0.056571297 4.326027e-39 313 285
-0.0075428397 0.71700001 -0.056571297 2.950298e-39 314 285
-0.0062857 0.71700001 -0.056571297 3.687863e-39 315 285
-0.0050285598 0.71700001 -0.056571297 4.2442864e-39 316 285
-0.00376616 0.71600002 -0.056492399 5.6272209e-39 317 285
-0.0025107733 0.71600002 -0.056492399 7.6454396e-39 318 285
-0.0012553866 0.71600002 -0.056492399 8.2908076e-39 319 285
0 0.71600002 -0.056492399 8.6617355e-39 320 285
0.0012553866 0.71600002 -0.056492399 8.7539325e-39 321 285
0.0025107733 0.71600002 -0.056492399 8.5698958e-39 322 285
0.0037556398 0.71399999 -0.0563346 8.8464841e-39 323 285
0.0050075199 0.71399999 -0.0563346 9.2134715e-39 324 285
0.0062593995 0.71399999 -0.0563346 9.1212759e-39 325 285
0.0075112795 0.71399999 -0.0563346 9.4882395e-39 326 285
0.0087508867 0.713 -0.056255698 9.0272628e-39 327 285
0.0099729598 0.71100003 -0.056097899 9.6690351e-39 328 285
0.01121958 0.71100003 -0.056097899 9.1158613e-39 329 285
0.0124662 0.71100003 -0.056097899 7.3688331e-39 330 285
0.01371282 0.71100003 -0.056097899 6.7234637e-39 331 285
0.015001519 0.713 -0.056255698 6.262138e-39 332 285
0.016251646 0.713 -0.056255698 5.6167686e-39 333 285
0.017501773 0.713 -0.056255698 4.6951878e-39 334 285
0.018751899 0.713 -0.056255698 4.1416539e-39 335 285
0.020030079 0.71399999 -0.0563346 3.5895577e-39 336 285
0.021252153 0.713 -0.056255698 3.4051651e-39 337 285
0.022502279 0.713 -0.056255698 3.5913514e-39 338 285
0.023752406 0.713 -0.056255698 4.052331e-39 339 285
0.025002534 0.713 -0.056255698 3.2276051e-39 340 285
0.026252659 0.713 -0.056255698 3.5967464e-39 341 285
0.02754136 0.71399999 -0.0563346 4.3353848e-39 342 285
0.028793238 0.71399999 -0.0563346 4.7963616e-39 343 285
0.030045118 0.71399999 -0.0563346 5.1637134e-39 344 285
0.031296998 0.71399999 -0.0563346 5.255909e-39 345 285
0.032640055 0.71600002 -0.056492399 5.1633631e-39 346 285
0.03389544 0.71600002 -0.056492399 5.0711674e-39 347 285
0.035150826 0.71600002 -0.056492399 4.7027408e-39 348 285
0.036406212 0.71600002 -0.056492399 4.7949365e-39 349 285
0.037714198 0.71700001 -0.056571297 4.9786047e-39 350 285
0.038971342 0.71700001 -0.056571297 4.9786047e-39 351 285
0.040228479 0.71700001 -0.056571297 3.9658919e-39 352 285
0.041485619 0.71700001 -0.056571297 5.5501368e-40 353 285
0.042742759 0.71700001 -0.056571297 8.0891089e-39 354 285
0.044122629 0.71899998 -0.056729097 2.0812466e-38 355 285
-0.03186683 0.727 -0.058634974 8.4801805e-39 295 286
-0.030592158 0.727 -0.058634974 9.3103139e-39 296 286
-0.029236834 0.72500002 -0.058473669 1.0508857e-38 297 286
-0.027965667 0.72500002 -0.058473669 1.1522286e-38 298 286
-0.026694499 0.72500002 -0.058473669 1.189107e-38 299 286
-0.025423333 0.72500002 -0.058473669 1.2532823e-38 300 286
-0.024218792 0.727 -0.058634974 1.2440627e-38 301 286
-0.022880999 0.72500002 -0.058473669 1.2165122e-38 302 286
-0.021550218 0.72299999 -0.058312356 1.0689633e-38 303 286
-0.020254506 0.722 -0.058231708 5.8998169e-39 304 286
-0.018935999 0.72000003 -0.058070403 4.0559043e-39 305 286
-0.017649053 0.71899998 -0.057989739 4.4257952e-39 306 286
-0.016388407 0.71899998 -0.057989739 4.5183496e-39 307 286
-0.01512776 0.71899998 -0.057989739 4.6998668e-39 308 286
-0.013828539 0.71700001 -0.057828441 4.6998668e-39 309 286
-0.0125714 0.71700001 -0.057828441 3.9666205e-39 310 286
-0.01131426 0.71700001 -0.057828441 4.5197943e-39 311 286
-0.01005712 0.71700001 -0.057828441 4.7949365e-39 312 286
-0.0087999795 0.71700001 -0.057828441 4.7027408e-39 313 286
-0.0075428397 0.71700001 -0.057828441 5.8044165e-39 314 286
-0.0062857 0.71700001 -0.057828441 5.5281883e-39 315 286
-0.0050285598 0.71700001 -0.057828441 4.7949491e-39 316 286
-0.00376616 0.71600002 -0.057747785 4.7027534e-39 317 286
-0.0025107733 0.71600002 -0.057747785 4.3318073e-39 318 286
-0.0012553866 0.71600002 -0.057747785 4.4243617e-39 319 286
0 0.71600002 -0.057747785 4.2417627e-39 320 286
0.0012553866 0.71600002 -0.057747785 4.0573714e-39 321 286
0.0025107733 0.71600002 -0.057747785 3.6918287e-39 322 286
0.0037556398 0.71399999 -0.057586476 4.0606112e-39 323 286
0.0050075199 0.71399999 -0.057586476 4.5190726e-39 324 286
0.0062769335 0.71600002 -0.057747785 4.3346814e-39 325 286
0.0075112795 0.71399999 -0.057586476 3.967324e-39 326 286
0.0087508867 0.713 -0.057505824 4.3357478e-39 327 286
0.010001013 0.713 -0.057505824 5.527454e-39 328 286
0.011251139 0.713 -0.057505824 5.2512273e-39 329 286
0.012501267 0.713 -0.057505824 4.7916925e-39 330 286
0.013751393 0.713 -0.057505824 4.7916925e-39 331 286
0.015001519 0.713 -0.057505824 4.976804e-39 332 286
0.016251646 0.713 -0.057505824 5.1611952e-39 333 286
0.017501773 0.713 -0.057505824 5.0704444e-39 334 286
0.018751899 0.713 -0.057505824 5.0704444e-39 335 286
0.020030079 0.71399999 -0.057586476 5.2530433e-39 336 286
0.021252153 0.713 -0.057505824 5.6214671e-39 337 286
0.022502279 0.713 -0.057505824 5.8966121e-39 338 286
0.023752406 0.713 -0.057505824 5.8966121e-39 339 286
0.025002534 0.713 -0.057505824 5.2541125e-39 340 286
0.026252659 0.713 -0.057505824 5.2541125e-39 341 286
0.02754136 0.71399999 -0.057586476 5.2533909e-39 342 286
0.028793238 0.71399999 -0.057586476 5.2533909e-39 343 286
0.030045118 0.71399999 -0.057586476 5.2533909e-39 344 286
0.031296998 0.71399999 -0.057586476 5.1611952e-39 345 286
0.032640055 0.71600002 -0.057747785 4.6105424e-39 346 286
0.03389544 0.71600002 -0.057747785 4.6105424e-39 347 286
0.035150826 0.71600002 -0.057747785 4.6098235e-39 348 286
0.036406212 0.71600002 -0.057747785 4.6098235e-39 349 286
0.037661601 0.71600002 -0.057747785 4.7030912e-39 350 286
0.038971342 0.71700001 -0.057828441 3.8733305e-39 351 286
0.040228479 0.71700001 -0.057828441 1.4823356e-39 352 286
0.041485619 0.71700001 -0.057828441 4.2482059e-39 353 286
0.042742759 0.71700001 -0.057828441 1.4092239e-38 354 286
-0.03422682 0.72299999 -0.059580017 9.0311864e-39 293 287
-0.032959159 0.72299999 -0.059580017 9.2177049e-39 294 287
-0.021550218 0.72299999 -0.059580017 1.0230475e-38 303 287
-0.020254506 0.722 -0.059497613 5.6271956e-39 304 287
-0.018935999 0.72000003 -0.059332799 3.783283e-39 305 287
-0.017673599 0.72000003 -0.059332799 4.7031094e-39 306 287
-0.016388407 0.71899998 -0.059250388 4.795305e-39 307 287
-0.01512776 0.71899998 -0.059250388 4.6119899e-39 308 287
-0.013867113 0.71899998 -0.059250388 4.5197943e-39 309 287
-0.0125714 0.71700001 -0.059085581 4.2446367e-39 310 287
-0.01131426 0.71700001 -0.059085581 4.5208635e-39 311 287
-0.01005712 0.71700001 -0.059085581 4.336845e-39 312 287
-0.0087999795 0.71700001 -0.059085581 4.336845e-39 313 287
-0.0075428397 0.71700001 -0.059085581 4.7949533e-39 314 287
-0.0062857 0.71700001 -0.059085581 4.8871489e-39 315 287
-0.0050285598 0.71700001 -0.059085581 4.8874992e-39 316 287
-0.0037714199 0.71700001 -0.059085581 4.8874992e-39 317 287
-0.0025107733 0.71600002 -0.059003171 4.7952896e-39 318 287
-0.0012553866 0.71600002 -0.059003171 5.0715177e-39 319 287
0 0.71600002 -0.059003171 4.978599e-39 320 287
0.0012553866 0.71600002 -0.059003171 5.0711534e-39 321 287
0.0025107733 0.71600002 -0.059003171 5.0725995e-39 322 287
0.00376616 0.71600002 -0.059003171 5.0725995e-39 323 287
0.0050075199 0.71399999 -0.058838356 5.4392269e-39 324 287
0.0062593995 0.71399999 -0.058838356 5.1630001e-39 325 287
0.0075112795 0.71399999 -0.058838356 5.0715177e-39 326 287
0.0087631596 0.71399999 -0.058838356 5.0715177e-39 327 287
0.01001504 0.71399999 -0.058838356 5.6218077e-39 328 287
0.011251139 0.713 -0.058755953 5.6218077e-39 329 287
0.012501267 0.713 -0.058755953 5.2555433e-39 330 287
0.013751393 0.713 -0.058755953 5.1633476e-39 331 287
0.015022559 0.71399999 -0.058838356 5.0707849e-39 332 287
0.016274439 0.71399999 -0.058838356 5.4392087e-39 333 287
0.017501773 0.713 -0.058755953 4.7048932e-39 334 287
0.018751899 0.713 -0.058755953 4.6126962e-39 335 287
0.020030079 0.71399999 -0.058838356 4.8867846e-39 336 287
0.021281958 0.71399999 -0.058838356 4.8867846e-39 337 287
0.022533838 0.71399999 -0.058838356 4.6119927e-39 338 287
0.02378572 0.71399999 -0.058838356 4.4272428e-39 339 287
0.025037598 0.71399999 -0.058838356 4.7023849e-39 340 287
0.026289478 0.71399999 -0.058838356 4.6101893e-39 341 287
0.02754136 0.71399999 -0.058838356 4.3353974e-39 342 287
0.028793238 0.71399999 -0.058838356 4.2432018e-39 343 287
0.030045118 0.71399999 -0.058838356 4.2432018e-39 344 287
0.031296998 0.71399999 -0.058838356 4.2432018e-39 345 287
0.032640055 0.71600002 -0.059003171 4.1502887e-39 346 287
0.03389544 0.71600002 -0.059003171 4.2424858e-39 347 287
0.035150826 0.71600002 -0.059003171 4.2428389e-39 348 287
0.036406212 0.71600002 -0.059003171 4.3350345e-39 349 287
0.037661601 0.71600002 -0.059003171 4.5186943e-39 350 287
0.038971342 0.71700001 -0.059085581 3.7811293e-39 351 287
0.040228479 0.71700001 -0.059085581 3.6874553e-39 352 287
0.041485619 0.71700001 -0.059085581 1.1708476e-38 353 287
0.042742759 0.71700001 -0.059085581 1.6958569e-38 354 287
0.044306733 0.722 -0.059497613 2.1199569e-38 355 287
-0.039243106 0.722 -0.060763516 8.7582093e-39 289 288
-0.0379772 0.722 -0.060763516 7.7419148e-39 290 288
-0.03671129 0.722 -0.060763516 7.3731337e-39 291 288
-0.035445385 0.722 -0.060763516 9.028332e-39 292 288
-0.034179479 0.722 -0.060763516 9.765897e-39 293 288
-0.020254506 0.722 -0.060763516 4.6152087e-39 304 288
-0.0189886 0.722 -0.060763516 3.4170243e-39 305 288
-0.017673599 0.72000003 -0.060595199 4.6098235e-39 306 288
-0.0164112 0.72000003 -0.060595199 4.7938547e-39 307 288
-0.0151488 0.72000003 -0.060595199 4.5183496e-39 308 288
-0.013867113 0.71899998 -0.060511041 4.5183496e-39 309 288
-0.0125714 0.71700001 -0.060342718 4.3350345e-39 310 288
-0.01131426 0.71700001 -0.060342718 4.4272301e-39 311 288
-0.01005712 0.71700001 -0.060342718 4.3350317e-39 312 288
-0.0087999795 0.71700001 -0.060342718 4.4272273e-39 313 288
-0.0075428397 0.71700001 -0.060342718 4.7938547e-39 314 288
-0.0062857 0.71700001 -0.060342718 4.8860503e-39 315 288
-0.0050285598 0.71700001 -0.060342718 4.5190726e-39 316 288
-0.00376616 0.71600002 -0.06025856 4.5190726e-39 317 288
-0.0025107733 0.71600002 -0.06025856 4.9782487e-39 318 288
-0.0012553866 0.71600002 -0.06025856 4.8860531e-39 319 288
0 0.71600002 -0.06025856 5.0697255e-39 320 288
0.0012553866 0.71600002 -0.06025856 5.0697255e-39 321 288
0.0025107733 0.71600002 -0.06025856 4.8871349e-39 322 288
0.00376616 0.71600002 -0.06025856 4.8871349e-39 323 288
0.0050075199 0.71399999 -0.060090236 5.0697283e-39 324 288
0.0062593995 0.71399999 -0.060090236 5.2537594e-39 325 288
0.0075112795 0.71399999 -0.060090236 4.9782487e-39 326 288
0.0087631596 0.71399999 -0.060090236 4.9782487e-39 327 288
0.01001504 0.71399999 -0.060090236 5.2533937e-39 328 288
0.011266919 0.71399999 -0.060090236 5.2533937e-39 329 288
0.012518799 0.71399999 -0.060090236 4.9786018e-39 330 288
0.01377068 0.71399999 -0.060090236 4.8864062e-39 331 288
0.015022559 0.71399999 -0.060090236 4.8864034e-39 332 288
0.016274439 0.71399999 -0.060090236 4.7942078e-39 333 288
0.017526319 0.71399999 -0.060090236 4.8860405e-39 334 288
0.018778199 0.71399999 -0.060090236 4.8860405e-39 335 288
0.020030079 0.71399999 -0.060090236 4.7934917e-39 336 288
0.021281958 0.71399999 -0.060090236 4.7934917e-39 337 288
0.022533838 0.71399999 -0.060090236 4.7931358e-39 338 288
0.02378572 0.71399999 -0.060090236 4.7931358e-39 339 288
0.025037598 0.71399999 -0.060090236 4.5176279e-39 340 288
0.026289478 0.71399999 -0.060090236 4.4254309e-39 341 288
0.02754136 0.71399999 -0.060090236 4.1502831e-39 342 288
0.028793238 0.71399999 -0.060090236 4.2428389e-39 343 288
0.03012928 0.71600002 -0.06025856 4.2421186e-39 344 288
0.031384666 0.71600002 -0.06025856 4.2421186e-39 345 288
0.032640055 0.71600002 -0.06025856 4.4261511e-39 346 288
0.03389544 0.71600002 -0.06025856 4.6105424e-39 347 288
0.035150826 0.71600002 -0.06025856 4.3357506e-39 348 288
0.036406212 0.71600002 -0.06025856 4.2435549e-39 349 288
0.037714198 0.71700001 -0.060342718 4.2439053e-39 350 288
0.038971342 0.71700001 -0.060342718 5.5346441e-39 351 288
0.040228479 0.71700001 -0.060342718 9.5797163e-39 352 288
0.041601337 0.71899998 -0.060511041 1.649403e-38 353 288
0.042861983 0.71899998 -0.060511041 1.8798904e-38 354 288
-0.041659199 0.72000003 -0.061857603 9.861673e-39 287 289
-0.040396802 0.72000003 -0.061857603 9.6769258e-39 288 289
-0.039134402 0.72000003 -0.061857603 9.2159476e-39 289 289
-0.013867113 0.71899998 -0.061771683 3.8744221e-39 309 289
-0.0125714 0.71700001 -0.061599858 3.8744221e-39 310 289
-0.01131426 0.71700001 -0.061599858 3.9666177e-39 311 289
-0.01005712 0.71700001 -0.061599858 3.9669709e-39 312 289
-0.0087999795 0.71700001 -0.061599858 4.0591679e-39 313 289
-0.0075428397 0.71700001 -0.061599858 4.0595238e-39 314 289
-0.0062857 0.71700001 -0.061599858 4.0595238e-39 315 289
-0.0050215465 0.71600002 -0.061513945 4.2432046e-39 316 289
-0.00376616 0.71600002 -0.061513945 4.0591735e-39 317 289
-0.0025107733 0.71600002 -0.061513945 4.0591735e-39 318 289
-0.0012553866 0.71600002 -0.061513945 4.2432046e-39 319 289
0 0.71600002 -0.061513945 4.426877e-39 320 289
0.0012553866 0.71600002 -0.061513945 4.426877e-39 321 289
0.0025107733 0.71600002 -0.061513945 4.426877e-39 322 289
0.00376616 0.71600002 -0.061513945 4.426877e-39 323 289
0.0050075199 0.71399999 -0.061342116 4.3346814e-39 324 289
0.0062593995 0.71399999 -0.061342116 4.3346814e-39 325 289
0.0075112795 0.71399999 -0.061342116 4.5179936e-39 326 289
0.0087631596 0.71399999 -0.061342116 4.5179936e-39 327 289
0.01001504 0.71399999 -0.061342116 4.5179936e-39 328 289
0.011266919 0.71399999 -0.061342116 4.5179936e-39 329 289
0.012518799 0.71399999 -0.061342116 4.4257952e-39 330 289
0.01377068 0.71399999 -0.061342116 4.4257952e-39 331 289
0.015022559 0.71399999 -0.061342116 4.5176307e-39 332 289
0.016274439 0.71399999 -0.061342116 4.4250749e-39 333 289
0.017526319 0.71399999 -0.061342116 4.5176279e-39 334 289
0.018778199 0.71399999 -0.061342116 4.4254309e-39 335 289
0.020030079 0.71399999 -0.061342116 4.6087459e-39 336 289
0.021281958 0.71399999 -0.061342116 4.6087459e-39 337 289
0.022533838 0.71399999 -0.061342116 4.6087431e-39 338 289
0.02378572 0.71399999 -0.061342116 4.6087431e-39 339 289
0.025037598 0.71399999 -0.061342116 4.2421158e-39 340 289
0.026289478 0.71399999 -0.061342116 4.1499202e-39 341 289
0.02754136 0.71399999 -0.061342116 3.9669709e-39 342 289
0.028793238 0.71399999 -0.061342116 3.9669709e-39 343 289
0.03012928 0.71600002 -0.061513945 4.2421186e-39 344 289
0.031384666 0.71600002 -0.061513945 4.4261511e-39 345 289
0.032640055 0.71600002 -0.061513945 4.059521e-39 346 289
0.033942781 0.71700001 -0.061599858 4.4283021e-39 347 289
0.035199918 0.71700001 -0.061599858 4.7052464e-39 348 289
0.036457058 0.71700001 -0.061599858 5.25806e-39 349 289
-0.0050215465 0.71600002 -0.062769331 4.2421186e-39 316 290
-0.00376616 0.71600002 -0.062769331 4.4261511e-39 317 290
-0.0025107733 0.71600002 -0.062769331 4.2424829e-39 318 290
-0.0012553866 0.71600002 -0.062769331 4.2424829e-39 319 290
0 0.71600002 -0.062769331 4.3350345e-39 320 290
0.0012553866 0.71600002 -0.062769331 4.2428389e-39 321 290
0.0025107733 0.71600002 -0.062769331 4.0598868e-39 322 290
0.00376616 0.71600002 -0.062769331 3.9676911e-39 323 290
0.0050075199 0.71399999 -0.062593997 4.2421158e-39 324 290
0.0062593995 0.71399999 -0.062593997 4.1499202e-39 325 290
0.0075112795 0.71399999 -0.062593997 4.2421186e-39 326 290
0.0087631596 0.71399999 -0.062593997 4.2421186e-39 327 290
0.01001504 0.71399999 -0.062593997 4.2417627e-39 328 290
0.011266919 0.71399999 -0.062593997 4.2417627e-39 329 290
0.012518799 0.71399999 -0.062593997 4.1495671e-39 330 290
0.01377068 0.71399999 -0.062593997 4.1495671e-39 331 290
0.015022559 0.71399999 -0.062593997 4.1495642e-39 332 290
0.016274439 0.71399999 -0.062593997 4.1495642e-39 333 290
0.017526319 0.71399999 -0.062593997 4.3332324e-39 334 290
0.018778199 0.71399999 -0.062593997 4.3332324e-39 335 290
0.020030079 0.71399999 -0.062593997 4.4247092e-39 336 290
0.021281958 0.71399999 -0.062593997 4.6087403e-39 337 290
0.022533838 0.71399999 -0.062593997 4.2424661e-39 338 290
0.02378572 0.71399999 -0.062593997 4.4264987e-39 339 290
