# .PCD v.7 - Point Cloud Data file format
FIELDS x y z rgb imX imY
SIZE 4 4 4 4 4 4
TYPE F F F F F F
COUNT 1 1 1 1 1 1
WIDTH 830
HEIGHT 1
VIEWPOINT 0 0 0 1 0 0 0
POINTS 830
DATA ascii
-0.0024476533 0.69800001 -0.030595668 5.4301521e-39 318 265
-0.0012238267 0.69800001 -0.030595668 5.4301521e-39 319 265
0 0.69800001 -0.030595668 5.4301521e-39 320 265
0.0012273333 0.69999999 -0.030683333 5.5223477e-39 321 265
0.0024546667 0.69999999 -0.030683333 5.5230652e-39 322 265
0.0036819996 0.69999999 -0.030683333 5.6152608e-39 323 265
0.0049093333 0.69999999 -0.030683333 5.5223449e-39 324 265
0.0061366665 0.69999999 -0.030683333 5.7063774e-39 325 265
0.0073745195 0.70099998 -0.030727165 6.1662668e-39 326 265
0.0086036054 0.70099998 -0.030727165 6.350658e-39 327 265
0.0098607466 0.70300001 -0.030814834 6.7201468e-39 328 265
0.01109334 0.70300001 -0.030814834 6.8123424e-39 329 265
0.012325933 0.70300001 -0.030814834 7.1782453e-39 330 265
0.013558527 0.70300001 -0.030814834 6.9942127e-39 331 265
0.014791119 0.70300001 -0.030814834 6.9023829e-39 332 265
0.016046507 0.704 -0.030858666 6.5339605e-39 333 265
0.017280852 0.704 -0.030858666 6.4417746e-39 334 265
0.018515198 0.704 -0.030858666 6.1655479e-39 335 265
0.019805651 0.70599997 -0.030946331 6.349579e-39 336 265
0.021073313 0.70700002 -0.030990168 6.534329e-39 337 265
0.022344479 0.708 -0.031034 6.5350451e-39 338 265
0.023652466 0.70999998 -0.031121666 6.6272407e-39 339 265
0.024897331 0.70999998 -0.031121666 6.9023829e-39 340 265
0.026179021 0.71100003 -0.031165501 6.9949386e-39 341 265
0.027425639 0.71100003 -0.031165501 7.1782509e-39 342 265
0.028752912 0.713 -0.031253166 7.1782509e-39 343 265
0.03012928 0.71600002 -0.031384666 6.9938624e-39 344 265
0.031516165 0.71899998 -0.031516165 6.8094712e-39 345 265
0.0328224 0.72000003 -0.03156 6.8091152e-39 346 265
0.034179479 0.722 -0.031647664 6.9016696e-39 347 265
0.035445385 0.722 -0.031647664 6.9023829e-39 348 265
0.036762137 0.72299999 -0.031691495 7.1793299e-39 349 265
0.038029801 0.72299999 -0.031691495 7.3633582e-39 350 265
0.039297458 0.72299999 -0.031691495 6.9949358e-39 351 265
0.040565118 0.72299999 -0.031691495 6.1680646e-39 352 265
0.041832779 0.72299999 -0.031691495 9.6714986e-39 353 265
0.043100435 0.72299999 -0.031691495 1.1145204e-38 354 265
-0.070301652 0.71600002 -0.032640055 1.4744078e-38 264 266
-0.069046266 0.71600002 -0.032640055 1.3637371e-38 265 266
-0.067601517 0.71399999 -0.032548878 8.4682862e-39 266 266
-0.066349633 0.71399999 -0.032548878 7.4541343e-39 267 266
-0.065006584 0.713 -0.032503292 9.1132703e-39 268 266
-0.063577622 0.71100003 -0.032412119 9.1132703e-39 269 266
-0.062243331 0.70999998 -0.032366529 9.0210747e-39 270 266
-0.060740728 0.70700002 -0.032229774 8.928879e-39 271 266
-0.059416957 0.70599997 -0.032184184 9.0199929e-39 272 266
-0.058179103 0.70599997 -0.032184184 9.0199929e-39 273 266
-0.056779943 0.704 -0.032093015 9.1125416e-39 274 266
-0.0554667 0.70300001 -0.032047424 9.1125416e-39 275 266
-0.054234106 0.70300001 -0.032047424 9.0203432e-39 276 266
-0.052850723 0.70099998 -0.031956252 8.8363107e-39 277 266
-0.051547997 0.69999999 -0.031910665 8.7448339e-39 278 266
-0.050176892 0.69800001 -0.031819493 8.7448339e-39 279 266
-0.048953064 0.69800001 -0.031819493 8.6533627e-39 280 266
-0.047729239 0.69800001 -0.031819493 8.6533627e-39 281 266
-0.046505414 0.69800001 -0.031819493 9.2040184e-39 282 266
-0.045216713 0.69700003 -0.03177391 9.4802451e-39 283 266
-0.043994639 0.69700003 -0.03177391 9.3898376e-39 284 266
-0.042772565 0.69700003 -0.03177391 9.850457e-39 285 266
-0.041490879 0.69599998 -0.031728316 9.8508073e-39 286 266
-0.040270556 0.69599998 -0.031728316 9.7586117e-39 287 266
-0.039050236 0.69599998 -0.031728316 9.9404848e-39 288 266
-0.037829921 0.69599998 -0.031728316 9.5717023e-39 289 266
-0.036504399 0.69400001 -0.031637147 8.9267056e-39 290 266
-0.035287585 0.69400001 -0.031637147 8.5579217e-39 291 266
-0.034070771 0.69400001 -0.031637147 7.914367e-39 292 266
-0.032853961 0.69400001 -0.031637147 7.914367e-39 293 266
-0.031637147 0.69400001 -0.031637147 7.4559098e-39 294 266
-0.0303765 0.69300002 -0.031591557 7.4559098e-39 295 266
-0.029161438 0.69300002 -0.031591557 7.7310547e-39 296 266
-0.027946379 0.69300002 -0.031591557 7.9154474e-39 297 266
-0.026769891 0.69400001 -0.031637147 8.0065626e-39 298 266
-0.025553079 0.69400001 -0.031637147 8.0065626e-39 299 266
-0.024336265 0.69400001 -0.031637147 7.7307044e-39 300 266
-0.023186078 0.69599998 -0.031728316 7.2697276e-39 301 266
-0.02199732 0.69700003 -0.03177391 6.6272435e-39 302 266
-0.020775247 0.69700003 -0.03177391 6.350658e-39 303 266
-0.019553173 0.69700003 -0.03177391 5.9840391e-39 304 266
-0.018331099 0.69700003 -0.03177391 5.9840391e-39 305 266
-0.017084479 0.69599998 -0.031728316 5.6159825e-39 306 266
-0.015864158 0.69599998 -0.031728316 5.6159825e-39 307 266
-0.014643839 0.69599998 -0.031728316 5.7985758e-39 308 266
-0.013423519 0.69599998 -0.031728316 5.7985758e-39 309 266
-0.0122032 0.69599998 -0.031728316 5.8900526e-39 310 266
-0.01099866 0.69700003 -0.03177391 5.797857e-39 311 266
-0.0097765867 0.69700003 -0.03177391 5.70566e-39 312 266
-0.0085545136 0.69700003 -0.03177391 5.6134643e-39 313 266
-0.0073429602 0.69800001 -0.031819493 5.7049439e-39 314 266
-0.006119133 0.69800001 -0.031819493 5.5201939e-39 315 266
-0.0048953067 0.69800001 -0.031819493 5.5212687e-39 316 266
-0.0036714801 0.69800001 -0.031819493 5.6134643e-39 317 266
-0.0024476533 0.69800001 -0.031819493 5.3386725e-39 318 266
-0.0012238267 0.69800001 -0.031819493 5.3386725e-39 319 266
0 0.69999999 -0.031910665 5.3386725e-39 320 266
0.0012273333 0.69999999 -0.031910665 5.4308681e-39 321 266
0.0024546667 0.69999999 -0.031910665 5.3401158e-39 322 266
0.0036819996 0.69999999 -0.031910665 5.1557232e-39 323 266
0.0049163462 0.70099998 -0.031956252 5.3383194e-39 324 266
0.0061454331 0.70099998 -0.031956252 5.430515e-39 325 266
0.0073955595 0.70300001 -0.032047424 5.340106e-39 326 266
0.0086281532 0.70300001 -0.032047424 5.8929197e-39 327 266
0.0098607466 0.70300001 -0.032047424 6.2609665e-39 328 266
0.01109334 0.70300001 -0.032047424 6.5371947e-39 329 266
0.012325933 0.70300001 -0.032047424 7.0874818e-39 330 266
0.013558527 0.70300001 -0.032047424 6.9952861e-39 331 266
0.014791119 0.70300001 -0.032047424 6.9020171e-39 332 266
0.016046507 0.704 -0.032093015 6.8098215e-39 333 266
0.017280852 0.704 -0.032093015 6.4414117e-39 334 266
0.018515198 0.704 -0.032093015 6.4414117e-39 335 266
0.019805651 0.70599997 -0.032184184 6.2588183e-39 336 266
0.021073313 0.70700002 -0.032229774 6.6272407e-39 337 266
0.022344479 0.708 -0.03227536 6.7201468e-39 338 266
0.023652466 0.70999998 -0.032366529 6.8123424e-39 339 266
0.024897331 0.70999998 -0.032366529 6.8116208e-39 340 266
0.026179021 0.71100003 -0.032412119 6.9956519e-39 341 266
0.027425639 0.71100003 -0.032412119 7.2704437e-39 342 266
0.028752912 0.713 -0.032503292 7.1782481e-39 343 266
0.03012928 0.71600002 -0.032640055 6.9016668e-39 344 266
0.03156 0.72000003 -0.0328224 6.8094712e-39 345 266
0.0328224 0.72000003 -0.0328224 6.5343262e-39 346 266
0.03422682 0.72299999 -0.032959159 6.6265218e-39 347 266
0.035494477 0.72299999 -0.032959159 6.8112704e-39 348 266
0.036762137 0.72299999 -0.032959159 7.0874972e-39 349 266
0.038135 0.72500002 -0.033050332 7.0878503e-39 350 266
0.039406165 0.72500002 -0.033050332 6.9956547e-39 351 266
0.040677335 0.72500002 -0.033050332 7.4552063e-39 352 266
0.041948501 0.72500002 -0.033050332 1.1051196e-38 353 266
0.043219667 0.72500002 -0.033050332 1.1148443e-38 354 266
-0.070007093 0.713 -0.033753417 1.382105e-38 264 267
-0.068756968 0.713 -0.033753417 1.1515799e-38 265 267
-0.067317478 0.71100003 -0.033658739 7.8239958e-39 266 267
-0.066070862 0.71100003 -0.033658739 8.1924182e-39 267 267
-0.064824238 0.71100003 -0.033658739 9.1132703e-39 268 267
-0.063488193 0.70999998 -0.033611398 9.0210747e-39 269 267
-0.062068 0.708 -0.033516716 9.1121885e-39 270 267
-0.060740728 0.70700002 -0.033469379 9.0199929e-39 271 267
-0.059248637 0.704 -0.03332736 8.8366778e-39 272 267
-0.058014292 0.704 -0.03332736 8.9288734e-39 273 267
-0.056699295 0.70300001 -0.033280019 8.9288734e-39 274 267
-0.0554667 0.70300001 -0.033280019 8.8366778e-39 275 267
-0.054079808 0.70099998 -0.03318534 8.8359617e-39 276 267
-0.052775331 0.69999999 -0.033137999 8.7437647e-39 277 267
-0.051547997 0.69999999 -0.033137999 8.7437647e-39 278 267
-0.050176892 0.69800001 -0.033043321 8.7437647e-39 279 267
-0.048953064 0.69800001 -0.033043321 9.0199901e-39 280 267
-0.047729239 0.69800001 -0.033043321 9.2969357e-39 281 267
-0.046438783 0.69700003 -0.03299598 9.2047401e-39 282 267
-0.045216713 0.69700003 -0.03299598 9.3891313e-39 283 267
-0.043994639 0.69700003 -0.03299598 9.4816829e-39 284 267
-0.042772565 0.69700003 -0.03299598 9.8501067e-39 285 267
-0.041490879 0.69599998 -0.032948639 1.0035926e-38 286 267
-0.040270556 0.69599998 -0.032948639 9.9433715e-39 287 267
-0.039050236 0.69599998 -0.032948639 9.575668e-39 288 267
-0.037829921 0.69599998 -0.032948639 9.1146898e-39 289 267
-0.036609598 0.69599998 -0.032948639 8.5611685e-39 290 267
-0.035287585 0.69400001 -0.032853961 7.9158005e-39 291 267
-0.034070771 0.69400001 -0.032853961 8.0054906e-39 292 267
-0.032853961 0.69400001 -0.032853961 8.0054906e-39 293 267
-0.031637147 0.69400001 -0.032853961 7.5473893e-39 294 267
-0.0303765 0.69300002 -0.03280662 7.8236175e-39 295 267
-0.029161438 0.69300002 -0.03280662 7.8236147e-39 296 267
-0.027946379 0.69300002 -0.03280662 8.0083647e-39 297 267
-0.026769891 0.69400001 -0.032853961 7.9161662e-39 298 267
-0.025553079 0.69400001 -0.032853961 7.8239706e-39 299 267
-0.024336265 0.69400001 -0.032853961 7.1800459e-39 300 267
-0.023119451 0.69400001 -0.032853961 6.9956547e-39 301 267
-0.021965759 0.69599998 -0.032948639 6.5350451e-39 302 267
-0.020775247 0.69700003 -0.03299598 6.2588183e-39 303 267
-0.019553173 0.69700003 -0.03299598 5.8911218e-39 304 267
-0.018331099 0.69700003 -0.03299598 5.8911218e-39 305 267
-0.017084479 0.69599998 -0.032948639 5.798929e-39 306 267
-0.015864158 0.69599998 -0.032948639 5.7067333e-39 307 267
-0.014643839 0.69599998 -0.032948639 5.7063774e-39 308 267
-0.013423519 0.69599998 -0.032948639 5.7063774e-39 309 267
-0.0122032 0.69599998 -0.032948639 5.8882505e-39 310 267
-0.010982879 0.69599998 -0.032948639 5.7960549e-39 311 267
-0.0097765867 0.69700003 -0.03299598 5.5212687e-39 312 267
-0.0085545136 0.69700003 -0.03299598 5.3368788e-39 313 267
-0.00733244 0.69700003 -0.03299598 5.5205498e-39 314 267
-0.006119133 0.69800001 -0.033043321 5.5205498e-39 315 267
-0.0048953067 0.69800001 -0.033043321 5.3379536e-39 316 267
-0.0036714801 0.69800001 -0.033043321 5.4301493e-39 317 267
-0.0024476533 0.69800001 -0.033043321 5.3386725e-39 318 267
-0.0012273333 0.69999999 -0.033137999 5.3386725e-39 319 267
0 0.69999999 -0.033137999 5.3383166e-39 320 267
0.0012273333 0.69999999 -0.033137999 5.4308709e-39 321 267
0.0024546667 0.69999999 -0.033137999 5.430515e-39 322 267
0.0036872597 0.70099998 -0.03318534 5.0620926e-39 323 267
0.0049163462 0.70099998 -0.03318534 5.1524904e-39 324 267
0.0061629666 0.70300001 -0.033280019 5.244686e-39 325 267
0.0073955595 0.70300001 -0.033280019 5.4312213e-39 326 267
0.0086404262 0.704 -0.03332736 5.8000052e-39 327 267
0.0098747732 0.704 -0.03332736 6.5364786e-39 328 267
0.011109119 0.704 -0.03332736 6.8127054e-39 329 267
0.012343466 0.704 -0.03332736 7.1803991e-39 330 267
0.013577812 0.704 -0.03332736 7.0882034e-39 331 267
0.014812159 0.704 -0.03332736 6.9956519e-39 332 267
0.016046507 0.704 -0.03332736 6.5350325e-39 333 267
0.017329946 0.70599997 -0.033422034 6.4421306e-39 334 267
0.018594101 0.70700002 -0.033469379 6.3499349e-39 335 267
0.019833706 0.70700002 -0.033469379 6.2595344e-39 336 267
0.021103119 0.708 -0.033516716 6.5364814e-39 337 267
0.022407599 0.70999998 -0.033611398 6.8123424e-39 338 267
0.023685781 0.71100003 -0.033658739 6.8123424e-39 339 267
0.024932399 0.71100003 -0.033658739 7.0871314e-39 340 267
0.026252659 0.713 -0.033753417 7.0871314e-39 341 267
0.027502786 0.713 -0.033753417 7.2704437e-39 342 267
0.028873893 0.71600002 -0.03389544 7.1782481e-39 343 267
0.030171359 0.71700001 -0.033942781 6.9927834e-39 344 267
0.03156 0.72000003 -0.034084801 6.9927834e-39 345 267
0.032913569 0.722 -0.034179479 6.5343262e-39 346 267
0.03422682 0.72299999 -0.03422682 6.7187175e-39 347 267
0.035494477 0.72299999 -0.03422682 6.8112704e-39 348 267
0.036863834 0.72500002 -0.034321502 6.9953016e-39 349 267
0.038135 0.72500002 -0.034321502 7.0875e-39 350 267
0.039406165 0.72500002 -0.034321502 7.7328694e-39 351 267
0.040677335 0.72500002 -0.034321502 8.9307091e-39 352 267
0.041948501 0.72500002 -0.034321502 1.1051209e-38 353 267
-0.070105277 0.71399999 -0.035052639 1.3084201e-38 264 268
-0.068756968 0.713 -0.035003547 9.7651585e-39 265 268
-0.067317478 0.71100003 -0.034905359 7.8247119e-39 266 268
-0.065977924 0.70999998 -0.034856264 8.28569e-39 267 268
-0.064733058 0.70999998 -0.034856264 8.9285231e-39 268 268
-0.063309364 0.708 -0.034758076 8.8363275e-39 269 268
-0.062068 0.708 -0.034758076 8.6519348e-39 270 268
-0.060654808 0.70599997 -0.034659892 8.6519348e-39 271 268
-0.059248637 0.704 -0.034561705 8.4686198e-39 272 268
-0.058014292 0.704 -0.034561705 8.5608168e-39 273 268
-0.056699295 0.70300001 -0.034512613 8.7441318e-39 274 268
-0.055308893 0.70099998 -0.034414422 8.6519348e-39 275 268
-0.054002665 0.69999999 -0.034365334 8.4682666e-39 276 268
-0.052775331 0.69999999 -0.034365334 8.376071e-39 277 268
-0.051400717 0.69800001 -0.034267146 8.467545e-39 278 268
-0.050176892 0.69800001 -0.034267146 8.6519348e-39 279 268
-0.048882935 0.69700003 -0.034218054 8.744129e-39 280 268
-0.047660861 0.69700003 -0.034218054 8.8363247e-39 281 268
-0.046438783 0.69700003 -0.034218054 9.2043841e-39 282 268
-0.045216713 0.69700003 -0.034218054 9.3891341e-39 283 268
-0.043994639 0.69700003 -0.034218054 9.4824031e-39 284 268
-0.042711195 0.69599998 -0.034168959 9.75899e-39 285 268
-0.041490879 0.69599998 -0.034168959 9.9433715e-39 286 268
-0.040270556 0.69599998 -0.034168959 1.0035926e-38 287 268
-0.039050236 0.69599998 -0.034168959 9.9433617e-39 288 268
-0.037721213 0.69400001 -0.034070771 9.4823835e-39 289 268
-0.036504399 0.69400001 -0.034070771 8.7441122e-39 290 268
-0.035287585 0.69400001 -0.034070771 8.0987428e-39 291 268
-0.034070771 0.69400001 -0.034070771 7.7307016e-39 292 268
-0.03280662 0.69300002 -0.034021679 7.638506e-39 293 268
-0.031591557 0.69300002 -0.034021679 7.8229e-39 294 268
-0.0303765 0.69300002 -0.034021679 7.915097e-39 295 268
-0.029161438 0.69300002 -0.034021679 8.1909553e-39 296 268
-0.027946379 0.69300002 -0.034021679 8.2835096e-39 297 268
-0.026769891 0.69400001 -0.034070771 8.007643e-39 298 268
-0.025553079 0.69400001 -0.034070771 7.8232503e-39 299 268
-0.024336265 0.69400001 -0.034070771 7.4548406e-39 300 268
-0.023119451 0.69400001 -0.034070771 6.9938624e-39 301 268
-0.021965759 0.69599998 -0.034168959 6.7172853e-39 302 268
-0.020775247 0.69700003 -0.034218054 6.4410586e-39 303 268
-0.019553173 0.69700003 -0.034218054 5.798929e-39 304 268
-0.018331099 0.69700003 -0.034218054 5.798929e-39 305 268
-0.017084479 0.69599998 -0.034168959 5.7063774e-39 306 268
-0.015864158 0.69599998 -0.034168959 5.5223449e-39 307 268
-0.014643839 0.69599998 -0.034168959 5.4301521e-39 308 268
-0.013423519 0.69599998 -0.034168959 5.4301521e-39 309 268
-0.0122032 0.69599998 -0.034168959 5.5209128e-39 310 268
-0.010982879 0.69599998 -0.034168959 5.3368816e-39 311 268
-0.0097765867 0.69700003 -0.034218054 5.3368816e-39 312 268
-0.0085545136 0.69700003 -0.034218054 5.3368816e-39 313 268
-0.00733244 0.69700003 -0.034218054 5.4279955e-39 314 268
-0.006119133 0.69800001 -0.034267146 5.5205498e-39 315 268
-0.0048953067 0.69800001 -0.034267146 5.1546414e-39 316 268
-0.0036714801 0.69800001 -0.034267146 5.3386725e-39 317 268
-0.0024546667 0.69999999 -0.034365334 5.4301521e-39 318 268
-0.0012273333 0.69999999 -0.034365334 5.3375977e-39 319 268
0 0.69999999 -0.034365334 5.3383194e-39 320 268
0.0012273333 0.69999999 -0.034365334 5.1542882e-39 321 268
0.0024581731 0.70099998 -0.034414422 5.0617395e-39 322 268
0.0036872597 0.70099998 -0.034414422 4.7847925e-39 323 268
0.0049163462 0.70099998 -0.034414422 4.5085657e-39 324 268
0.0061629666 0.70300001 -0.034512613 4.7847925e-39 325 268
0.0073955595 0.70300001 -0.034512613 4.787298e-39 326 268
0.0086404262 0.704 -0.034561705 5.524863e-39 327 268
0.0098747732 0.704 -0.034561705 6.2616896e-39 328 268
0.011109119 0.704 -0.034561705 6.630112e-39 329 268
0.012343466 0.704 -0.034561705 7.4562629e-39 330 268
0.013577812 0.704 -0.034561705 7.3640673e-39 331 268
0.014854239 0.70599997 -0.034659892 7.1786012e-39 332 268
0.016092092 0.70599997 -0.034659892 6.8098187e-39 333 268
0.017354494 0.70700002 -0.034708988 6.6247212e-39 334 268
0.018594101 0.70700002 -0.034708988 6.7172755e-39 335 268
0.01986176 0.708 -0.034758076 6.3510111e-39 336 268
0.021162732 0.70999998 -0.034856264 6.7197937e-39 337 268
0.022407599 0.70999998 -0.034856264 6.8119865e-39 338 268
0.023685781 0.71100003 -0.034905359 6.8119865e-39 339 268
0.025002534 0.713 -0.035003547 7.0878503e-39 340 268
0.026289478 0.71399999 -0.035052639 6.9956547e-39 341 268
0.027618507 0.71600002 -0.035150826 7.1778949e-39 342 268
0.028914221 0.71700001 -0.035199918 6.9016668e-39 343 268
0.030255521 0.71899998 -0.035298105 6.8091152e-39 344 268
0.031647664 0.722 -0.035445385 6.8091152e-39 345 268
0.032913569 0.722 -0.035445385 6.7190734e-39 346 268
0.03422682 0.72299999 -0.035494477 6.8112704e-39 347 268
0.035494477 0.72299999 -0.035494477 6.7194405e-39 348 268
0.036863834 0.72500002 -0.035592668 6.8116362e-39 349 268
0.038135 0.72500002 -0.035592668 6.6294085e-39 350 268
0.039514873 0.727 -0.035690852 8.1045386e-39 351 268
0.040789545 0.727 -0.035690852 9.211612e-39 352 268
-0.071357153 0.71399999 -0.036304519 1.5389811e-38 263 269
-0.070105277 0.71399999 -0.036304519 1.2161522e-38 264 269
-0.068467662 0.70999998 -0.036101133 8.1971098e-39 265 269
-0.067222796 0.70999998 -0.036101133 8.0087332e-39 266 269
-0.065977924 0.70999998 -0.036101133 8.6541026e-39 267 269
-0.06455072 0.708 -0.03599944 8.744129e-39 268 269
-0.063309364 0.708 -0.03599944 8.4679009e-39 269 269
-0.061980337 0.70700002 -0.035948593 8.3753549e-39 270 269
-0.060654808 0.70599997 -0.035897743 8.2828006e-39 271 269
-0.059248637 0.704 -0.035796054 8.1002072e-39 272 269
-0.058014292 0.704 -0.035796054 8.2845984e-39 273 269
-0.056699295 0.70300001 -0.035745207 8.744129e-39 274 269
-0.055308893 0.70099998 -0.035643511 8.651932e-39 275 269
-0.054002665 0.69999999 -0.035592664 8.4686169e-39 276 269
-0.052624546 0.69800001 -0.035490975 8.4686169e-39 277 269
-0.051400717 0.69800001 -0.035490975 8.467545e-39 278 269
-0.050176892 0.69800001 -0.035490975 8.6519348e-39 279 269
-0.048882935 0.69700003 -0.035440128 8.7430556e-39 280 269
-0.047660861 0.69700003 -0.035440128 8.8356114e-39 281 269
-0.046438783 0.69700003 -0.035440128 9.1118354e-39 282 269
-0.045216713 0.69700003 -0.035440128 9.2965854e-39 283 269
-0.043931518 0.69599998 -0.035389278 9.48205e-39 284 269
-0.042711195 0.69599998 -0.035389278 9.6664413e-39 285 269
-0.041490879 0.69599998 -0.035389278 9.760425e-39 286 269
-0.040270556 0.69599998 -0.035389278 9.760425e-39 287 269
-0.039050236 0.69599998 -0.035389278 9.760062e-39 288 269
-0.037721213 0.69400001 -0.035287585 9.2990853e-39 289 269
-0.036504399 0.69400001 -0.035287585 8.8370337e-39 290 269
-0.035287585 0.69400001 -0.035287585 8.2838599e-39 291 269
-0.034070771 0.69400001 -0.035287585 7.8236175e-39 292 269
-0.03280662 0.69300002 -0.035236739 7.4551937e-39 293 269
-0.031591557 0.69300002 -0.035236739 7.7303485e-39 294 269
-0.0303765 0.69300002 -0.035236739 7.9147411e-39 295 269
-0.029161438 0.69300002 -0.035236739 8.0072927e-39 296 269
-0.027946379 0.69300002 -0.035236739 8.0072927e-39 297 269
-0.026769891 0.69400001 -0.035287585 7.8236203e-39 298 269
-0.025553079 0.69400001 -0.035287585 7.4548378e-39 299 269
-0.024336265 0.69400001 -0.035287585 7.0864252e-39 300 269
-0.023119451 0.69400001 -0.035287585 6.8098369e-39 301 269
-0.021902639 0.69400001 -0.035287585 6.258468e-39 302 269
-0.020745439 0.69599998 -0.035389278 6.1659136e-39 303 269
-0.019553173 0.69700003 -0.035440128 5.8904085e-39 304 269
-0.018331099 0.69700003 -0.035440128 5.8904085e-39 305 269
-0.017084479 0.69599998 -0.035389278 5.7063774e-39 306 269
-0.015864158 0.69599998 -0.035389278 5.5223449e-39 307 269
-0.014643839 0.69599998 -0.035389278 5.6131084e-39 308 269
-0.013423519 0.69599998 -0.035389278 5.5209128e-39 309 269
-0.0122032 0.69599998 -0.035389278 5.3368816e-39 310 269
-0.010982879 0.69599998 -0.035389278 5.3368816e-39 311 269
-0.0097765867 0.69700003 -0.035440128 5.2454049e-39 312 269
-0.0085545136 0.69700003 -0.035440128 5.2454049e-39 313 269
-0.00733244 0.69700003 -0.035440128 5.3368788e-39 314 269
-0.006119133 0.69800001 -0.035490975 5.5212687e-39 315 269
-0.0048953067 0.69800001 -0.035490975 5.3383166e-39 316 269
-0.0036714801 0.69800001 -0.035490975 5.3383166e-39 317 269
-0.0024546667 0.69999999 -0.035592664 5.3383194e-39 318 269
-0.0012273333 0.69999999 -0.035592664 5.1542882e-39 319 269
0 0.69999999 -0.035592664 5.3383194e-39 320 269
0.0012273333 0.69999999 -0.035592664 5.0620926e-39 321 269
0.0024581731 0.70099998 -0.035643511 4.8766252e-39 322 269
0.0036872597 0.70099998 -0.035643511 4.5996795e-39 323 269
0.0049163462 0.70099998 -0.035643511 4.4163673e-39 324 269
0.0061629666 0.70300001 -0.035745207 4.5085629e-39 325 269
0.0074060797 0.704 -0.035796054 4.9706102e-39 326 269
0.0086404262 0.704 -0.035796054 5.6159797e-39 327 269
0.0098747732 0.704 -0.035796054 6.628677e-39 328 269
0.011109119 0.704 -0.035796054 6.9049038e-39 329 269
0.012378532 0.70599997 -0.035897743 7.3647931e-39 330 269
0.013616386 0.70599997 -0.035897743 7.2725975e-39 331 269
0.014854239 0.70599997 -0.035897743 7.0871286e-39 332 269
0.016092092 0.70599997 -0.035897743 6.7183447e-39 333 269
0.017354494 0.70700002 -0.035948593 6.5336045e-39 334 269
0.018594101 0.70700002 -0.035948593 6.5336045e-39 335 269
0.01986176 0.708 -0.03599944 6.5350451e-39 336 269
0.021162732 0.70999998 -0.036101133 6.7194377e-39 337 269
0.022407599 0.70999998 -0.036101133 6.8119865e-39 338 269
0.023685781 0.71100003 -0.036151983 6.8119865e-39 339 269
0.025002534 0.713 -0.036253672 7.0871342e-39 340 269
0.026289478 0.71399999 -0.036304519 7.0871342e-39 341 269
0.027657079 0.71700001 -0.036457058 6.9938624e-39 342 269
0.028994869 0.71899998 -0.036558751 6.9016668e-39 343 269
0.0302976 0.72000003 -0.036609601 6.9016696e-39 344 269
0.031647664 0.722 -0.03671129 6.9938652e-39 345 269
0.032959159 0.72299999 -0.036762137 6.7197937e-39 346 269
0.034321502 0.72500002 -0.036863834 6.8119893e-39 347 269
0.035592668 0.72500002 -0.036863834 6.6283239e-39 348 269
0.036863834 0.72500002 -0.036863834 6.9967463e-39 349 269
0.038292799 0.72799999 -0.037016369 7.183311e-39 350 269
0.039569225 0.72799999 -0.037016369 8.5662454e-39 351 269
-0.071057342 0.71100003 -0.037398599 1.520542e-38 263 270
-0.069810718 0.71100003 -0.037398599 1.0871859e-38 264 270
-0.068467662 0.70999998 -0.037345998 6.9074471e-39 265 270
-0.067222796 0.70999998 -0.037345998 8.8381281e-39 266 270
-0.065792084 0.708 -0.0372408 8.6533782e-39 267 270
-0.06455072 0.708 -0.0372408 8.651932e-39 268 270
-0.063309364 0.708 -0.0372408 8.0987596e-39 269 270
-0.061980337 0.70700002 -0.037188202 7.8225469e-39 270 270
-0.060654808 0.70599997 -0.037135597 7.8225469e-39 271 270
-0.059248637 0.704 -0.037030395 7.91546e-39 272 270
-0.057931885 0.70300001 -0.036977798 8.1924056e-39 273 270
-0.056699295 0.70300001 -0.036977798 8.4686198e-39 274 270
-0.055308893 0.70099998 -0.036872596 8.5608168e-39 275 270
-0.054002665 0.69999999 -0.036819998 8.744485e-39 276 270
-0.052624546 0.69800001 -0.0367148 8.744485e-39 277 270
-0.051400717 0.69800001 -0.0367148 8.5608168e-39 278 270
-0.050176892 0.69800001 -0.0367148 8.5608168e-39 279 270
-0.048882935 0.69700003 -0.036662199 8.5608168e-39 280 270
-0.047660861 0.69700003 -0.036662199 8.5608168e-39 281 270
-0.046438783 0.69700003 -0.036662199 8.8363247e-39 282 270
-0.045216713 0.69700003 -0.036662199 9.1132703e-39 283 270
-0.043931518 0.69599998 -0.036609598 9.2987378e-39 284 270
-0.042711195 0.69599998 -0.036609598 9.6671601e-39 285 270
-0.041490879 0.69599998 -0.036609598 9.7597061e-39 286 270
-0.040154841 0.69400001 -0.036504399 9.7597061e-39 287 270
-0.038938027 0.69400001 -0.036504399 9.574596e-39 288 270
-0.037721213 0.69400001 -0.036504399 9.1136178e-39 289 270
-0.036451802 0.69300002 -0.036451802 8.744485e-39 290 270
-0.035236739 0.69300002 -0.036451802 8.3757025e-39 291 270
-0.034021679 0.69300002 -0.036451802 7.9154502e-39 292 270
-0.03280662 0.69300002 -0.036451802 7.7306988e-39 293 270
-0.031591557 0.69300002 -0.036451802 7.4555566e-39 294 270
-0.0303765 0.69300002 -0.036451802 7.5477523e-39 295 270
-0.029161438 0.69300002 -0.036451802 7.6395878e-39 296 270
-0.027946379 0.69300002 -0.036451802 7.5470334e-39 297 270
-0.026769891 0.69400001 -0.036504399 7.3622918e-39 298 270
-0.025553079 0.69400001 -0.036504399 7.1779006e-39 299 270
-0.024336265 0.69400001 -0.036504399 6.6268918e-39 300 270
-0.023119451 0.69400001 -0.036504399 6.5346947e-39 301 270
-0.021902639 0.69400001 -0.036504399 6.1659164e-39 302 270
-0.020745439 0.69599998 -0.036609598 6.0737208e-39 303 270
-0.019553173 0.69700003 -0.036662199 5.7063774e-39 304 270
-0.018331099 0.69700003 -0.036662199 5.7063774e-39 305 270
-0.017084479 0.69599998 -0.036609598 5.7063774e-39 306 270
-0.015864158 0.69599998 -0.036609598 5.7063774e-39 307 270
-0.014643839 0.69599998 -0.036609598 5.5223477e-39 308 270
-0.013423519 0.69599998 -0.036609598 5.3375977e-39 309 270
-0.0122032 0.69599998 -0.036609598 5.3375977e-39 310 270
-0.010982879 0.69599998 -0.036609598 5.3375977e-39 311 270
-0.0097765867 0.69700003 -0.036662199 5.2454021e-39 312 270
-0.0085545136 0.69700003 -0.036662199 5.2454021e-39 313 270
-0.0073429602 0.69800001 -0.0367148 5.3379536e-39 314 270
-0.006119133 0.69800001 -0.0367148 5.3379536e-39 315 270
-0.0048953067 0.69800001 -0.0367148 5.1546414e-39 316 270
-0.0036714801 0.69800001 -0.0367148 5.1546414e-39 317 270
-0.0024546667 0.69999999 -0.036819998 5.4301521e-39 318 270
-0.0012273333 0.69999999 -0.036819998 5.4301521e-39 319 270
0 0.69999999 -0.036819998 5.1546414e-39 320 270
0.0012273333 0.69999999 -0.036819998 4.9698914e-39 321 270
0.0024581731 0.70099998 -0.036872596 4.7847827e-39 322 270
0.0036872597 0.70099998 -0.036872596 4.6000327e-39 323 270
0.0049303733 0.70300001 -0.036977798 4.3252436e-39 324 270
0.0061717331 0.704 -0.037030395 4.5096349e-39 325 270
0.0074060797 0.704 -0.037030395 4.9720452e-39 326 270
0.0086649731 0.70599997 -0.037135597 5.525219e-39 327 270
0.0099028256 0.70599997 -0.037135597 6.8127054e-39 328 270
0.011140679 0.70599997 -0.037135597 6.9974553e-39 329 270
0.012378532 0.70599997 -0.037135597 7.3647931e-39 330 270
0.013616386 0.70599997 -0.037135597 7.2725975e-39 331 270
0.014854239 0.70599997 -0.037135597 7.2704437e-39 332 270
0.016092092 0.70599997 -0.037135597 6.9942155e-39 333 270
0.017354494 0.70700002 -0.037188202 6.5346793e-39 334 270
0.0186204 0.708 -0.0372408 6.626875e-39 335 270
0.019917866 0.70999998 -0.037345998 6.2606134e-39 336 270
0.021162732 0.70999998 -0.037345998 6.4446459e-39 337 270
0.022439159 0.71100003 -0.037398599 6.7197909e-39 338 270
0.023752406 0.713 -0.037503798 6.7197909e-39 339 270
0.025037598 0.71399999 -0.037556399 6.8112676e-39 340 270
0.02639994 0.71700001 -0.037714198 6.8112676e-39 341 270
0.027734226 0.71899998 -0.037819397 6.9938624e-39 342 270
0.029035201 0.72000003 -0.037871998 6.9938624e-39 343 270
0.030381758 0.722 -0.0379772 6.7190734e-39 344 270
0.031691495 0.72299999 -0.038029801 6.7190734e-39 345 270
0.032959159 0.72299999 -0.038029801 6.5361255e-39 346 270
0.034321502 0.72500002 -0.038135 6.6283211e-39 347 270
0.035592668 0.72500002 -0.038135 6.7208853e-39 348 270
0.036863834 0.72500002 -0.038135 7.2740591e-39 349 270
0.038292799 0.72799999 -0.038292799 7.2780275e-39 350 270
-0.070957392 0.70999998 -0.038590867 1.5112505e-38 263 271
-0.069712527 0.70999998 -0.038590867 1.0134294e-38 264 271
-0.068274796 0.708 -0.038482159 6.5383059e-39 265 271
-0.067033432 0.708 -0.038482159 8.8377722e-39 266 271
-0.065792084 0.708 -0.038482159 8.5611853e-39 267 271
-0.06455072 0.708 -0.038482159 8.1916797e-39 268 271
-0.063219935 0.70700002 -0.038427804 7.7307016e-39 269 271
-0.061892662 0.70599997 -0.038373452 7.1786264e-39 270 271
-0.060654808 0.70599997 -0.038373452 7.3626575e-39 271 271
-0.059248637 0.704 -0.038264744 7.4562867e-39 272 271
-0.057931885 0.70300001 -0.038210396 7.9172635e-39 273 271
-0.056537982 0.70099998 -0.038101684 8.2849544e-39 274 271
-0.055229999 0.69999999 -0.038047329 8.5611825e-39 275 271
-0.054002665 0.69999999 -0.038047329 9.0199957e-39 276 271
-0.052624546 0.69800001 -0.037938625 9.0199957e-39 277 271
-0.051400717 0.69800001 -0.037938625 8.8373995e-39 278 271
-0.050176892 0.69800001 -0.037938625 8.6533683e-39 279 271
-0.048882935 0.69700003 -0.037884273 8.5615356e-39 280 271
-0.047660861 0.69700003 -0.037884273 8.46934e-39 281 271
-0.046438783 0.69700003 -0.037884273 8.4689841e-39 282 271
-0.045216713 0.69700003 -0.037884273 8.7459297e-39 283 271
-0.043931518 0.69599998 -0.037829921 8.9310412e-39 284 271
-0.042711195 0.69599998 -0.037829921 9.2079869e-39 285 271
-0.041371655 0.69400001 -0.037721213 9.4838451e-39 286 271
-0.040154841 0.69400001 -0.037721213 9.2994538e-39 287 271
-0.038938027 0.69400001 -0.037721213 9.2965826e-39 288 271
-0.037721213 0.69400001 -0.037721213 8.8356058e-39 289 271
-0.036451802 0.69300002 -0.037666857 8.2835194e-39 290 271
-0.035236739 0.69300002 -0.037666857 7.915097e-39 291 271
-0.034021679 0.69300002 -0.037666857 7.5477523e-39 292 271
-0.03280662 0.69300002 -0.037666857 7.4555566e-39 293 271
-0.031591557 0.69300002 -0.037666857 7.1796928e-39 294 271
-0.0303765 0.69300002 -0.037666857 7.2722472e-39 295 271
-0.029161438 0.69300002 -0.037666857 7.0871441e-39 296 271
-0.027946379 0.69300002 -0.037666857 6.8109173e-39 297 271
-0.026769891 0.69400001 -0.037721213 6.5346947e-39 298 271
-0.025553079 0.69400001 -0.037721213 6.3506636e-39 299 271
-0.024336265 0.69400001 -0.037721213 6.0755159e-39 300 271
-0.023119451 0.69400001 -0.037721213 5.9833202e-39 301 271
-0.021902639 0.69400001 -0.037721213 6.0737208e-39 302 271
-0.020775247 0.69700003 -0.037884273 5.9815252e-39 303 271
-0.019553173 0.69700003 -0.037884273 5.7063802e-39 304 271
-0.018331099 0.69700003 -0.037884273 5.7063802e-39 305 271
-0.017084479 0.69599998 -0.037829921 5.523068e-39 306 271
-0.015864158 0.69599998 -0.037829921 5.4308709e-39 307 271
-0.014643839 0.69599998 -0.037829921 5.4297961e-39 308 271
-0.013423519 0.69599998 -0.037829921 5.4297961e-39 309 271
-0.0122032 0.69599998 -0.037829921 5.4301521e-39 310 271
-0.010982879 0.69599998 -0.037829921 5.4301521e-39 311 271
-0.0097765867 0.69700003 -0.037884273 5.3375977e-39 312 271
-0.0085545136 0.69700003 -0.037884273 5.2454021e-39 313 271
-0.0073429602 0.69800001 -0.037938625 5.3375977e-39 314 271
-0.006119133 0.69800001 -0.037938625 5.2454021e-39 315 271
-0.0048953067 0.69800001 -0.037938625 5.0620898e-39 316 271
-0.0036819996 0.69999999 -0.038047329 5.1542854e-39 317 271
-0.0024546667 0.69999999 -0.038047329 5.3383166e-39 318 271
-0.0012273333 0.69999999 -0.038047329 5.3383166e-39 319 271
0 0.70099998 -0.038101684 5.3379536e-39 320 271
0.0012290865 0.70099998 -0.038101684 5.1532036e-39 321 271
0.0024651866 0.70300001 -0.038210396 4.6925842e-39 322 271
0.0036977797 0.70300001 -0.038210396 4.6003886e-39 323 271
0.0049373866 0.704 -0.038264744 4.1419314e-39 324 271
0.0061892662 0.70599997 -0.038373452 4.5103538e-39 325 271
0.0074271196 0.70599997 -0.038373452 5.1560735e-39 326 271
0.0086649731 0.70599997 -0.038373452 5.8936385e-39 327 271
0.0099028256 0.70599997 -0.038373452 6.7219419e-39 328 271
0.011140679 0.70599997 -0.038373452 6.9063331e-39 329 271
0.012378532 0.70599997 -0.038373452 7.455907e-39 330 271
0.013616386 0.70599997 -0.038373452 7.1796802e-39 331 271
0.01487528 0.70700002 -0.038427804 6.8116208e-39 332 271
0.016114887 0.70700002 -0.038427804 6.8116208e-39 333 271
0.017379038 0.708 -0.038482159 6.7190706e-39 334 271
0.0186204 0.708 -0.038482159 6.7190706e-39 335 271
0.019917866 0.70999998 -0.038590867 6.8112676e-39 336 271
0.021192541 0.71100003 -0.038645219 6.8112676e-39 337 271
0.022439159 0.71100003 -0.038645219 6.9953016e-39 338 271
0.023752406 0.713 -0.038753927 6.7190734e-39 339 271
0.025107734 0.71600002 -0.038916986 6.8112732e-39 340 271
0.02639994 0.71700001 -0.038971342 6.7187175e-39 341 271
0.027772799 0.72000003 -0.039134402 6.7187175e-39 342 271
0.029115854 0.722 -0.039243106 6.6265218e-39 343 271
0.030381758 0.722 -0.039243106 6.7187175e-39 344 271
0.031691495 0.72299999 -0.039297458 6.8112732e-39 345 271
0.032959159 0.72299999 -0.039297458 6.5361283e-39 346 271
0.034321502 0.72500002 -0.039406165 6.9045507e-39 347 271
0.035592668 0.72500002 -0.039406165 6.723409e-39 348 271
-0.070957392 0.70999998 -0.039835732 1.4836277e-38 263 272
-0.069712527 0.70999998 -0.039835732 9.7644327e-39 264 272
-0.068274796 0.708 -0.039723519 6.3531944e-39 265 272
-0.067033432 0.708 -0.039723519 8.7455794e-39 266 272
-0.065792084 0.708 -0.039723519 8.2846012e-39 267 272
-0.064459547 0.70700002 -0.039667413 7.8229e-39 268 272
-0.063219935 0.70700002 -0.039667413 7.63815e-39 269 272
-0.061892662 0.70599997 -0.039611302 6.9949484e-39 270 272
-0.060482983 0.704 -0.039499093 6.9949484e-39 271 272
-0.059248637 0.704 -0.039499093 7.5477579e-39 272 272
-0.057931885 0.70300001 -0.039442986 8.0083773e-39 273 272
-0.056537982 0.70099998 -0.039330769 8.6526621e-39 274 272
-0.055229999 0.69999999 -0.039274666 8.5604665e-39 275 272
-0.053848371 0.69800001 -0.039162453 8.8363303e-39 276 272
-0.052624546 0.69800001 -0.039162453 8.8363303e-39 277 272
-0.051400717 0.69800001 -0.039162453 8.6526593e-39 278 272
-0.050105009 0.69700003 -0.039106347 8.6526593e-39 279 272
-0.048882935 0.69700003 -0.039106347 8.5611825e-39 280 272
-0.047660861 0.69700003 -0.039106347 8.1927587e-39 281 272
-0.046438783 0.69700003 -0.039106347 8.4682694e-39 282 272
-0.045216713 0.69700003 -0.039106347 8.6526621e-39 283 272
-0.043931518 0.69599998 -0.039050236 8.8381253e-39 284 272
-0.042711195 0.69599998 -0.039050236 9.2069079e-39 285 272
-0.041371655 0.69400001 -0.038938027 9.2061862e-39 286 272
-0.040154841 0.69400001 -0.038938027 9.0217935e-39 287 272
-0.038938027 0.69400001 -0.038938027 8.8356114e-39 288 272
-0.037721213 0.69400001 -0.038938027 8.5586644e-39 289 272
-0.036451802 0.69300002 -0.03888192 8.0984121e-39 290 272
-0.035236739 0.69300002 -0.03888192 7.7296296e-39 291 272
-0.034021679 0.69300002 -0.03888192 7.362289e-39 292 272
-0.03280662 0.69300002 -0.03888192 7.362289e-39 293 272
-0.031591557 0.69300002 -0.03888192 7.0864252e-39 294 272
-0.0303765 0.69300002 -0.03888192 7.0864252e-39 295 272
-0.029161438 0.69300002 -0.03888192 6.7183685e-39 296 272
-0.027946379 0.69300002 -0.03888192 6.3495846e-39 297 272
-0.026769891 0.69400001 -0.038938027 6.1659164e-39 298 272
-0.025553079 0.69400001 -0.038938027 6.1659164e-39 299 272
-0.024336265 0.69400001 -0.038938027 5.9833202e-39 300 272
-0.023119451 0.69400001 -0.038938027 5.8911246e-39 301 272
-0.021902639 0.69400001 -0.038938027 5.9815252e-39 302 272
-0.020775247 0.69700003 -0.039106347 5.9815252e-39 303 272
-0.019553173 0.69700003 -0.039106347 5.7063802e-39 304 272
-0.018331099 0.69700003 -0.039106347 5.5223477e-39 305 272
-0.017084479 0.69599998 -0.039050236 5.7060243e-39 306 272
-0.015864158 0.69599998 -0.039050236 5.5219918e-39 307 272
-0.014643839 0.69599998 -0.039050236 5.4297989e-39 308 272
-0.013442807 0.69700003 -0.039106347 5.3376033e-39 309 272
-0.012220734 0.69700003 -0.039106347 5.3375977e-39 310 272
-0.01099866 0.69700003 -0.039106347 5.3375977e-39 311 272
-0.0097765867 0.69700003 -0.039106347 5.3368788e-39 312 272
-0.0085545136 0.69700003 -0.039106347 5.2446832e-39 313 272
-0.0073429602 0.69800001 -0.039162453 5.1532064e-39 314 272
-0.006119133 0.69800001 -0.039162453 5.1532064e-39 315 272
-0.0048953067 0.69800001 -0.039162453 5.245758e-39 316 272
-0.0036819996 0.69999999 -0.039274666 5.3379536e-39 317 272
-0.0024546667 0.69999999 -0.039274666 5.3386725e-39 318 272
-0.0012290865 0.70099998 -0.039330769 5.3386725e-39 319 272
0 0.70099998 -0.039330769 5.3383166e-39 320 272
0.0012290865 0.70099998 -0.039330769 4.9698942e-39 321 272
0.0024651866 0.70300001 -0.039442986 4.69295e-39 322 272
0.0037030398 0.704 -0.039499093 4.4167232e-39 323 272
0.0049514128 0.70599997 -0.039611302 4.5096377e-39 324 272
0.0061892662 0.70599997 -0.039611302 4.786226e-39 325 272
0.0074271196 0.70599997 -0.039611302 5.5234141e-39 326 272
0.008677247 0.70700002 -0.039667413 6.0765879e-39 327 272
0.0099168532 0.70700002 -0.039667413 6.9063331e-39 328 272
0.011156459 0.70700002 -0.039667413 6.9063331e-39 329 272
0.012396066 0.70700002 -0.039667413 7.4559098e-39 330 272
0.013635674 0.70700002 -0.039667413 7.179683e-39 331 272
0.01487528 0.70700002 -0.039667413 6.8112676e-39 332 272
0.016114887 0.70700002 -0.039667413 6.8112676e-39 333 272
0.017379038 0.708 -0.039723519 6.9949386e-39 334 272
0.0186204 0.708 -0.039723519 7.1793299e-39 335 272
0.019917866 0.70999998 -0.039835732 7.0878503e-39 336 272
0.021192541 0.71100003 -0.039891839 7.0878503e-39 337 272
0.022502279 0.713 -0.040004052 7.0871342e-39 338 272
0.02378572 0.71399999 -0.040060159 6.9949386e-39 339 272
0.0251428 0.71700001 -0.040228479 6.8098369e-39 340 272
0.02647358 0.71899998 -0.040340692 6.8098369e-39 341 272
0.027772799 0.72000003 -0.040396802 6.8098369e-39 342 272
0.029035201 0.72000003 -0.040396802 6.9020325e-39 343 272
0.030381758 0.722 -0.040509012 6.7187203e-39 344 272
0.031647664 0.722 -0.040509012 6.8109173e-39 345 272
0.032959159 0.72299999 -0.040565118 6.7190902e-39 346 272
-0.070957392 0.70999998 -0.041080594 1.4282021e-38 263 273
-0.069712527 0.70999998 -0.041080594 8.6584424e-39 264 273
-0.068274796 0.708 -0.040964879 5.6156265e-39 265 273
-0.067033432 0.708 -0.040964879 8.0094591e-39 266 273
-0.065699153 0.70700002 -0.040907022 7.9172635e-39 267 273
-0.064459547 0.70700002 -0.040907022 7.9158159e-39 268 273
-0.063130513 0.70599997 -0.040849157 7.5470334e-39 269 273
-0.061892662 0.70599997 -0.040849157 7.1778977e-39 270 273
-0.060482983 0.704 -0.040733438 7.2700934e-39 271 273
-0.059248637 0.704 -0.040733438 7.271894e-39 272 273
-0.057931885 0.70300001 -0.040675577 7.9172635e-39 273 273
-0.056537982 0.70099998 -0.040559858 8.1931273e-39 274 273
-0.055229999 0.69999999 -0.040502001 8.1931273e-39 275 273
-0.053848371 0.69800001 -0.040386278 8.4682806e-39 276 273
-0.052624546 0.69800001 -0.040386278 8.4682806e-39 277 273
-0.051400717 0.69800001 -0.040386278 8.4682806e-39 278 273
-0.050105009 0.69700003 -0.040328421 8.2842481e-39 279 273
-0.048882935 0.69700003 -0.040328421 8.1005729e-39 280 273
-0.047660861 0.69700003 -0.040328421 8.0083773e-39 281 273
-0.046372157 0.69599998 -0.040270556 8.0083801e-39 282 273
-0.045151837 0.69599998 -0.040270556 8.2849684e-39 283 273
-0.043931518 0.69599998 -0.040270556 8.3775199e-39 284 273
-0.042711195 0.69599998 -0.040270556 8.4697156e-39 285 273
-0.041371655 0.69400001 -0.040154841 8.6533782e-39 286 273
-0.040154841 0.69400001 -0.040154841 8.5611825e-39 287 273
-0.03888192 0.69300002 -0.04009698 8.3760682e-39 288 273
-0.037666857 0.69300002 -0.04009698 8.0076458e-39 289 273
-0.036451802 0.69300002 -0.04009698 7.6381528e-39 290 273
-0.035236739 0.69300002 -0.04009698 7.3619261e-39 291 273
-0.034021679 0.69300002 -0.04009698 6.6268918e-39 292 273
-0.03280662 0.69300002 -0.04009698 6.6268918e-39 293 273
-0.031591557 0.69300002 -0.04009698 6.4432264e-39 294 273
-0.0303765 0.69300002 -0.04009698 6.2588337e-39 295 273
-0.029161438 0.69300002 -0.04009698 5.982251e-39 296 273
-0.027986705 0.69400001 -0.040154841 5.8900554e-39 297 273
-0.026769891 0.69400001 -0.040154841 5.339397e-39 298 273
-0.025553079 0.69400001 -0.040154841 5.4319513e-39 299 273
-0.024336265 0.69400001 -0.040154841 5.6163356e-39 300 273
-0.023119451 0.69400001 -0.040154841 5.4319457e-39 301 273
-0.021902639 0.69400001 -0.040154841 5.7063802e-39 302 273
-0.020775247 0.69700003 -0.040328421 5.5223477e-39 303 273
-0.019553173 0.69700003 -0.040328421 5.5219918e-39 304 273
-0.018331099 0.69700003 -0.040328421 5.5219918e-39 305 273
-0.017084479 0.69599998 -0.040270556 5.4297989e-39 306 273
-0.015864158 0.69599998 -0.040270556 5.5219946e-39 307 273
-0.01466488 0.69700003 -0.040328421 5.6131112e-39 308 273
-0.013442807 0.69700003 -0.040328421 5.5209156e-39 309 273
-0.012220734 0.69700003 -0.040328421 5.5212687e-39 310 273
-0.01099866 0.69700003 -0.040328421 5.3368788e-39 311 273
-0.0097765867 0.69700003 -0.040328421 5.4279955e-39 312 273
-0.0085667865 0.69800001 -0.040386278 5.3357998e-39 313 273
-0.0073429602 0.69800001 -0.040386278 5.0610108e-39 314 273
-0.006119133 0.69800001 -0.040386278 5.1532064e-39 315 273
-0.0049093333 0.69999999 -0.040502001 5.2457552e-39 316 273
-0.0036819996 0.69999999 -0.040502001 5.3379508e-39 317 273
-0.0024546667 0.69999999 -0.040502001 5.3386725e-39 318 273
-0.0012290865 0.70099998 -0.040559858 5.4308681e-39 319 273
0 0.70099998 -0.040559858 5.3379536e-39 320 273
0.0012325933 0.70300001 -0.040675577 5.1532036e-39 321 273
0.0024686933 0.704 -0.040733438 4.9680921e-39 322 273
0.0037030398 0.704 -0.040733438 4.8758965e-39 323 273
0.0049514128 0.70599997 -0.040849157 4.6929472e-39 324 273
0.0061892662 0.70599997 -0.040849157 5.1542854e-39 325 273
0.0074271196 0.70599997 -0.040849157 5.0653128e-39 326 273
0.008677247 0.70700002 -0.040907022 6.079106e-39 327 273
0.0099168532 0.70700002 -0.040907022 6.9978057e-39 328 273
0.011156459 0.70700002 -0.040907022 7.1821983e-39 329 273
0.012396066 0.70700002 -0.040907022 7.5477425e-39 330 273
0.013635674 0.70700002 -0.040907022 7.2707968e-39 331 273
0.01487528 0.70700002 -0.040907022 6.9023829e-39 332 273
0.016114887 0.70700002 -0.040907022 6.9949386e-39 333 273
0.017379038 0.708 -0.040964879 6.8119893e-39 334 273
0.018672999 0.70999998 -0.041080594 6.8119893e-39 335 273
0.01994592 0.71100003 -0.041138459 7.0878531e-39 336 273
0.021252153 0.713 -0.041254178 6.9952987e-39 337 273
0.022533838 0.71399999 -0.041312039 6.8112732e-39 338 273
0.023852346 0.71600002 -0.041427758 6.8112732e-39 339 273
0.0251428 0.71700001 -0.041485619 6.7187203e-39 340 273
0.02647358 0.71899998 -0.041601337 6.7187203e-39 341 273
0.027772799 0.72000003 -0.041659199 6.6272407e-39 342 273
0.029035201 0.72000003 -0.041659199 6.6272407e-39 343 273
0.030381758 0.722 -0.041774917 6.4442984e-39 344 273
0.031647664 0.722 -0.041774917 6.4442984e-39 345 273
-0.070957392 0.70999998 -0.042325463 1.3361863e-38 263 274
-0.069712527 0.70999998 -0.042325463 8.1041897e-39 264 274
-0.068274796 0.708 -0.042206239 5.6149077e-39 265 274
-0.067033432 0.708 -0.042206239 8.1005729e-39 266 274
-0.065699153 0.70700002 -0.042146627 8.1931273e-39 267 274
-0.064459547 0.70700002 -0.042146627 7.7321477e-39 268 274
-0.063130513 0.70599997 -0.042087011 7.3633638e-39 269 274
-0.061717331 0.704 -0.041967787 7.1789739e-39 270 274
-0.060482983 0.704 -0.041967787 7.1789739e-39 271 274
-0.059164476 0.70300001 -0.041908171 7.7325009e-39 272 274
-0.057931885 0.70300001 -0.041908171 8.101282e-39 273 274
-0.056537982 0.70099998 -0.041788943 8.2845984e-39 274 274
-0.055229999 0.69999999 -0.041729331 8.1924028e-39 275 274
-0.053848371 0.69800001 -0.041610107 8.2831691e-39 276 274
-0.052624546 0.69800001 -0.041610107 8.3753647e-39 277 274
-0.051327083 0.69700003 -0.041550495 8.2842481e-39 278 274
-0.050105009 0.69700003 -0.041550495 8.1920525e-39 279 274
-0.048882935 0.69700003 -0.041550495 8.283525e-39 280 274
-0.047660861 0.69700003 -0.041550495 8.1909707e-39 281 274
-0.046372157 0.69599998 -0.041490879 8.0076584e-39 282 274
-0.045151837 0.69599998 -0.041490879 8.1924084e-39 283 274
-0.043931518 0.69599998 -0.041490879 8.2845984e-39 284 274
-0.042711195 0.69599998 -0.041490879 8.1924028e-39 285 274
-0.041371655 0.69400001 -0.041371655 8.2838754e-39 286 274
-0.040154841 0.69400001 -0.041371655 8.2838754e-39 287 274
-0.03888192 0.69300002 -0.041312039 7.8246993e-39 288 274
-0.037666857 0.69300002 -0.041312039 7.7325037e-39 289 274
-0.036451802 0.69300002 -0.041312039 7.1796956e-39 290 274
-0.035236739 0.69300002 -0.041312039 6.8112732e-39 291 274
-0.034021679 0.69300002 -0.041312039 6.4439312e-39 292 274
-0.03280662 0.69300002 -0.041312039 6.3513769e-39 293 274
-0.031591557 0.69300002 -0.041312039 6.6261687e-39 294 274
-0.0303765 0.69300002 -0.041312039 6.4417774e-39 295 274
-0.029161438 0.69300002 -0.041312039 5.8900526e-39 296 274
-0.027986705 0.69400001 -0.041371655 5.797857e-39 297 274
-0.026769891 0.69400001 -0.041371655 5.4308709e-39 298 274
-0.025553079 0.69400001 -0.041371655 5.523068e-39 299 274
-0.024336265 0.69400001 -0.041371655 5.7063802e-39 300 274
-0.023119451 0.69400001 -0.041371655 5.5223477e-39 301 274
-0.021965759 0.69599998 -0.041490879 5.5223477e-39 302 274
-0.020775247 0.69700003 -0.041550495 5.5223477e-39 303 274
-0.019553173 0.69700003 -0.041550495 5.5219918e-39 304 274
-0.018331099 0.69700003 -0.041550495 5.4297961e-39 305 274
-0.017109027 0.69700003 -0.041550495 5.6131084e-39 306 274
-0.015886955 0.69700003 -0.041550495 5.6131084e-39 307 274
-0.01466488 0.69700003 -0.041550495 5.5212687e-39 308 274
-0.013442807 0.69700003 -0.041550495 5.3368788e-39 309 274
-0.012238266 0.69800001 -0.041610107 5.2454021e-39 310 274
-0.01101444 0.69800001 -0.041610107 5.1532064e-39 311 274
-0.0097906133 0.69800001 -0.041610107 5.1524904e-39 312 274
-0.0085667865 0.69800001 -0.041610107 5.1524904e-39 313 274
-0.0073429602 0.69800001 -0.041610107 5.1532092e-39 314 274
-0.0061366665 0.69999999 -0.041729331 5.1532092e-39 315 274
-0.0049093333 0.69999999 -0.041729331 5.2454021e-39 316 274
-0.0036819996 0.69999999 -0.041729331 5.4301521e-39 317 274
-0.0024581731 0.70099998 -0.041788943 5.5223421e-39 318 274
-0.0012325933 0.70300001 -0.041908171 5.5223421e-39 319 274
0 0.70300001 -0.041908171 5.3386697e-39 320 274
0.0012343467 0.704 -0.041967787 5.0624429e-39 321 274
0.0024686933 0.704 -0.041967787 4.6943863e-39 322 274
0.0037135598 0.70599997 -0.042087011 4.6943863e-39 323 274
0.0049514128 0.70599997 -0.042087011 4.9702571e-39 324 274
0.0061980332 0.70700002 -0.042146627 5.2472027e-39 325 274
0.0074376399 0.70700002 -0.042146627 6.075869e-39 326 274
0.008689519 0.708 -0.042206239 6.813434e-39 327 274
0.0099168532 0.70700002 -0.042146627 7.2743968e-39 328 274
0.011156459 0.70700002 -0.042146627 7.2743968e-39 329 274
0.0124136 0.708 -0.042206239 7.5481082e-39 330 274
0.013654959 0.708 -0.042206239 7.0871314e-39 331 274
0.01489632 0.708 -0.042206239 6.8112732e-39 332 274
0.01613768 0.708 -0.042206239 6.7187175e-39 333 274
0.017428132 0.70999998 -0.042325463 6.9942296e-39 334 274
0.0186993 0.71100003 -0.042385083 6.9942296e-39 335 274
0.01994592 0.71100003 -0.042385083 6.9945855e-39 336 274
0.021252153 0.713 -0.042504307 6.9945855e-39 337 274
0.022596961 0.71600002 -0.042683143 6.7194405e-39 338 274
0.02388566 0.71700001 -0.042742759 6.7194405e-39 339 274
0.025212931 0.71899998 -0.042861983 6.5361255e-39 340 274
0.026510401 0.72000003 -0.042921603 6.6283211e-39 341 274
0.027772799 0.72000003 -0.042921603 6.4446515e-39 342 274
0.029115854 0.722 -0.043040827 6.4446515e-39 343 274
0.030381758 0.722 -0.043040827 6.2602771e-39 344 274
-0.070957392 0.70999998 -0.043570329 1.3176747e-38 263 275
-0.069712527 0.70999998 -0.043570329 8.4722491e-39 264 275
-0.068274796 0.708 -0.043447599 6.0755215e-39 265 275
-0.067033432 0.708 -0.043447599 7.5499201e-39 266 275
-0.065699153 0.70700002 -0.043386232 7.5499201e-39 267 275
-0.064459547 0.70700002 -0.043386232 7.6399549e-39 268 275
-0.063130513 0.70599997 -0.043324865 7.1789767e-39 269 275
-0.061717331 0.704 -0.043202132 6.9953044e-39 270 275
-0.060482983 0.704 -0.043202132 7.2718912e-39 271 275
-0.059164476 0.70300001 -0.043140765 7.6421031e-39 272 275
-0.057931885 0.70300001 -0.043140765 7.9183298e-39 273 275
