# .PCD v.7 - Point Cloud Data file format
FIELDS x y z rgb imX imY
SIZE 4 4 4 4 4 4
TYPE F F F F F F
COUNT 1 1 1 1 1 1
WIDTH 842
HEIGHT 1
VIEWPOINT 0 0 0 1 0 0 0
POINTS 842
DATA ascii
-0.025353199 0.72299999 -0.01140894 1.4738293e-38 300 249
-0.024085538 0.72299999 -0.01140894 1.2802184e-38 301 249
-0.02281788 0.72299999 -0.01140894 1.1787309e-38 302 249
-0.021609833 0.72500002 -0.0114405 1.0219984e-38 303 249
-0.020338668 0.72500002 -0.0114405 9.8469047e-39 304 249
-0.0190675 0.72500002 -0.0114405 9.8469047e-39 305 249
-0.017747238 0.72299999 -0.01140894 1.0214258e-38 306 249
-0.01647958 0.72299999 -0.01140894 1.0306454e-38 307 249
-0.015211919 0.72299999 -0.01140894 1.0306456e-38 308 249
-0.01394426 0.72299999 -0.01140894 1.0306456e-38 309 249
-0.012659066 0.722 -0.01139316 1.0398652e-38 310 249
-0.01139316 0.722 -0.01139316 1.0583045e-38 311 249
-0.010127253 0.722 -0.01139316 1.067524e-38 312 249
-0.0088613462 0.722 -0.01139316 1.067524e-38 313 249
-0.0075954394 0.722 -0.01139316 1.0675949e-38 314 249
-0.0063295332 0.722 -0.01139316 1.0583395e-38 315 249
-0.0050636264 0.722 -0.01139316 1.0857457e-38 316 249
-0.0037977197 0.722 -0.01139316 1.0673426e-38 317 249
-0.0025318132 0.722 -0.01139316 1.0397202e-38 318 249
-0.0012659066 0.722 -0.01139316 1.0120973e-38 319 249
0 0.722 -0.01139316 9.7532797e-39 320 249
0.0012676599 0.72299999 -0.01140894 9.7532797e-39 321 249
0.0025353199 0.72299999 -0.01140894 9.2015549e-39 322 249
0.0038029798 0.72299999 -0.01140894 9.3859448e-39 323 249
0.0050706398 0.72299999 -0.01140894 9.1093621e-39 324 249
0.0063558333 0.72500002 -0.0114405 8.9249708e-39 325 249
0.0076480396 0.727 -0.01147206 8.832771e-39 326 249
0.0089227129 0.727 -0.01147206 7.8186205e-39 327 249
0.010211413 0.72799999 -0.01148784 6.4418195e-39 328 249
0.01148784 0.72799999 -0.01148784 7.9169496e-39 329 249
-0.027849946 0.722 -0.012659066 1.5295079e-38 298 250
-0.026584039 0.722 -0.012659066 1.1791645e-38 299 250
-0.025318133 0.722 -0.012659066 1.0584823e-38 300 250
-0.024052227 0.722 -0.012659066 9.3862797e-39 301 250
-0.022786319 0.722 -0.012659066 9.5713926e-39 302 250
-0.021550218 0.72299999 -0.012676599 9.8479809e-39 303 250
-0.020282559 0.72299999 -0.012676599 9.8479991e-39 304 250
-0.0190675 0.72500002 -0.012711667 1.0124587e-38 305 250
-0.017747238 0.72299999 -0.012676599 1.0673811e-38 306 250
-0.01647958 0.72299999 -0.012676599 1.0673811e-38 307 250
-0.015190879 0.722 -0.012659066 1.0490849e-38 308 250
-0.013924973 0.722 -0.012659066 1.0306456e-38 309 250
-0.012659066 0.722 -0.012659066 1.0674513e-38 310 250
-0.01139316 0.722 -0.012659066 1.0858906e-38 311 250
-0.010127253 0.722 -0.012659066 1.0859978e-38 312 250
-0.0088613462 0.722 -0.012659066 1.0952173e-38 313 250
-0.0075743999 0.72000003 -0.012624 1.0860684e-38 314 250
-0.0063120001 0.72000003 -0.012624 1.0676653e-38 315 250
-0.0050636264 0.722 -0.012659066 1.1042556e-38 316 250
-0.0037977197 0.722 -0.012659066 1.0858163e-38 317 250
-0.0025318132 0.722 -0.012659066 1.0489387e-38 318 250
-0.0012659066 0.722 -0.012659066 1.0304636e-38 319 250
0 0.722 -0.012659066 9.5688857e-39 320 250
0.0012659066 0.722 -0.012659066 9.5688857e-39 321 250
0.0025318132 0.722 -0.012659066 9.1093593e-39 322 250
0.0038029798 0.72299999 -0.012676599 9.1093593e-39 323 250
0.0050706398 0.72299999 -0.012676599 9.0160916e-39 324 250
0.0063558333 0.72500002 -0.012711667 8.9238946e-39 325 250
0.0076480396 0.727 -0.012746733 8.9235415e-39 326 250
0.0089227129 0.727 -0.012746733 8.9235415e-39 327 250
0.010211413 0.72799999 -0.012764266 8.2814119e-39 328 250
0.01148784 0.72799999 -0.012764266 7.6360425e-39 329 250
0.012746733 0.727 -0.012746733 5.7125389e-39 330 250
0.014021406 0.727 -0.012746733 8.2018209e-39 331 250
-0.030423839 0.72299999 -0.01394426 1.5660622e-38 296 251
-0.029115854 0.722 -0.013924973 1.2617806e-38 297 251
-0.027849946 0.722 -0.013924973 1.0682053e-38 298 251
-0.026584039 0.722 -0.013924973 1.0036684e-38 299 251
-0.025318133 0.722 -0.013924973 9.9423471e-39 300 251
-0.0239856 0.72000003 -0.0138864 9.6654001e-39 301 251
-0.022723202 0.72000003 -0.0138864 1.0308256e-38 302 251
-0.021520413 0.722 -0.013924973 1.021606e-38 303 251
-0.020254506 0.722 -0.013924973 1.0214984e-38 304 251
-0.0189886 0.722 -0.013924973 1.0122788e-38 305 251
-0.017722692 0.722 -0.013924973 1.0397933e-38 306 251
-0.016456785 0.722 -0.013924973 1.0397933e-38 307 251
-0.0151488 0.72000003 -0.0138864 1.0398286e-38 308 251
-0.0138864 0.72000003 -0.0138864 1.0490482e-38 309 251
-0.012624 0.72000003 -0.0138864 1.0674863e-38 310 251
-0.011361601 0.72000003 -0.0138864 1.0859615e-38 311 251
-0.010099201 0.72000003 -0.0138864 1.1044356e-38 312 251
-0.0088367993 0.72000003 -0.0138864 1.1136552e-38 313 251
-0.0075743999 0.72000003 -0.0138864 1.1045428e-38 314 251
-0.0063120001 0.72000003 -0.0138864 1.0953233e-38 315 251
-0.0050496003 0.72000003 -0.0138864 1.1043628e-38 316 251
-0.0037872 0.72000003 -0.0138864 1.0859596e-38 317 251
-0.0025248001 0.72000003 -0.0138864 1.0582302e-38 318 251
-0.0012624001 0.72000003 -0.0138864 9.9369325e-39 319 251
0 0.72000003 -0.0138864 9.3848545e-39 320 251
0.0012624001 0.72000003 -0.0138864 9.2926589e-39 321 251
0.0025318132 0.722 -0.013924973 8.924968e-39 322 251
0.0037977197 0.722 -0.013924973 8.924968e-39 323 251
0.0050706398 0.72299999 -0.01394426 9.0153672e-39 324 251
0.0063382997 0.72299999 -0.01394426 9.0153672e-39 325 251
0.0076480396 0.727 -0.014021406 9.0150112e-39 326 251
0.0089227129 0.727 -0.014021406 9.0150112e-39 327 251
0.010211413 0.72799999 -0.014040692 8.7398663e-39 328 251
0.01148784 0.72799999 -0.014040692 8.4636395e-39 329 251
0.012746733 0.727 -0.014021406 6.6269324e-39 330 251
0.014021406 0.727 -0.014021406 6.719128e-39 331 251
0.015296079 0.727 -0.014021406 9.5890686e-39 332 251
-0.032959159 0.72299999 -0.015211919 1.7327721e-38 294 252
-0.031691495 0.72299999 -0.015211919 1.4746243e-38 295 252
-0.030423839 0.72299999 -0.015211919 1.1787704e-38 296 252
-0.029115854 0.722 -0.015190879 9.5750093e-39 297 252
-0.027849946 0.722 -0.015190879 9.2973407e-39 298 252
-0.026510401 0.72000003 -0.0151488 9.8505144e-39 299 252
-0.025248 0.72000003 -0.0151488 1.0309703e-38 300 252
-0.023952285 0.71899998 -0.01512776 1.0032758e-38 301 252
-0.022691639 0.71899998 -0.01512776 1.0307181e-38 302 252
-0.021430992 0.71899998 -0.01512776 1.0214984e-38 303 252
-0.020170346 0.71899998 -0.01512776 1.0305735e-38 304 252
-0.018909698 0.71899998 -0.01512776 1.039793e-38 305 252
-0.017649053 0.71899998 -0.01512776 1.0305735e-38 306 252
-0.016388407 0.71899998 -0.01512776 1.039793e-38 307 252
-0.015085679 0.71700001 -0.015085679 1.0398286e-38 308 252
-0.013828539 0.71700001 -0.015085679 1.0398286e-38 309 252
-0.012606465 0.71899998 -0.01512776 1.076634e-38 310 252
-0.01134582 0.71899998 -0.01512776 1.0858896e-38 311 252
-0.010085173 0.71899998 -0.01512776 1.0859965e-38 312 252
-0.0088245263 0.71899998 -0.01512776 1.1136552e-38 313 252
-0.0075638802 0.71899998 -0.01512776 1.0862113e-38 314 252
-0.0063032326 0.71899998 -0.01512776 1.0862113e-38 315 252
-0.0050425865 0.71899998 -0.01512776 1.0861031e-38 316 252
-0.0037872 0.72000003 -0.0151488 1.0492608e-38 317 252
-0.0025248001 0.72000003 -0.0151488 1.0213524e-38 318 252
-0.0012624001 0.72000003 -0.0151488 9.5681542e-39 319 252
0 0.72000003 -0.0151488 9.2001074e-39 320 252
0.0012624001 0.72000003 -0.0151488 9.1079103e-39 321 252
0.0025248001 0.72000003 -0.0151488 8.8320521e-39 322 252
0.0037977197 0.722 -0.015190879 8.8320521e-39 323 252
0.0050636264 0.722 -0.015190879 8.7395034e-39 324 252
0.0063382997 0.72299999 -0.015211919 8.7395034e-39 325 252
0.0076270006 0.72500002 -0.015254001 8.5547562e-39 326 252
0.0088981669 0.72500002 -0.015254001 8.5547562e-39 327 252
0.010197386 0.727 -0.015296079 8.554403e-39 328 252
0.01147206 0.727 -0.015296079 8.739153e-39 329 252
0.012711667 0.72500002 -0.015254001 7.7300402e-39 330 252
0.013982833 0.72500002 -0.015254001 6.7155281e-39 331 252
0.015296079 0.727 -0.015296079 6.6359203e-39 332 252
0.016570752 0.727 -0.015296079 1.1891073e-38 333 252
-0.034179479 0.722 -0.016456785 1.8063121e-38 293 253
-0.032959159 0.72299999 -0.01647958 1.382032e-38 294 253
-0.031691495 0.72299999 -0.01647958 1.0132496e-38 295 253
-0.030381758 0.722 -0.016456785 8.9281882e-39 296 253
-0.029115854 0.722 -0.016456785 9.6657532e-39 297 253
-0.027772799 0.72000003 -0.0164112 1.031077e-38 298 253
-0.026510401 0.72000003 -0.0164112 1.0218574e-38 299 253
-0.025212931 0.71899998 -0.016388407 1.0307181e-38 300 253
-0.023952285 0.71899998 -0.016388407 1.0122788e-38 301 253
-0.022691639 0.71899998 -0.016388407 1.0305735e-38 302 253
-0.021430992 0.71899998 -0.016388407 1.0305735e-38 303 253
-0.020170346 0.71899998 -0.016388407 1.0397204e-38 304 253
-0.018909698 0.71899998 -0.016388407 1.04894e-38 305 253
-0.017599959 0.71700001 -0.016342819 1.0397202e-38 306 253
-0.016342819 0.71700001 -0.016342819 1.0581952e-38 307 253
-0.015085679 0.71700001 -0.016342819 1.0398634e-38 308 253
-0.013828539 0.71700001 -0.016342819 1.0490829e-38 309 253
-0.0125714 0.71700001 -0.016342819 1.0766696e-38 310 253
-0.01131426 0.71700001 -0.016342819 1.0766696e-38 311 253
-0.01005712 0.71700001 -0.016342819 1.085889e-38 312 253
-0.0087999795 0.71700001 -0.016342819 1.104328e-38 313 253
-0.0075428397 0.71700001 -0.016342819 1.0952877e-38 314 253
-0.0062857 0.71700001 -0.016342819 1.067665e-38 315 253
-0.0050285598 0.71700001 -0.016342819 1.0950359e-38 316 253
-0.0037819401 0.71899998 -0.016388407 1.0489382e-38 317 253
-0.0025212932 0.71899998 -0.016388407 9.5685199e-39 318 253
-0.0012606466 0.71899998 -0.016388407 9.1079005e-39 319 253
0 0.71899998 -0.016388407 9.2905065e-39 320 253
0.0012624001 0.72000003 -0.0164112 9.1061153e-39 321 253
0.0025248001 0.72000003 -0.0164112 8.8302514e-39 322 253
0.0037872 0.72000003 -0.0164112 8.8302514e-39 323 253
0.0050636264 0.722 -0.016456785 8.5536674e-39 324 253
0.0063295332 0.722 -0.016456785 8.3692761e-39 325 253
0.0076059597 0.72299999 -0.01647958 8.5518723e-39 326 253
0.0088981669 0.72500002 -0.016525166 8.5518723e-39 327 253
0.010169334 0.72500002 -0.016525166 8.5522352e-39 328 253
0.01147206 0.727 -0.016570752 8.7369852e-39 329 253
0.012711667 0.72500002 -0.016525166 8.4639955e-39 330 253
0.013982833 0.72500002 -0.016525166 8.1870484e-39 331 253
0.015296079 0.727 -0.016570752 4.4189064e-39 332 253
0.016593546 0.72799999 -0.016593546 8.106733e-39 333 253
0.017869972 0.72799999 -0.016593546 1.603915e-38 334 253
-0.035494477 0.72299999 -0.017747238 1.760251e-38 292 254
-0.034179479 0.722 -0.017722692 1.6496161e-38 293 254
-0.032913569 0.722 -0.017722692 1.0498052e-38 294 254
-0.031647664 0.722 -0.017722692 8.7466934e-39 295 254
-0.030381758 0.722 -0.017722692 9.941994e-39 296 254
-0.029115854 0.722 -0.017722692 1.0310775e-38 297 254
-0.027772799 0.72000003 -0.017673599 1.0401173e-38 298 254
-0.026510401 0.72000003 -0.017673599 9.9401947e-39 299 254
-0.025212931 0.71899998 -0.017649053 1.03061e-38 300 254
-0.02388566 0.71700001 -0.017599959 1.0029874e-38 301 254
-0.02262852 0.71700001 -0.017599959 1.0030227e-38 302 254
-0.021371379 0.71700001 -0.017599959 1.0030227e-38 303 254
-0.020114239 0.71700001 -0.017599959 1.0397204e-38 304 254
-0.018857099 0.71700001 -0.017599959 1.0397204e-38 305 254
-0.017599959 0.71700001 -0.017599959 1.0306085e-38 306 254
-0.016342819 0.71700001 -0.017599959 1.0306085e-38 307 254
-0.01506464 0.71600002 -0.017575413 1.030716e-38 308 254
-0.013809253 0.71600002 -0.017575413 1.0399355e-38 309 254
-0.012553867 0.71600002 -0.017575413 1.0674863e-38 310 254
-0.01129848 0.71600002 -0.017575413 1.0490832e-38 311 254
-0.010043093 0.71600002 -0.017575413 1.0674866e-38 312 254
-0.0087877065 0.71600002 -0.017575413 1.0674866e-38 313 254
-0.00753232 0.71600002 -0.017575413 1.0490832e-38 314 254
-0.0062769335 0.71600002 -0.017575413 1.0306441e-38 315 254
-0.0050215465 0.71600002 -0.017575413 1.0029497e-38 316 254
-0.0037714199 0.71700001 -0.017599959 9.6607156e-39 317 254
-0.0025142799 0.71700001 -0.017599959 9.1079131e-39 318 254
-0.00125714 0.71700001 -0.017599959 8.739132e-39 319 254
0 0.71899998 -0.017649053 8.5536702e-39 320 254
0.0012606466 0.71899998 -0.017649053 8.4614745e-39 321 254
0.0025212932 0.71899998 -0.017649053 8.4611214e-39 322 254
0.0037819401 0.71899998 -0.017649053 8.2767301e-39 323 254
0.0050425865 0.71899998 -0.017649053 8.1845345e-39 324 254
0.0063120001 0.72000003 -0.017673599 7.9997831e-39 325 254
0.0076059597 0.72299999 -0.017747238 7.9990671e-39 326 254
0.0088736191 0.72299999 -0.017747238 8.0912641e-39 327 254
0.010169334 0.72500002 -0.017796334 7.7250025e-39 328 254
0.0114405 0.72500002 -0.017796334 7.9090336e-39 329 254
0.012711667 0.72500002 -0.017796334 7.9111846e-39 330 254
0.013982833 0.72500002 -0.017796334 8.1881316e-39 331 254
0.015254001 0.72500002 -0.017796334 5.4265759e-39 332 254
0.01647958 0.72299999 -0.017747238 5.7028027e-39 333 254
0.017747238 0.72299999 -0.017747238 1.4287789e-38 334 254
0.019014901 0.72299999 -0.017747238 1.7237689e-38 335 254
-0.035494477 0.72299999 -0.019014901 1.6035186e-38 292 255
-0.03422682 0.72299999 -0.019014901 1.3545905e-38 293 255
-0.032913569 0.722 -0.0189886 7.7289444e-39 294 255
-0.031647664 0.722 -0.0189886 8.8349332e-39 295 255
-0.030381758 0.722 -0.0189886 1.0310053e-38 296 255
-0.029035201 0.72000003 -0.018935999 1.0125662e-38 297 255
-0.027772799 0.72000003 -0.018935999 1.0398652e-38 298 255
-0.02647358 0.71899998 -0.018909698 1.0214261e-38 299 255
-0.0251428 0.71700001 -0.018857099 1.0213539e-38 300 255
-0.023852346 0.71600002 -0.0188308 1.0213539e-38 301 255
-0.022596961 0.71600002 -0.0188308 1.0213536e-38 302 255
-0.021371379 0.71700001 -0.018857099 1.0213536e-38 303 255
-0.020114239 0.71700001 -0.018857099 1.0396851e-38 304 255
-0.0188308 0.71600002 -0.0188308 1.021282e-38 305 255
-0.017575413 0.71600002 -0.0188308 1.0213173e-38 306 255
-0.016320027 0.71600002 -0.0188308 1.0213173e-38 307 255
-0.01506464 0.71600002 -0.0188308 1.0213526e-38 308 255
-0.013809253 0.71600002 -0.0188308 1.0397558e-38 309 255
-0.012553867 0.71600002 -0.0188308 1.058123e-38 310 255
-0.011266919 0.71399999 -0.018778199 1.0489034e-38 311 255
-0.01001504 0.71399999 -0.018778199 1.0580877e-38 312 255
-0.0087877065 0.71600002 -0.0188308 1.0488681e-38 313 255
-0.00753232 0.71600002 -0.0188308 1.0303933e-38 314 255
-0.0062769335 0.71600002 -0.0188308 1.0027706e-38 315 255
-0.0050215465 0.71600002 -0.0188308 9.8429586e-39 316 255
-0.0037714199 0.71700001 -0.018857099 9.5663703e-39 317 255
-0.0025142799 0.71700001 -0.018857099 9.1057593e-39 318 255
-0.00125714 0.71700001 -0.018857099 8.6451399e-39 319 255
0 0.71899998 -0.018909698 8.4603955e-39 320 255
0.0012606466 0.71899998 -0.018909698 8.091613e-39 321 255
0.0025212932 0.71899998 -0.018909698 8.0916158e-39 322 255
0.0037819401 0.71899998 -0.018909698 7.9994202e-39 323 255
0.0050425865 0.71899998 -0.018909698 7.9068658e-39 324 255
0.0063120001 0.72000003 -0.018935999 7.8146702e-39 325 255
0.0075954394 0.722 -0.0189886 7.6313579e-39 326 255
0.0088736191 0.72299999 -0.019014901 7.6313579e-39 327 255
0.01014128 0.72299999 -0.019014901 7.6320768e-39 328 255
0.0114405 0.72500002 -0.0190675 7.7242724e-39 329 255
0.012711667 0.72500002 -0.0190675 7.9090238e-39 330 255
0.013982833 0.72500002 -0.0190675 8.0934151e-39 331 255
0.015254001 0.72500002 -0.0190675 6.068721e-39 332 255
0.01647958 0.72299999 -0.019014901 5.699937e-39 333 255
0.017747238 0.72299999 -0.019014901 1.225698e-38 334 255
0.019014901 0.72299999 -0.019014901 1.6129196e-38 335 255
0.020282559 0.72299999 -0.019014901 1.8156403e-38 336 255
-0.035494477 0.72299999 -0.020282559 1.391433e-38 292 256
-0.03422682 0.72299999 -0.020282559 1.0503452e-38 293 256
-0.032913569 0.722 -0.020254506 8.5594281e-39 294 256
-0.031647664 0.722 -0.020254506 9.3891888e-39 295 256
-0.030381758 0.722 -0.020254506 1.040117e-38 296 256
-0.029035201 0.72000003 -0.020198401 1.0032748e-38 297 256
-0.027772799 0.72000003 -0.020198401 1.0490126e-38 298 256
-0.02639994 0.71700001 -0.020114239 1.0305735e-38 299 256
-0.0251428 0.71700001 -0.020114239 1.0306091e-38 300 256
-0.023852346 0.71600002 -0.020086186 1.0306091e-38 301 256
-0.022596961 0.71600002 -0.020086186 1.0213536e-38 302 256
-0.021341572 0.71600002 -0.020086186 1.0213536e-38 303 256
-0.020086186 0.71600002 -0.020086186 1.0029148e-38 304 256
-0.0188308 0.71600002 -0.020086186 1.0029148e-38 305 256
-0.017575413 0.71600002 -0.020086186 1.0028427e-38 306 256
-0.016320027 0.71600002 -0.020086186 1.0028427e-38 307 256
-0.01506464 0.71600002 -0.020086186 9.9362291e-39 308 256
-0.01377068 0.71399999 -0.020030079 1.0028425e-38 309 256
-0.012518799 0.71399999 -0.020030079 1.0303933e-38 310 256
-0.011266919 0.71399999 -0.020030079 1.0303933e-38 311 256
-0.01001504 0.71399999 -0.020030079 1.0396488e-38 312 256
-0.0087631596 0.71399999 -0.020030079 1.0303933e-38 313 256
-0.0075112795 0.71399999 -0.020030079 9.9362291e-39 314 256
-0.0062593995 0.71399999 -0.020030079 9.4752523e-39 315 256
-0.0050075199 0.71399999 -0.020030079 9.2905093e-39 316 256
-0.00376616 0.71600002 -0.020086186 8.9217282e-39 317 256
-0.0025142799 0.71700001 -0.020114239 8.4614745e-39 318 256
-0.00125714 0.71700001 -0.020114239 8.1845289e-39 319 256
0 0.71700001 -0.020114239 7.9994202e-39 320 256
0.00125714 0.71700001 -0.020114239 7.8146702e-39 321 256
0.0025212932 0.71899998 -0.020170346 7.6313579e-39 322 256
0.0037872 0.72000003 -0.020198401 7.5391623e-39 323 256
0.0050496003 0.72000003 -0.020198401 7.35585e-39 324 256
0.0063120001 0.72000003 -0.020198401 7.2636544e-39 325 256
0.0075954394 0.722 -0.020254506 7.35585e-39 326 256
0.0088613462 0.722 -0.020254506 7.2636544e-39 327 256
0.01014128 0.72299999 -0.020282559 7.3554941e-39 328 256
0.01140894 0.72299999 -0.020282559 7.4480485e-39 329 256
0.012676599 0.72299999 -0.020282559 7.6317237e-39 330 256
0.01394426 0.72299999 -0.020282559 7.7239193e-39 331 256
0.015211919 0.72299999 -0.020282559 6.6197424e-39 332 256
0.01647958 0.72299999 -0.020282559 5.7899817e-39 333 256
0.017747238 0.72299999 -0.020282559 8.8453883e-39 334 256
0.019014901 0.72299999 -0.020282559 1.4377127e-38 335 256
0.020282559 0.72299999 -0.020282559 1.7880542e-38 336 256
0.021550218 0.72299999 -0.020282559 1.7512118e-38 337 256
-0.036762137 0.72299999 -0.021550218 1.7878371e-38 291 257
-0.035445385 0.722 -0.021520413 1.1701995e-38 292 257
-0.034179479 0.722 -0.021520413 8.2903984e-39 293 257
-0.032913569 0.722 -0.021520413 9.4824606e-39 294 257
-0.031647664 0.722 -0.021520413 9.8512431e-39 295 257
-0.0302976 0.72000003 -0.021460801 1.0125662e-38 296 257
-0.029035201 0.72000003 -0.021460801 1.0033108e-38 297 257
-0.027734226 0.71899998 -0.021430992 1.0398652e-38 298 257
-0.02639994 0.71700001 -0.021371379 1.0306456e-38 299 257
-0.025107734 0.71600002 -0.021341572 1.0214258e-38 300 257
-0.023852346 0.71600002 -0.021341572 1.0030227e-38 301 257
-0.022596961 0.71600002 -0.021341572 1.0212823e-38 302 257
-0.021341572 0.71600002 -0.021341572 1.0120269e-38 303 257
-0.020086186 0.71600002 -0.021341572 1.0028072e-38 304 257
-0.0188308 0.71600002 -0.021341572 9.8436803e-39 305 257
-0.017575413 0.71600002 -0.021341572 9.8436803e-39 306 257
-0.016274439 0.71399999 -0.021281958 9.7514847e-39 307 257
-0.015022559 0.71399999 -0.021281958 9.7514847e-39 308 257
-0.013751393 0.713 -0.021252153 9.7514847e-39 309 257
-0.012501267 0.713 -0.021252153 9.8436775e-39 310 257
-0.011251139 0.713 -0.021252153 9.9362319e-39 311 257
-0.010001013 0.713 -0.021252153 9.9362319e-39 312 257
-0.0087508867 0.713 -0.021252153 9.8436775e-39 313 257
-0.0075112795 0.71399999 -0.021281958 9.5674507e-39 314 257
-0.0062593995 0.71399999 -0.021281958 9.2908625e-39 315 257
-0.0050075199 0.71399999 -0.021281958 8.8302486e-39 316 257
-0.00376616 0.71600002 -0.021341572 8.4618249e-39 317 257
-0.0025107733 0.71600002 -0.021341572 8.0926892e-39 318 257
-0.00125714 0.71700001 -0.021371379 7.8161023e-39 319 257
0 0.71700001 -0.021371379 7.3565661e-39 320 257
0.00125714 0.71700001 -0.021371379 7.0803393e-39 321 257
0.0025142799 0.71700001 -0.021371379 7.078903e-39 322 257
0.0037819401 0.71899998 -0.021430992 7.078903e-39 323 257
0.0050425865 0.71899998 -0.021430992 6.8955936e-39 324 257
0.0063120001 0.72000003 -0.021460801 6.8955936e-39 325 257
0.0075954394 0.722 -0.021520413 7.4469667e-39 326 257
0.0088613462 0.722 -0.021520413 7.4469667e-39 327 257
0.010127253 0.722 -0.021520413 7.5384462e-39 328 257
0.01140894 0.72299999 -0.021550218 7.5384462e-39 329 257
0.012676599 0.72299999 -0.021550218 7.3554969e-39 330 257
0.01394426 0.72299999 -0.021550218 7.4476925e-39 331 257
0.015211919 0.72299999 -0.021550218 7.0796359e-39 332 257
0.01647958 0.72299999 -0.021550218 6.1573195e-39 333 257
0.017747238 0.72299999 -0.021550218 5.8929673e-39 334 257
0.019014901 0.72299999 -0.021550218 1.2715084e-38 335 257
0.020282559 0.72299999 -0.021550218 1.7419566e-38 336 257
-0.036762137 0.72299999 -0.02281788 1.6496158e-38 291 258
-0.035494477 0.72299999 -0.02281788 9.7644495e-39 292 258
-0.034179479 0.722 -0.022786319 7.5521131e-39 293 258
-0.032913569 0.722 -0.022786319 9.5743003e-39 294 258
-0.03156 0.72000003 -0.022723202 9.6668547e-39 295 258
-0.0302976 0.72000003 -0.022723202 1.012459e-38 296 258
-0.029035201 0.72000003 -0.022723202 9.9401975e-39 297 258
-0.027734226 0.71899998 -0.022691639 1.03061e-38 298 258
-0.02639994 0.71700001 -0.02262852 1.0213905e-38 299 258
-0.025107734 0.71600002 -0.022596961 1.0029874e-38 300 258
-0.023852346 0.71600002 -0.022596961 1.0029874e-38 301 258
-0.022596961 0.71600002 -0.022596961 9.8454824e-39 302 258
-0.021341572 0.71600002 -0.022596961 9.7532853e-39 303 258
-0.020086186 0.71600002 -0.022596961 9.6600121e-39 304 258
-0.018778199 0.71399999 -0.022533838 9.5678165e-39 305 258
-0.017526319 0.71399999 -0.022533838 9.3834252e-39 306 258
-0.016274439 0.71399999 -0.022533838 9.3834252e-39 307 258
-0.015022559 0.71399999 -0.022533838 9.382705e-39 308 258
-0.013751393 0.713 -0.022502279 9.382705e-39 309 258
-0.012501267 0.713 -0.022502279 9.6582142e-39 310 258
-0.011251139 0.713 -0.022502279 9.7504099e-39 311 258
-0.010001013 0.713 -0.022502279 9.474902e-39 312 258
-0.0087508867 0.713 -0.022502279 9.382705e-39 313 258
-0.0075007593 0.713 -0.022502279 9.0153616e-39 314 258
-0.0062506334 0.713 -0.022502279 8.7391348e-39 315 258
-0.0050005065 0.713 -0.022502279 8.2788755e-39 316 258
-0.0037556398 0.71399999 -0.022533838 8.0022886e-39 317 258
-0.0025107733 0.71600002 -0.022596961 7.7246256e-39 318 258
-0.0012553866 0.71600002 -0.022596961 7.3562032e-39 319 258
0 0.71700001 -0.02262852 6.8977432e-39 320 258
0.00125714 0.71700001 -0.02262852 6.6207961e-39 321 258
0.0025142799 0.71700001 -0.02262852 6.7111995e-39 322 258
0.0037714199 0.71700001 -0.02262852 6.8033951e-39 323 258
0.0050285598 0.71700001 -0.02262852 6.9867102e-39 324 258
0.0063032326 0.71899998 -0.022691639 6.9867102e-39 325 258
0.0075743999 0.72000003 -0.022723202 7.3540508e-39 326 258
0.0088613462 0.722 -0.022786319 7.4462464e-39 327 258
0.010127253 0.722 -0.022786319 7.6295559e-39 328 258
0.01140894 0.72299999 -0.02281788 7.6295559e-39 329 258
0.012676599 0.72299999 -0.02281788 7.3558472e-39 330 258
0.01394426 0.72299999 -0.02281788 7.3558472e-39 331 258
0.015254001 0.72500002 -0.022880999 7.1725476e-39 332 258
0.016525166 0.72500002 -0.022880999 6.8037637e-39 333 258
0.017796334 0.72500002 -0.022880999 4.7830226e-39 334 258
0.0190675 0.72500002 -0.022880999 1.0683543e-38 335 258
0.020338668 0.72500002 -0.022880999 1.6589806e-38 336 258
-0.03671129 0.722 -0.024052227 1.4744447e-38 291 259
-0.035445385 0.722 -0.024052227 8.2896809e-39 292 259
-0.034179479 0.722 -0.024052227 7.8283441e-39 293 259
-0.0328224 0.72000003 -0.0239856 9.2987952e-39 294 259
-0.03156 0.72000003 -0.0239856 9.1140438e-39 295 259
-0.030255521 0.71899998 -0.023952285 9.7550972e-39 296 259
-0.028994869 0.71899998 -0.023952285 9.4788705e-39 297 259
-0.027657079 0.71700001 -0.02388566 9.4792236e-39 298 259
-0.026363119 0.71600002 -0.023852346 9.6632547e-39 299 259
-0.025107734 0.71600002 -0.023852346 9.4792208e-39 300 259
-0.02378572 0.71399999 -0.02378572 9.4792208e-39 301 259
-0.022533838 0.71399999 -0.02378572 9.5703402e-39 302 259
-0.021341572 0.71600002 -0.023852346 9.3855888e-39 303 259
-0.020030079 0.71399999 -0.02378572 9.2004787e-39 304 259
-0.018778199 0.71399999 -0.02378572 9.0164476e-39 305 259
-0.017526319 0.71399999 -0.02378572 8.9242505e-39 306 259
-0.016274439 0.71399999 -0.02378572 8.8316962e-39 307 259
-0.015022559 0.71399999 -0.02378572 8.9228128e-39 308 259
-0.013751393 0.713 -0.023752406 8.9228128e-39 309 259
-0.012501267 0.713 -0.023752406 9.0142924e-39 310 259
-0.011251139 0.713 -0.023752406 9.0142924e-39 311 259
-0.010001013 0.713 -0.023752406 8.9228156e-39 312 259
-0.0087508867 0.713 -0.023752406 8.7387845e-39 313 259
-0.0075007593 0.713 -0.023752406 8.646942e-39 314 259
-0.0062506334 0.713 -0.023752406 8.4621906e-39 315 259
-0.0050005065 0.713 -0.023752406 8.0944843e-39 316 259
-0.0037556398 0.71399999 -0.02378572 7.7260619e-39 317 259
-0.0025107733 0.71600002 -0.023852346 7.173607e-39 318 259
-0.0012553866 0.71600002 -0.023852346 7.173607e-39 319 259
0 0.71700001 -0.02388566 6.1626976e-39 320 259
0.00125714 0.71700001 -0.02388566 5.9779477e-39 321 259
0.0025142799 0.71700001 -0.02388566 5.8853989e-39 322 259
0.0037714199 0.71700001 -0.02388566 5.9775945e-39 323 259
0.0050285598 0.71700001 -0.02388566 6.5275313e-39 324 259
0.0063032326 0.71899998 -0.023952285 6.8037581e-39 325 259
0.0075638802 0.71899998 -0.023952285 7.1710986e-39 326 259
0.0088245263 0.71899998 -0.023952285 7.078903e-39 327 259
0.010127253 0.722 -0.024052227 7.4462436e-39 328 259
0.01139316 0.722 -0.024052227 7.4462436e-39 329 259
0.012676599 0.72299999 -0.024085538 7.3558472e-39 330 259
0.01394426 0.72299999 -0.024085538 7.3558472e-39 331 259
0.015254001 0.72500002 -0.024152167 7.1732665e-39 332 259
0.016525166 0.72500002 -0.024152167 7.1732665e-39 333 259
0.017796334 0.72500002 -0.024152167 5.239326e-39 334 259
0.0190675 0.72500002 -0.024152167 8.282142e-39 335 259
0.020338668 0.72500002 -0.024152167 1.4746609e-38 336 259
-0.03671129 0.722 -0.025318133 1.1425051e-38 291 260
-0.035445385 0.722 -0.025318133 7.1829747e-39 292 260
-0.034084801 0.72000003 -0.025248 7.6443115e-39 293 260
-0.0328224 0.72000003 -0.025248 9.2962743e-39 294 260
-0.031516165 0.71899998 -0.025212931 9.111883e-39 295 260
-0.030255521 0.71899998 -0.025212931 9.5692668e-39 296 260
-0.028994869 0.71899998 -0.025212931 9.4770712e-39 297 260
-0.027657079 0.71700001 -0.0251428 9.5692668e-39 298 260
-0.026363119 0.71600002 -0.025107734 9.5692668e-39 299 260
-0.025107734 0.71600002 -0.025107734 9.4788677e-39 300 260
-0.02378572 0.71399999 -0.025037598 9.4788677e-39 301 260
-0.022533838 0.71399999 -0.025037598 9.2941191e-39 302 260
-0.021281958 0.71399999 -0.025037598 9.2019234e-39 303 260
-0.020030079 0.71399999 -0.025037598 9.1090089e-39 304 260
-0.018778199 0.71399999 -0.025037598 8.8324207e-39 305 260
-0.017501773 0.713 -0.025002534 8.8316962e-39 306 260
-0.016251646 0.713 -0.025002534 8.6473049e-39 307 260
-0.015001519 0.713 -0.025002534 8.646942e-39 308 260
-0.013751393 0.713 -0.025002534 8.5543876e-39 309 260
-0.012501267 0.713 -0.025002534 8.7369824e-39 310 260
-0.011251139 0.713 -0.025002534 8.7369824e-39 311 260
-0.010001013 0.713 -0.025002534 8.7377027e-39 312 260
-0.0087508867 0.713 -0.025002534 8.5536702e-39 313 260
-0.0075007593 0.713 -0.025002534 8.4625465e-39 314 260
-0.0062593995 0.71399999 -0.025037598 8.3699922e-39 315 260
-0.0050075199 0.71399999 -0.025037598 8.0015726e-39 316 260
-0.0037556398 0.71399999 -0.025037598 7.7246256e-39 317 260
-0.0025107733 0.71600002 -0.025107734 6.8991837e-39 318 260
-0.0012553866 0.71600002 -0.025107734 6.5304026e-39 319 260
0 0.71700001 -0.0251428 5.8868338e-39 320 260
0.00125714 0.71700001 -0.0251428 5.5176926e-39 321 260
0.0025142799 0.71700001 -0.0251428 5.88468e-39 322 260
0.0037714199 0.71700001 -0.0251428 5.9768757e-39 323 260
0.0050285598 0.71700001 -0.0251428 6.8033923e-39 324 260
0.0063032326 0.71899998 -0.025212931 6.895588e-39 325 260
0.0075638802 0.71899998 -0.025212931 7.354764e-39 326 260
0.0088245263 0.71899998 -0.025212931 7.354764e-39 327 260
0.010099201 0.72000003 -0.025248 7.35512e-39 328 260
0.01139316 0.722 -0.025318133 7.447317e-39 329 260
0.012676599 0.72299999 -0.025353199 7.447317e-39 330 260
0.01394426 0.72299999 -0.025353199 7.5395126e-39 331 260
0.015254001 0.72500002 -0.025423333 7.0817771e-39 332 260
0.016525166 0.72500002 -0.025423333 7.358364e-39 333 260
0.017796334 0.72500002 -0.025423333 6.6211689e-39 334 260
0.019120099 0.727 -0.025493465 7.4509295e-39 335 260
0.020394772 0.727 -0.025493465 1.096839e-38 336 260
-0.03671129 0.722 -0.026584039 8.9357734e-39 291 261
-0.035445385 0.722 -0.026584039 7.4577665e-39 292 261
-0.034084801 0.72000003 -0.026510401 8.1953315e-39 293 261
-0.0328224 0.72000003 -0.026510401 8.6519895e-39 294 261
-0.031428497 0.71700001 -0.02639994 8.4679583e-39 295 261
-0.030171359 0.71700001 -0.02639994 8.8331479e-39 296 261
-0.028873893 0.71600002 -0.026363119 8.7409523e-39 297 261
-0.027618507 0.71600002 -0.026363119 8.7416684e-39 298 261
-0.026363119 0.71600002 -0.026363119 9.018614e-39 299 261
-0.025037598 0.71399999 -0.026289478 9.01933e-39 300 261
-0.02378572 0.71399999 -0.026289478 9.01933e-39 301 261
-0.022533838 0.71399999 -0.026289478 8.8349388e-39 302 261
-0.021281958 0.71399999 -0.026289478 8.6509077e-39 303 261
-0.020002026 0.713 -0.026252659 8.6494699e-39 304 261
-0.018751899 0.713 -0.026252659 8.3732418e-39 305 261
-0.017501773 0.713 -0.026252659 8.3714411e-39 306 261
-0.016251646 0.713 -0.026252659 8.2792455e-39 307 261
-0.015001519 0.713 -0.026252659 8.5540373e-39 308 261
-0.01371282 0.71100003 -0.026179021 8.3696446e-39 309 261
-0.0124662 0.71100003 -0.026179021 8.277449e-39 310 261
-0.01121958 0.71100003 -0.026179021 8.277449e-39 311 261
-0.0099729598 0.71100003 -0.026179021 8.2767245e-39 312 261
-0.0087508867 0.713 -0.026252659 8.3692789e-39 313 261
-0.0075007593 0.713 -0.026252659 8.2763644e-39 314 261
-0.0062506334 0.713 -0.026252659 8.18381e-39 315 261
-0.0050005065 0.713 -0.026252659 7.6335117e-39 316 261
-0.0037556398 0.71399999 -0.026289478 7.5409574e-39 317 261
-0.0025107733 0.71600002 -0.026363119 6.4385699e-39 318 261
-0.0012553866 0.71600002 -0.026363119 5.9779505e-39 319 261
0 0.71700001 -0.02639994 5.0585179e-39 320 261
0.00125714 0.71700001 -0.02639994 4.9663223e-39 321 261
0.0025142799 0.71700001 -0.02639994 5.5173395e-39 322 261
0.0037714199 0.71700001 -0.02639994 5.7020894e-39 323 261
0.0050285598 0.71700001 -0.02639994 6.5286033e-39 324 261
0.0063032326 0.71899998 -0.02647358 6.7129946e-39 325 261
0.0075638802 0.71899998 -0.02647358 7.35512e-39 326 261
0.0088245263 0.71899998 -0.02647358 7.1710888e-39 327 261
0.010099201 0.72000003 -0.026510401 7.1707329e-39 328 261
0.01139316 0.722 -0.026584039 7.354764e-39 329 261
0.012659066 0.722 -0.026584039 7.0803393e-39 330 261
0.01394426 0.72299999 -0.026620859 7.2643705e-39 331 261
0.015254001 0.72500002 -0.026694499 6.8988278e-39 332 261
0.016525166 0.72500002 -0.026694499 7.1757748e-39 333 261
0.017796334 0.72500002 -0.026694499 6.7151624e-39 334 261
0.019120099 0.727 -0.026768139 6.4385755e-39 335 261
0.020394772 0.727 -0.026768139 7.9244928e-39 336 261
-0.03671129 0.722 -0.027849946 7.0900588e-39 291 262
-0.035445385 0.722 -0.027849946 7.5477999e-39 292 262
-0.034084801 0.72000003 -0.027772799 8.2853649e-39 293 262
-0.032776814 0.71899998 -0.027734226 8.5583533e-39 294 262
-0.031428497 0.71700001 -0.027657079 8.281765e-39 295 262
-0.030171359 0.71700001 -0.027657079 8.3721656e-39 296 262
-0.028873893 0.71600002 -0.027618507 8.4643612e-39 297 262
-0.027618507 0.71600002 -0.027618507 8.4650843e-39 298 262
-0.026289478 0.71399999 -0.02754136 8.8338668e-39 299 262
-0.025037598 0.71399999 -0.02754136 8.6512734e-39 300 262
-0.023752406 0.713 -0.027502786 8.6512734e-39 301 262
-0.022502279 0.713 -0.027502786 8.559075e-39 302 262
-0.021281958 0.71399999 -0.02754136 8.4668793e-39 303 262
-0.020002026 0.713 -0.027502786 8.556554e-39 304 262
-0.018751899 0.713 -0.027502786 8.3721628e-39 305 262
-0.01745268 0.71100003 -0.027425639 8.3707222e-39 306 262
-0.01620606 0.71100003 -0.027425639 8.1863296e-39 307 262
-0.014959441 0.71100003 -0.027425639 8.2774462e-39 308 262
-0.01371282 0.71100003 -0.027425639 8.2774462e-39 309 262
-0.0124662 0.71100003 -0.027425639 8.0012195e-39 310 262
-0.01121958 0.71100003 -0.027425639 8.0012195e-39 311 262
-0.0099729598 0.71100003 -0.027425639 8.18381e-39 312 262
-0.0087263398 0.71100003 -0.027425639 8.18381e-39 313 262
-0.0074797203 0.71100003 -0.027425639 8.091613e-39 314 262
-0.0062506334 0.713 -0.027502786 7.9994174e-39 315 262
-0.0050005065 0.713 -0.027502786 7.4487617e-39 316 262
-0.0037503797 0.713 -0.027502786 7.3565661e-39 317 262
-0.0025037599 0.71399999 -0.02754136 6.1623445e-39 318 262
-0.0012553866 0.71600002 -0.027618507 5.6091721e-39 319 262
0 0.71700001 -0.027657079 5.0570858e-39 320 262
0.00125714 0.71700001 -0.027657079 5.0570858e-39 321 262
0.0025142799 0.71700001 -0.027657079 5.608819e-39 322 262
0.0037714199 0.71700001 -0.027657079 5.9776001e-39 323 262
0.0050285598 0.71700001 -0.027657079 6.8041112e-39 324 262
0.0063032326 0.71899998 -0.027734226 6.8963068e-39 325 262
0.0075638802 0.71899998 -0.027734226 7.1714518e-39 326 262
0.0088367993 0.72000003 -0.027772799 7.1714518e-39 327 262
0.010099201 0.72000003 -0.027772799 7.0792561e-39 328 262
0.01139316 0.722 -0.027849946 7.0792561e-39 329 262
0.012659066 0.722 -0.027849946 6.895588e-39 330 262
0.01394426 0.72299999 -0.02788852 7.2643705e-39 331 262
0.015211919 0.72299999 -0.02788852 6.9903045e-39 332 262
0.016525166 0.72500002 -0.027965667 7.0825002e-39 333 262
0.017845426 0.727 -0.028042812 6.9910234e-39 334 262
0.019120099 0.727 -0.028042812 5.9772316e-39 335 262
0.020422826 0.72799999 -0.028081384 5.6156321e-39 336 262
0.021699252 0.72799999 -0.028081384 1.2530306e-38 337 262
-0.035445385 0.722 -0.029115854 7.8215071e-39 292 263
-0.03403746 0.71899998 -0.028994869 8.5590722e-39 293 263
-0.032685637 0.71700001 -0.028914221 8.3739606e-39 294 263
-0.031428497 0.71700001 -0.028914221 8.0055383e-39 295 263
-0.03012928 0.71600002 -0.028873893 8.0033873e-39 296 263
-0.028873893 0.71600002 -0.028873893 8.0955829e-39 297 263
-0.027618507 0.71600002 -0.028873893 8.0051851e-39 298 263
-0.026289478 0.71399999 -0.028793238 8.3736075e-39 299 263
-0.025037598 0.71399999 -0.028793238 8.2824923e-39 300 263
-0.023752406 0.713 -0.028752912 8.2824923e-39 301 263
-0.022502279 0.713 -0.028752912 8.2824923e-39 302 263
-0.021281958 0.71399999 -0.028793238 8.1902953e-39 303 263
-0.020002026 0.713 -0.028752912 8.1884974e-39 304 263
-0.018751899 0.713 -0.028752912 8.0041061e-39 305 263
-0.01745268 0.71100003 -0.028672259 8.2770931e-39 306 263
-0.01620606 0.71100003 -0.028672259 8.093062e-39 307 263
-0.014959441 0.71100003 -0.028672259 8.0008635e-39 308 263
-0.01371282 0.71100003 -0.028672259 7.9086679e-39 309 263
-0.0124662 0.71100003 -0.028672259 7.9090238e-39 310 263
-0.01121958 0.71100003 -0.028672259 7.9090238e-39 311 263
-0.0099729598 0.71100003 -0.028672259 7.8164681e-39 312 263
-0.0087263398 0.71100003 -0.028672259 7.6320768e-39 313 263
-0.0074797203 0.71100003 -0.028672259 7.7239095e-39 314 263
-0.0062506334 0.713 -0.028752912 7.7239095e-39 315 263
-0.0050005065 0.713 -0.028752912 7.2654467e-39 316 263
-0.0037503797 0.713 -0.028752912 7.0810554e-39 317 263
-0.0025037599 0.71399999 -0.028793238 6.0701461e-39 318 263
-0.0012553866 0.71600002 -0.028873893 5.6091693e-39 319 263
0 0.71600002 -0.028873893 4.8737707e-39 320 263
0.00125714 0.71700001 -0.028914221 5.058162e-39 321 263
0.0025142799 0.71700001 -0.028914221 5.8854017e-39 322 263
0.0037714199 0.71700001 -0.028914221 6.2545444e-39 323 263
0.0050285598 0.71700001 -0.028914221 7.0803365e-39 324 263
0.0063032326 0.71899998 -0.028994869 7.2643677e-39 325 263
0.0075638802 0.71899998 -0.028994869 7.3562004e-39 326 263
0.0088245263 0.71899998 -0.028994869 7.1718077e-39 327 263
0.010099201 0.72000003 -0.029035201 6.895588e-39 328 263
0.01139316 0.722 -0.029115854 6.895588e-39 329 263
0.012659066 0.722 -0.029115854 6.8963096e-39 330 263
0.013924973 0.722 -0.029115854 6.9885067e-39 331 263
0.015211919 0.72299999 -0.029156178 7.1729007e-39 332 263
0.016525166 0.72500002 -0.029236834 7.2650963e-39 333 263
0.017796334 0.72500002 -0.029236834 6.9910234e-39 334 263
0.0190675 0.72500002 -0.029236834 6.5304054e-39 335 263
0.020394772 0.727 -0.029317487 5.4261962e-39 336 263
0.021669446 0.727 -0.029317487 1.1695859e-38 337 263
0.022944121 0.727 -0.029317487 1.6404298e-38 338 263
-0.035298105 0.71899998 -0.030255521 7.9140587e-39 292 264
-0.03403746 0.71899998 -0.030255521 8.4672325e-39 293 264
-0.032685637 0.71700001 -0.030171359 8.1895666e-39 294 264
-0.031428497 0.71700001 -0.030171359 7.8211442e-39 295 264
-0.03012928 0.71600002 -0.03012928 7.7278752e-39 296 264
-0.028873893 0.71600002 -0.03012928 7.7278752e-39 297 264
-0.027618507 0.71600002 -0.03012928 8.0037502e-39 298 264
-0.026289478 0.71399999 -0.030045118 8.0037502e-39 299 264
-0.025037598 0.71399999 -0.030045118 8.004832e-39 300 264
-0.023752406 0.713 -0.030003037 8.004832e-39 301 264
-0.022502279 0.713 -0.030003037 8.0055509e-39 302 264
-0.021281958 0.71399999 -0.030045118 8.0055509e-39 303 264
-0.020002026 0.713 -0.030003037 8.1874254e-39 304 264
-0.018751899 0.713 -0.030003037 8.0030341e-39 305 264
-0.01745268 0.71100003 -0.029918881 7.817917e-39 306 264
-0.01620606 0.71100003 -0.029918881 7.7257214e-39 307 264
-0.014959441 0.71100003 -0.029918881 7.7253584e-39 308 264
-0.01371282 0.71100003 -0.029918881 7.6328041e-39 309 264
-0.0124662 0.71100003 -0.029918881 7.540963e-39 310 264
-0.01121958 0.71100003 -0.029918881 7.540963e-39 311 264
-0.0099729598 0.71100003 -0.029918881 7.5409602e-39 312 264
-0.0087263398 0.71100003 -0.029918881 7.4487645e-39 313 264
-0.0074797203 0.71100003 -0.029918881 7.4491177e-39 314 264
-0.0062506334 0.713 -0.030003037 7.5413133e-39 315 264
-0.0050005065 0.713 -0.030003037 7.0821274e-39 316 264
-0.0037503797 0.713 -0.030003037 6.8059007e-39 317 264
-0.0025037599 0.71399999 -0.030045118 6.0704964e-39 318 264
-0.0012553866 0.71600002 -0.03012928 5.6095183e-39 319 264
0 0.71600002 -0.03012928 5.2421833e-39 320 264
0.0012553866 0.71600002 -0.03012928 5.5187716e-39 321 264
0.0025142799 0.71700001 -0.030171359 6.6208017e-39 322 264
0.0037714199 0.71700001 -0.030171359 6.89739e-39 323 264
0.0050285598 0.71700001 -0.030171359 7.448396e-39 324 264
0.0063032326 0.71899998 -0.030255521 7.6324271e-39 325 264
0.0075638802 0.71899998 -0.030255521 7.6317083e-39 326 264
0.0088245263 0.71899998 -0.030255521 7.35512e-39 327 264
0.010085173 0.71899998 -0.030255521 6.8959439e-39 328 264
0.011361601 0.72000003 -0.0302976 6.8037483e-39 329 264
0.012659066 0.722 -0.030381758 6.6208017e-39 330 264
0.013924973 0.722 -0.030381758 6.7129974e-39 331 264
0.015211919 0.72299999 -0.030423839 6.8973928e-39 332 264
0.016525166 0.72500002 -0.030508002 7.081424e-39 333 264
0.017796334 0.72500002 -0.030508002 6.8080783e-39 334 264
0.0190675 0.72500002 -0.030508002 6.5318501e-39 335 264
0.020394772 0.727 -0.030592158 5.3332817e-39 336 264
0.021669446 0.727 -0.030592158 1.1325998e-38 337 264
0.022944121 0.727 -0.030592158 1.6311026e-38 338 264
-0.03403746 0.71899998 -0.031516165 7.9169299e-39 293 265
-0.032685637 0.71700001 -0.031428497 8.1899225e-39 294 265
-0.031428497 0.71700001 -0.031428497 7.7289444e-39 295 265
-0.03012928 0.71600002 -0.031384666 7.6356739e-39 296 265
-0.028873893 0.71600002 -0.031384666 7.6356739e-39 297 265
-0.027618507 0.71600002 -0.031384666 7.9115378e-39 298 265
-0.026289478 0.71399999 -0.031296998 7.9115378e-39 299 265
-0.025037598 0.71399999 -0.031296998 7.9119035e-39 300 265
-0.02378572 0.71399999 -0.031296998 7.9119035e-39 301 265
-0.022533838 0.71399999 -0.031296998 8.0033873e-39 302 265
-0.021281958 0.71399999 -0.031296998 8.0955829e-39 303 265
-0.020002026 0.713 -0.031253166 8.0030313e-39 304 265
-0.018751899 0.713 -0.031253166 7.9108343e-39 305 265
-0.01745268 0.71100003 -0.031165501 7.6356795e-39 306 265
-0.01620606 0.71100003 -0.031165501 7.4509295e-39 307 265
-0.014959441 0.71100003 -0.031165501 7.541679e-39 308 265
-0.01371282 0.71100003 -0.031165501 7.4494834e-39 309 265
-0.0124662 0.71100003 -0.031165501 7.2654523e-39 310 265
-0.01121958 0.71100003 -0.031165501 7.1732566e-39 311 265
-0.0099729598 0.71100003 -0.031165501 7.1732538e-39 312 265
-0.0087263398 0.71100003 -0.031165501 7.2654495e-39 313 265
-0.0074797203 0.71100003 -0.031165501 6.9906576e-39 314 265
-0.0062330998 0.71100003 -0.031165501 7.0828533e-39 315 265
-0.0050005065 0.713 -0.031253166 6.9910136e-39 316 265
-0.0037503797 0.713 -0.031253166 6.714068e-39 317 265
-0.0025037599 0.71399999 -0.031296998 5.887187e-39 318 265
-0.00125188 0.71399999 -0.031296998 5.702437e-39 319 265
0 0.71600002 -0.031384666 5.427292e-39 320 265
0.0012553866 0.71600002 -0.031384666 5.7042376e-39 321 265
0.0025142799 0.71700001 -0.031428497 7.173251e-39 322 265
0.0037714199 0.71700001 -0.031428497 7.2654467e-39 323 265
0.0050285598 0.71700001 -0.031428497 7.7239067e-39 324 265
0.0062857 0.71700001 -0.031428497 7.7239067e-39 325 265
0.0075638802 0.71899998 -0.031516165 7.6317111e-39 326 265
0.0088245263 0.71899998 -0.031516165 7.4473198e-39 327 265
0.010085173 0.71899998 -0.031516165 6.9881423e-39 328 265
0.011361601 0.72000003 -0.03156 6.895588e-39 329 265
0.012624 0.72000003 -0.03156 6.6208017e-39 330 265
0.013924973 0.722 -0.031647664 6.7129974e-39 331 265
0.015190879 0.722 -0.031647664 6.7126428e-39 332 265
0.01647958 0.72299999 -0.031691495 7.081424e-39 333 265
0.017747238 0.72299999 -0.031691495 6.80843e-39 334 265
0.0190675 0.72500002 -0.031779166 6.4400076e-39 335 265
0.020338668 0.72500002 -0.031779166 5.5155108e-39 336 265
0.021699252 0.72799999 -0.031910665 1.1692615e-38 337 265
0.022975679 0.72799999 -0.031910665 1.6494691e-38 338 265
-0.035298105 0.71899998 -0.032776814 8.1895484e-39 292 266
-0.03403746 0.71899998 -0.032776814 8.7427221e-39 293 266
-0.032685637 0.71700001 -0.032685637 8.3739452e-39 294 266
-0.031428497 0.71700001 -0.032685637 8.0973583e-39 295 266
-0.03012928 0.71600002 -0.032640055 7.9118881e-39 296 266
-0.028873893 0.71600002 -0.032640055 7.8196924e-39 297 266
-0.027618507 0.71600002 -0.032640055 7.7271437e-39 298 266
-0.026363119 0.71600002 -0.032640055 7.7271437e-39 299 266
-0.025037598 0.71399999 -0.032548878 7.543128e-39 300 266
-0.02378572 0.71399999 -0.032548878 7.4509323e-39 301 266
-0.022533838 0.71399999 -0.032548878 7.3594654e-39 302 266
-0.021281958 0.71399999 -0.032548878 7.5434965e-39 303 266
-0.020002026 0.713 -0.032503292 7.452733e-39 304 266
-0.018751899 0.713 -0.032503292 7.452733e-39 305 266
-0.01745268 0.71100003 -0.032412119 7.5434783e-39 306 266
-0.01620606 0.71100003 -0.032412119 7.5434783e-39 307 266
-0.014959441 0.71100003 -0.032412119 7.5416762e-39 308 266
-0.01371282 0.71100003 -0.032412119 7.2654495e-39 309 266
-0.0124662 0.71100003 -0.032412119 7.0814212e-39 310 266
-0.01121958 0.71100003 -0.032412119 7.0814212e-39 311 266
-0.0099729598 0.71100003 -0.032412119 6.7147938e-39 312 266
-0.0087263398 0.71100003 -0.032412119 6.7147938e-39 313 266
-0.0074797203 0.71100003 -0.032412119 6.7151498e-39 314 266
-0.0062330998 0.71100003 -0.032412119 6.7151498e-39 315 266
-0.0050005065 0.713 -0.032503292 6.6229513e-39 316 266
-0.0037503797 0.713 -0.032503292 6.4385587e-39 317 266
-0.0025002533 0.713 -0.032503292 6.2538087e-39 318 266
-0.00125188 0.71399999 -0.032548878 6.2538087e-39 319 266
0 0.71600002 -0.032640055 6.3456414e-39 320 266
0.0012553866 0.71600002 -0.032640055 6.7140652e-39 321 266
0.0025142799 0.71700001 -0.032685637 7.173607e-39 322 266
0.0037714199 0.71700001 -0.032685637 7.2658026e-39 323 266
0.0050285598 0.71700001 -0.032685637 7.6317111e-39 324 266
0.0062857 0.71700001 -0.032685637 7.6317111e-39 325 266
0.0075638802 0.71899998 -0.032776814 7.6317111e-39 326 266
0.0088245263 0.71899998 -0.032776814 7.5395154e-39 327 266
0.010085173 0.71899998 -0.032776814 6.9888598e-39 328 266
0.011361601 0.72000003 -0.0328224 6.8966628e-39 329 266
0.012624 0.72000003 -0.0328224 6.6208017e-39 330 266
0.013924973 0.722 -0.032913569 6.6208017e-39 331 266
0.015190879 0.722 -0.032913569 6.5300522e-39 332 266
0.01647958 0.72299999 -0.032959159 6.6222479e-39 333 266
0.017747238 0.72299999 -0.032959159 6.6251205e-39 334 266
0.0190675 0.72500002 -0.033050332 6.0719482e-39 335 266
0.020338668 0.72500002 -0.033050332 6.2476836e-39 336 266
0.021609833 0.72500002 -0.033050332 1.2978316e-38 337 266
-0.032685637 0.71700001 -0.033942781 8.0988003e-39 294 267
-0.031428497 0.71700001 -0.033942781 7.914409e-39 295 267
-0.03012928 0.71600002 -0.03389544 7.8211386e-39 296 267
-0.028873893 0.71600002 -0.03389544 7.5445503e-39 297 267
-0.027618507 0.71600002 -0.03389544 7.7271437e-39 298 267
-0.026363119 0.71600002 -0.03389544 7.7271437e-39 299 267
-0.025037598 0.71399999 -0.033800758 7.4512799e-39 300 267
-0.02378572 0.71399999 -0.033800758 7.3590842e-39 301 267
-0.022533838 0.71399999 -0.033800758 7.3587311e-39 302 267
-0.021281958 0.71399999 -0.033800758 7.5434811e-39 303 267
-0.020002026 0.713 -0.033753417 7.5434811e-39 304 267
-0.018751899 0.713 -0.033753417 7.6356767e-39 305 267
-0.01745268 0.71100003 -0.033658739 7.5427622e-39 306 267
-0.01620606 0.71100003 -0.033658739 7.3580108e-39 307 267
-0.014959441 0.71100003 -0.033658739 7.358364e-39 308 267
-0.01371282 0.71100003 -0.033658739 7.2661683e-39 309 267
-0.0124662 0.71100003 -0.033658739 6.9906576e-39 310 267
-0.01121958 0.71100003 -0.033658739 6.898462e-39 311 267
-0.0099729598 0.71100003 -0.033658739 6.715147e-39 312 267
-0.0087263398 0.71100003 -0.033658739 6.6229513e-39 313 267
-0.0074797203 0.71100003 -0.033658739 6.623673e-39 314 267
-0.0062330998 0.71100003 -0.033658739 6.5311186e-39 315 267
-0.0050005065 0.713 -0.033753417 6.5311186e-39 316 267
-0.0037503797 0.713 -0.033753417 6.2548905e-39 317 267
-0.0025002533 0.713 -0.033753417 6.1626976e-39 318 267
-0.00125188 0.71399999 -0.033800758 6.1626976e-39 319 267
0 0.71399999 -0.033800758 6.6215178e-39 320 267
0.0012553866 0.71600002 -0.03389544 6.8059105e-39 321 267
0.0025107733 0.71600002 -0.03389544 7.173251e-39 322 267
0.0037714199 0.71700001 -0.033942781 7.2654467e-39 323 267
0.0050285598 0.71700001 -0.033942781 7.4483988e-39 324 267
0.0062857 0.71700001 -0.033942781 7.4483988e-39 325 267
0.0075428397 0.71700001 -0.033942781 7.173251e-39 326 267
0.0088245263 0.71899998 -0.03403746 7.0810554e-39 327 267
0.010099201 0.72000003 -0.034084801 6.8062636e-39 328 267
0.011361601 0.72000003 -0.034084801 6.714068e-39 329 267
0.012624 0.72000003 -0.034084801 6.4382027e-39 330 267
0.013924973 0.722 -0.034179479 6.3460071e-39 331 267
0.015190879 0.722 -0.034179479 6.6208017e-39 332 267
0.01647958 0.72299999 -0.03422682 7.0814212e-39 333 267
0.017747238 0.72299999 -0.03422682 6.9917268e-39 334 267
0.019014901 0.72299999 -0.03422682 6.2541618e-39 335 267
0.020338668 0.72500002 -0.034321502 7.3565255e-39 336 267
0.021609833 0.72500002 -0.034321502 1.4363749e-38 337 267
-0.032776814 0.71899998 -0.035298105 8.4661437e-39 294 268
-0.031428497 0.71700001 -0.035199918 8.189198e-39 295 268
-0.030171359 0.71700001 -0.035199918 8.0962835e-39 296 268
-0.028873893 0.71600002 -0.035150826 7.9118909e-39 297 268
-0.027618507 0.71600002 -0.035150826 7.6360299e-39 298 268
-0.026363119 0.71600002 -0.035150826 7.4512799e-39 299 268
-0.025037598 0.71399999 -0.035052639 7.7267906e-39 300 268
-0.02378572 0.71399999 -0.035052639 7.4505638e-39 301 268
-0.022533838 0.71399999 -0.035052639 7.4505666e-39 302 268
-0.021281958 0.71399999 -0.035052639 7.4505666e-39 303 268
-0.020002026 0.713 -0.035003547 7.2676201e-39 304 268
-0.018751899 0.713 -0.035003547 7.2676201e-39 305 268
-0.017501773 0.713 -0.035003547 7.7260745e-39 306 268
-0.01620606 0.71100003 -0.034905359 7.6338789e-39 307 268
-0.014959441 0.71100003 -0.034905359 7.5420322e-39 308 268
-0.01371282 0.71100003 -0.034905359 7.2654467e-39 309 268
-0.0124662 0.71100003 -0.034905359 7.0821302e-39 310 268
