# .PCD v.7 - Point Cloud Data file format
FIELDS x y z rgb imX imY
SIZE 4 4 4 4 4 4
TYPE F F F F F F
COUNT 1 1 1 1 1 1
WIDTH 834
HEIGHT 1
VIEWPOINT 0 0 0 1 0 0 0
POINTS 834
DATA ascii
0.039895348 0.73400003 -0.020591147 1.1044667e-38 351 256
0.041182294 0.73400003 -0.020591147 1.1334257e-38 352 256
-0.045670826 0.704 -0.020983893 1.6217385e-38 283 257
-0.044562716 0.70599997 -0.021043506 1.5477974e-38 284 257
-0.043324865 0.70599997 -0.021043506 1.4555658e-38 285 257
-0.041967787 0.704 -0.020983893 1.5748419e-38 286 257
-0.040675577 0.70300001 -0.020954086 1.6025364e-38 287 257
-0.039442986 0.70300001 -0.020954086 1.6118649e-38 288 257
-0.038210396 0.70300001 -0.020954086 1.6487431e-38 289 257
-0.037030395 0.704 -0.020983893 1.6764012e-38 290 257
-0.035745207 0.70300001 -0.020954086 1.6856208e-38 291 257
-0.034512613 0.70300001 -0.020954086 1.6856194e-38 292 257
-0.033280019 0.70300001 -0.020954086 1.6763998e-38 293 257
-0.032047424 0.70300001 -0.020954086 1.6671081e-38 294 257
-0.030858666 0.704 -0.020983893 1.648669e-38 295 257
-0.029624319 0.704 -0.020983893 1.6577086e-38 296 257
-0.028389972 0.704 -0.020983893 1.6484891e-38 297 257
-0.027155625 0.704 -0.020983893 1.6301575e-38 298 257
-0.02592128 0.704 -0.020983893 1.6301575e-38 299 257
-0.024686933 0.704 -0.020983893 1.6118263e-38 300 257
-0.023452586 0.704 -0.020983893 1.6302294e-38 301 257
-0.022218239 0.704 -0.020983893 1.6118632e-38 302 257
-0.021073313 0.70700002 -0.021073313 1.6118632e-38 303 257
-0.01986176 0.708 -0.021103119 1.593461e-38 304 257
-0.018672999 0.70999998 -0.021162732 1.6210839e-38 305 257
-0.01745268 0.71100003 -0.021192541 1.6303037e-38 306 257
-0.01620606 0.71100003 -0.021192541 1.6395233e-38 307 257
-0.015001519 0.713 -0.021252153 1.6212274e-38 308 257
-0.01377068 0.71399999 -0.021281958 1.6396305e-38 309 257
-0.012518799 0.71399999 -0.021281958 1.6488856e-38 310 257
-0.011266919 0.71399999 -0.021281958 1.6396661e-38 311 257
-0.010043093 0.71600002 -0.021341572 1.6395942e-38 312 257
-0.0087877065 0.71600002 -0.021341572 1.6303387e-38 313 257
-0.00753232 0.71600002 -0.021341572 1.6578179e-38 314 257
-0.0062857 0.71700001 -0.021371379 1.6578179e-38 315 257
-0.0050285598 0.71700001 -0.021371379 1.6395589e-38 316 257
-0.0037714199 0.71700001 -0.021371379 1.6764012e-38 317 257
-0.0025212932 0.71899998 -0.021430992 1.6489583e-38 318 257
-0.0012624001 0.72000003 -0.021460801 1.6489583e-38 319 257
0 0.72000003 -0.021460801 1.6856208e-38 320 257
0.0012624001 0.72000003 -0.021460801 1.6764012e-38 321 257
0.0025318132 0.722 -0.021520413 1.6763295e-38 322 257
0.0038029798 0.72299999 -0.021550218 1.6671099e-38 323 257
0.0050706398 0.72299999 -0.021550218 1.6579983e-38 324 257
0.0063382997 0.72299999 -0.021550218 1.6579983e-38 325 257
0.0076059597 0.72299999 -0.021550218 1.6581056e-38 326 257
0.0088981669 0.72500002 -0.021609833 1.6673252e-38 327 257
0.010169334 0.72500002 -0.021609833 1.6765445e-38 328 257
0.0114405 0.72500002 -0.021609833 1.6765445e-38 329 257
0.012676599 0.72299999 -0.021550218 1.6856208e-38 330 257
0.01394426 0.72299999 -0.021550218 1.6856208e-38 331 257
0.015254001 0.72500002 -0.021609833 1.6672896e-38 332 257
0.016570752 0.727 -0.021669446 1.6672896e-38 333 257
0.017845426 0.727 -0.021669446 1.694876e-38 334 257
0.019120099 0.727 -0.021669446 1.694876e-38 335 257
0.020394772 0.727 -0.021669446 1.6857643e-38 336 257
0.021699252 0.72799999 -0.021699252 1.6765447e-38 337 257
0.022975679 0.72799999 -0.021699252 1.6856211e-38 338 257
0.024318734 0.73000002 -0.021758866 1.6764015e-38 339 257
0.025598666 0.73000002 -0.021758866 1.6579627e-38 340 257
0.026915418 0.73100001 -0.021788673 1.6579627e-38 341 257
0.028197108 0.73100001 -0.021788673 1.6488506e-38 342 257
0.029478792 0.73100001 -0.021788673 1.6672899e-38 343 257
0.030844638 0.73299998 -0.021848286 1.6488503e-38 344 257
0.032129832 0.73299998 -0.021848286 1.6027526e-38 345 257
0.033415023 0.73299998 -0.021848286 1.5750567e-38 346 257
0.034700219 0.73299998 -0.021848286 1.5105197e-38 347 257
0.036034506 0.73400003 -0.021878093 1.473462e-38 348 257
0.037270606 0.73299998 -0.021848286 1.3904859e-38 349 257
0.038555797 0.73299998 -0.021848286 1.2980404e-38 350 257
0.039732285 0.73100001 -0.021788673 1.0306741e-38 351 257
0.041013971 0.73100001 -0.021788673 9.0214404e-39 352 257
0.042411376 0.73299998 -0.021848286 1.5751723e-38 353 257
-0.046905171 0.704 -0.022218239 1.6307764e-38 282 258
-0.045670826 0.704 -0.022218239 1.5109579e-38 283 258
-0.044436477 0.704 -0.022218239 1.5751315e-38 284 258
-0.043202132 0.704 -0.022218239 1.5751315e-38 285 258
-0.041967787 0.704 -0.022218239 1.6118646e-38 286 258
-0.040675577 0.70300001 -0.02218668 1.6303037e-38 287 258
-0.039330769 0.70099998 -0.022123558 1.6305544e-38 288 258
-0.038047329 0.69999999 -0.022091998 1.6397741e-38 289 258
-0.036819998 0.69999999 -0.022091998 1.67658e-38 290 258
-0.035643511 0.70099998 -0.022123558 1.67658e-38 291 258
-0.034414422 0.70099998 -0.022123558 1.6949113e-38 292 258
-0.03318534 0.70099998 -0.022123558 1.6764363e-38 293 258
-0.031956252 0.70099998 -0.022123558 1.6485618e-38 294 258
-0.030814834 0.70300001 -0.02218668 1.6393421e-38 295 258
-0.029582238 0.70300001 -0.02218668 1.6484891e-38 296 258
-0.028349647 0.70300001 -0.02218668 1.6484891e-38 297 258
-0.027117053 0.70300001 -0.02218668 1.6025712e-38 298 258
-0.025884461 0.70300001 -0.02218668 1.6025712e-38 299 258
-0.024651866 0.70300001 -0.02218668 1.6025714e-38 300 258
-0.023452586 0.704 -0.022218239 1.5840964e-38 301 258
-0.022218239 0.704 -0.022218239 1.5565459e-38 302 258
-0.021073313 0.70700002 -0.022312919 1.5657655e-38 303 258
-0.019833706 0.70700002 -0.022312919 1.5565825e-38 304 258
-0.018672999 0.70999998 -0.022407599 1.5750216e-38 305 258
-0.01745268 0.71100003 -0.022439159 1.5750935e-38 306 258
-0.01620606 0.71100003 -0.022439159 1.6027882e-38 307 258
-0.015001519 0.713 -0.022502279 1.6211192e-38 308 258
-0.013751393 0.713 -0.022502279 1.6303387e-38 309 258
-0.012518799 0.71399999 -0.022533838 1.6395223e-38 310 258
-0.011266919 0.71399999 -0.022533838 1.6395223e-38 311 258
-0.01001504 0.71399999 -0.022533838 1.630339e-38 312 258
-0.0087631596 0.71399999 -0.022533838 1.6118999e-38 313 258
-0.00753232 0.71600002 -0.022596961 1.6117204e-38 314 258
-0.0062769335 0.71600002 -0.022596961 1.6301594e-38 315 258
-0.0050215465 0.71600002 -0.022596961 1.6210839e-38 316 258
-0.0037714199 0.71700001 -0.02262852 1.6395589e-38 317 258
-0.0025212932 0.71899998 -0.022691639 1.6396307e-38 318 258
-0.0012606466 0.71899998 -0.022691639 1.6488503e-38 319 258
0 0.72000003 -0.022723202 1.6763648e-38 320 258
0.0012624001 0.72000003 -0.022723202 1.6763648e-38 321 258
0.0025248001 0.72000003 -0.022723202 1.6578901e-38 322 258
0.0037977197 0.722 -0.022786319 1.6671096e-38 323 258
0.0050636264 0.722 -0.022786319 1.6487781e-38 324 258
0.0063295332 0.722 -0.022786319 1.6580336e-38 325 258
0.0076059597 0.72299999 -0.02281788 1.6764363e-38 326 258
0.0088736191 0.72299999 -0.02281788 1.6856917e-38 327 258
0.01014128 0.72299999 -0.02281788 1.6673246e-38 328 258
0.01140894 0.72299999 -0.02281788 1.6673246e-38 329 258
0.012676599 0.72299999 -0.02281788 1.6673252e-38 330 258
0.01394426 0.72299999 -0.02281788 1.6673252e-38 331 258
0.015211919 0.72299999 -0.02281788 1.6856564e-38 332 258
0.01647958 0.72299999 -0.02281788 1.6856564e-38 333 258
0.017747238 0.72299999 -0.02281788 1.6948762e-38 334 258
0.019014901 0.72299999 -0.02281788 1.7040958e-38 335 258
0.020338668 0.72500002 -0.022880999 1.6857646e-38 336 258
0.021609833 0.72500002 -0.022880999 1.6857646e-38 337 258
0.022880999 0.72500002 -0.022880999 1.6672899e-38 338 258
0.024218792 0.727 -0.022944121 1.6488506e-38 339 258
0.025493465 0.727 -0.022944121 1.6578548e-38 340 258
0.026804959 0.72799999 -0.022975679 1.6578548e-38 341 258
0.028158534 0.73000002 -0.023038799 1.6395235e-38 342 258
0.029438468 0.73000002 -0.023038799 1.6395235e-38 343 258
0.03076048 0.73100001 -0.02307036 1.6302318e-38 344 258
0.032042164 0.73100001 -0.02307036 1.5933534e-38 345 258
0.033323854 0.73100001 -0.02307036 1.5748416e-38 346 258
0.034700219 0.73299998 -0.023133477 1.5379992e-38 347 258
0.035985414 0.73299998 -0.023133477 1.4734623e-38 348 258
0.037270606 0.73299998 -0.023133477 1.3904862e-38 349 258
0.038555797 0.73299998 -0.023133477 1.3442101e-38 350 258
0.039732285 0.73100001 -0.02307036 1.1229766e-38 351 258
0.040957868 0.73000002 -0.023038799 1.0027315e-38 352 258
0.0422378 0.73000002 -0.023038799 1.4544899e-38 353 258
0.043517731 0.73000002 -0.023038799 1.5299049e-38 354 258
-0.045670826 0.704 -0.023452586 1.5016662e-38 283 259
-0.04437336 0.70300001 -0.023419274 1.6212289e-38 284 259
-0.043140765 0.70300001 -0.023419274 1.6212289e-38 285 259
-0.041788943 0.70099998 -0.023352645 1.6396661e-38 286 259
-0.040502001 0.69999999 -0.023319334 1.6673249e-38 287 259
-0.039274666 0.69999999 -0.023319334 1.6858712e-38 288 259
-0.038047329 0.69999999 -0.023319334 1.6766517e-38 289 259
-0.036819998 0.69999999 -0.023319334 1.6856911e-38 290 259
-0.035592664 0.69999999 -0.023319334 1.6856911e-38 291 259
-0.034365334 0.69999999 -0.023319334 1.6948394e-38 292 259
-0.033137999 0.69999999 -0.023319334 1.6764001e-38 293 259
-0.031910665 0.69999999 -0.023319334 1.6117557e-38 294 259
-0.030683333 0.69999999 -0.023319334 1.6025361e-38 295 259
-0.029455997 0.69999999 -0.023319334 1.5749851e-38 296 259
-0.028268991 0.70099998 -0.023352645 1.5933882e-38 297 259
-0.027039904 0.70099998 -0.023352645 1.5933882e-38 298 259
-0.025884461 0.70300001 -0.023419274 1.5657655e-38 299 259
-0.024651866 0.70300001 -0.023419274 1.5748769e-38 300 259
-0.023419274 0.70300001 -0.023419274 1.5380345e-38 301 259
-0.02218668 0.70300001 -0.023419274 1.5013004e-38 302 259
-0.021043506 0.70599997 -0.023519212 1.51052e-38 303 259
-0.019805651 0.70599997 -0.023519212 1.4921538e-38 304 259
-0.018594101 0.70700002 -0.023552528 1.5289961e-38 305 259
-0.017428132 0.70999998 -0.023652466 1.5199564e-38 306 259
-0.016183265 0.70999998 -0.023652466 1.5383955e-38 307 259
-0.014959441 0.71100003 -0.023685781 1.556727e-38 308 259
-0.01371282 0.71100003 -0.023685781 1.5659465e-38 309 259
-0.012501267 0.713 -0.023752406 1.5751665e-38 310 259
-0.011251139 0.713 -0.023752406 1.5751665e-38 311 259
-0.01001504 0.71399999 -0.02378572 1.5934257e-38 312 259
-0.0087631596 0.71399999 -0.02378572 1.5842062e-38 313 259
-0.0075112795 0.71399999 -0.02378572 1.6025374e-38 314 259
-0.0062769335 0.71600002 -0.023852346 1.6025374e-38 315 259
-0.0050215465 0.71600002 -0.023852346 1.6210125e-38 316 259
-0.0037714199 0.71700001 -0.02388566 1.6302321e-38 317 259
-0.0025142799 0.71700001 -0.02388566 1.6302684e-38 318 259
-0.0012606466 0.71899998 -0.023952285 1.6395238e-38 319 259
0 0.71899998 -0.023952285 1.6211923e-38 320 259
0.0012606466 0.71899998 -0.023952285 1.6119728e-38 321 259
0.0025212932 0.71899998 -0.023952285 1.6212995e-38 322 259
0.0037872 0.72000003 -0.0239856 1.6305191e-38 323 259
0.0050496003 0.72000003 -0.0239856 1.6306264e-38 324 259
0.0063120001 0.72000003 -0.0239856 1.6306264e-38 325 259
0.0075743999 0.72000003 -0.0239856 1.6397738e-38 326 259
0.0088613462 0.722 -0.024052227 1.6489934e-38 327 259
0.010127253 0.722 -0.024052227 1.67658e-38 328 259
0.01139316 0.722 -0.024052227 1.6673246e-38 329 259
0.012659066 0.722 -0.024052227 1.6673249e-38 330 259
0.013924973 0.722 -0.024052227 1.6673249e-38 331 259
0.015190879 0.722 -0.024052227 1.6673252e-38 332 259
0.01647958 0.72299999 -0.024085538 1.6765447e-38 333 259
0.017747238 0.72299999 -0.024085538 1.6765094e-38 334 259
0.019014901 0.72299999 -0.024085538 1.6765094e-38 335 259
0.020282559 0.72299999 -0.024085538 1.6857293e-38 336 259
0.021550218 0.72299999 -0.024085538 1.6672901e-38 337 259
0.02281788 0.72299999 -0.024085538 1.658035e-38 338 259
0.024152167 0.72500002 -0.024152167 1.6211567e-38 339 259
0.025423333 0.72500002 -0.024152167 1.6394519e-38 340 259
0.026768139 0.727 -0.024218792 1.6394519e-38 341 259
0.028081384 0.72799999 -0.024252106 1.6027176e-38 342 259
0.029438468 0.73000002 -0.024318734 1.593498e-38 343 259
0.030718399 0.73000002 -0.024318734 1.5842064e-38 344 259
0.031998333 0.73000002 -0.024318734 1.5565119e-38 345 259
0.033323854 0.73100001 -0.024352046 1.5379639e-38 346 259
0.034605537 0.73100001 -0.024352046 1.5195248e-38 347 259
0.035985414 0.73299998 -0.024418673 1.4733541e-38 348 259
0.037168913 0.73100001 -0.024352046 1.4180367e-38 349 259
0.038450599 0.73100001 -0.024352046 1.380907e-38 350 259
0.039677933 0.73000002 -0.024318734 1.2333939e-38 351 259
0.040957868 0.73000002 -0.024318734 1.1039292e-38 352 259
0.0422378 0.73000002 -0.024318734 1.2883205e-38 353 259
0.043517731 0.73000002 -0.024318734 1.4190529e-38 354 259
0.044797666 0.73000002 -0.024318734 1.7140791e-38 355 259
-0.046905171 0.704 -0.024686933 1.5198528e-38 282 260
-0.04560595 0.70300001 -0.024651866 1.5659508e-38 283 260
-0.04437336 0.70300001 -0.024651866 1.6395601e-38 284 260
-0.043018032 0.70099998 -0.024581732 1.6395601e-38 285 260
-0.041729331 0.69999999 -0.024546666 1.6581053e-38 286 260
-0.040502001 0.69999999 -0.024546666 1.685764e-38 287 260
-0.039162453 0.69800001 -0.024476532 1.6766163e-38 288 260
-0.037938625 0.69800001 -0.024476532 1.6766163e-38 289 260
-0.0367148 0.69800001 -0.024476532 1.6857643e-38 290 260
-0.035490975 0.69800001 -0.024476532 1.6581056e-38 291 260
-0.034267146 0.69800001 -0.024476532 1.6487781e-38 292 260
-0.033043321 0.69800001 -0.024476532 1.5658021e-38 293 260
-0.031819493 0.69800001 -0.024476532 1.4732107e-38 294 260
-0.030595668 0.69800001 -0.024476532 1.5377477e-38 295 260
-0.029371841 0.69800001 -0.024476532 1.5655856e-38 296 260
-0.028228667 0.69999999 -0.024546666 1.5748051e-38 297 260
-0.027001332 0.69999999 -0.024546666 1.5748769e-38 298 260
-0.025773998 0.69999999 -0.024546666 1.5748769e-38 299 260
-0.024581732 0.70099998 -0.024581732 1.5380345e-38 300 260
-0.023352645 0.70099998 -0.024581732 1.4734976e-38 301 260
-0.02218668 0.70300001 -0.024651866 1.4458019e-38 302 260
-0.020983893 0.704 -0.024686933 1.4181073e-38 303 260
-0.019805651 0.70599997 -0.024757065 1.4000631e-38 304 260
-0.018567799 0.70599997 -0.024757065 1.4277219e-38 305 260
-0.017354494 0.70700002 -0.024792133 1.5194876e-38 306 260
-0.01613768 0.708 -0.024827199 1.5840246e-38 307 260
-0.014938398 0.70999998 -0.024897331 1.5657305e-38 308 260
-0.01371282 0.71100003 -0.024932399 1.5933531e-38 309 260
-0.0124662 0.71100003 -0.024932399 1.5749498e-38 310 260
-0.011251139 0.713 -0.025002534 1.5933529e-38 311 260
-0.010001013 0.713 -0.025002534 1.6025727e-38 312 260
-0.0087508867 0.713 -0.025002534 1.57495e-38 313 260
-0.0075112795 0.71399999 -0.025037598 1.6026083e-38 314 260
-0.0062769335 0.71600002 -0.025107734 1.6118279e-38 315 260
-0.0050215465 0.71600002 -0.025107734 1.6118632e-38 316 260
-0.00376616 0.71600002 -0.025107734 1.6210829e-38 317 260
-0.0025142799 0.71700001 -0.0251428 1.6210473e-38 318 260
-0.00125714 0.71700001 -0.0251428 1.6210473e-38 319 260
0 0.71899998 -0.025212931 1.6393791e-38 320 260
0.0012606466 0.71899998 -0.025212931 1.6485986e-38 321 260
0.0025212932 0.71899998 -0.025212931 1.6395952e-38 322 260
0.0037819401 0.71899998 -0.025212931 1.6672899e-38 323 260
0.0050425865 0.71899998 -0.025212931 1.639846e-38 324 260
0.0063120001 0.72000003 -0.025248 1.639846e-38 325 260
0.0075743999 0.72000003 -0.025248 1.658105e-38 326 260
0.0088367993 0.72000003 -0.025248 1.658105e-38 327 260
0.010127253 0.722 -0.025318133 1.6673249e-38 328 260
0.01139316 0.722 -0.025318133 1.6673249e-38 329 260
0.012659066 0.722 -0.025318133 1.6673249e-38 330 260
0.013924973 0.722 -0.025318133 1.6673249e-38 331 260
0.015190879 0.722 -0.025318133 1.6856561e-38 332 260
0.016456785 0.722 -0.025318133 1.6764366e-38 333 260
0.017747238 0.72299999 -0.025353199 1.6856211e-38 334 260
0.019014901 0.72299999 -0.025353199 1.6856211e-38 335 260
0.020282559 0.72299999 -0.025353199 1.6672901e-38 336 260
0.021550218 0.72299999 -0.025353199 1.6765097e-38 337 260
0.02281788 0.72299999 -0.025353199 1.6580347e-38 338 260
0.024085538 0.72299999 -0.025353199 1.6211923e-38 339 260
0.025423333 0.72500002 -0.025423333 1.6210123e-38 340 260
0.026694499 0.72500002 -0.025423333 1.6302318e-38 341 260
0.028042812 0.727 -0.025493465 1.6118643e-38 342 260
0.029357811 0.72799999 -0.025528532 1.5842415e-38 343 260
0.030718399 0.73000002 -0.025598666 1.57495e-38 344 260
0.031998333 0.73000002 -0.025598666 1.5380358e-38 345 260
0.033278264 0.73000002 -0.025598666 1.5010849e-38 346 260
0.034605537 0.73100001 -0.025633732 1.5010849e-38 347 260
0.035887226 0.73100001 -0.025633732 1.4550597e-38 348 260
0.037168913 0.73100001 -0.025633732 1.3629001e-38 349 260
0.038450599 0.73100001 -0.025633732 1.3165884e-38 350 260
0.039677933 0.73000002 -0.025598666 1.2152091e-38 351 260
0.040957868 0.73000002 -0.025598666 1.1411303e-38 352 260
0.0422378 0.73000002 -0.025598666 1.0581541e-38 353 260
0.043517731 0.73000002 -0.025598666 1.252955e-38 354 260
-0.048139516 0.704 -0.02592128 1.4926997e-38 281 261
-0.046838548 0.70300001 -0.025884461 1.5200312e-38 282 261
-0.045476202 0.70099998 -0.025810819 1.566093e-38 283 261
-0.044247117 0.70099998 -0.025810819 1.6028974e-38 284 261
-0.042956665 0.69999999 -0.025773998 1.6305561e-38 285 261
-0.041610107 0.69800001 -0.025700359 1.6305911e-38 286 261
-0.040386278 0.69800001 -0.025700359 1.6582498e-38 287 261
-0.039162453 0.69800001 -0.025700359 1.6858362e-38 288 261
-0.037884273 0.69700003 -0.025663542 1.6766166e-38 289 261
-0.036662199 0.69700003 -0.025663542 1.6856211e-38 290 261
-0.035440128 0.69700003 -0.025663542 1.6764015e-38 291 261
-0.034267146 0.69800001 -0.025700359 1.5842418e-38 292 261
-0.033043321 0.69800001 -0.025700359 1.5197048e-38 293 261
-0.031819493 0.69800001 -0.025700359 1.5101976e-38 294 261
-0.030595668 0.69800001 -0.025700359 1.5378563e-38 295 261
-0.029371841 0.69800001 -0.025700359 1.5105569e-38 296 261
-0.028228667 0.69999999 -0.025773998 1.5197764e-38 297 261
-0.027001332 0.69999999 -0.025773998 1.5472906e-38 298 261
-0.025773998 0.69999999 -0.025773998 1.5380711e-38 299 261
-0.024581732 0.70099998 -0.025810819 1.5379989e-38 300 261
-0.023352645 0.70099998 -0.025810819 1.5195598e-38 301 261
-0.022218239 0.704 -0.02592128 1.4735323e-38 302 261
-0.020983893 0.704 -0.02592128 1.4366539e-38 303 261
-0.019749546 0.704 -0.02592128 1.3907713e-38 304 261
-0.018567799 0.70599997 -0.025994917 1.4276137e-38 305 261
-0.017329946 0.70599997 -0.025994917 1.4828613e-38 306 261
-0.016114887 0.70700002 -0.02603174 1.5197396e-38 307 261
-0.01489632 0.708 -0.026068559 1.5289611e-38 308 261
-0.013693533 0.70999998 -0.026142199 1.5381807e-38 309 261
-0.0124662 0.71100003 -0.026179021 1.5382881e-38 310 261
-0.01121958 0.71100003 -0.026179021 1.5290327e-38 311 261
-0.010001013 0.713 -0.026252659 1.5566907e-38 312 261
-0.0087508867 0.713 -0.026252659 1.5750938e-38 313 261
-0.0075112795 0.71399999 -0.026289478 1.584384e-38 314 261
-0.0062593995 0.71399999 -0.026289478 1.5936037e-38 315 261
-0.0050075199 0.71399999 -0.026289478 1.6118993e-38 316 261
-0.00376616 0.71600002 -0.026363119 1.6211548e-38 317 261
-0.0025142799 0.71700001 -0.02639994 1.5935331e-38 318 261
-0.00125714 0.71700001 -0.02639994 1.5843134e-38 319 261
0 0.71700001 -0.02639994 1.5749869e-38 320 261
0.00125714 0.71700001 -0.02639994 1.5842064e-38 321 261
0.0025142799 0.71700001 -0.02639994 1.6305205e-38 322 261
0.0037819401 0.71899998 -0.02647358 1.658215e-38 323 261
0.0050425865 0.71899998 -0.02647358 1.6490302e-38 324 261
0.0063032326 0.71899998 -0.02647358 1.6398107e-38 325 261
0.0075638802 0.71899998 -0.02647358 1.6673249e-38 326 261
0.0088367993 0.72000003 -0.026510401 1.6673249e-38 327 261
0.010099201 0.72000003 -0.026510401 1.6673249e-38 328 261
0.01139316 0.722 -0.026584039 1.6673249e-38 329 261
0.012624 0.72000003 -0.026510401 1.6581053e-38 330 261
0.0138864 0.72000003 -0.026510401 1.6581053e-38 331 261
0.015190879 0.722 -0.026584039 1.65807e-38 332 261
0.016456785 0.722 -0.026584039 1.65807e-38 333 261
0.017722692 0.722 -0.026584039 1.6764018e-38 334 261
0.0189886 0.722 -0.026584039 1.6856214e-38 335 261
0.020254506 0.722 -0.026584039 1.6672899e-38 336 261
0.021520413 0.722 -0.026584039 1.6580703e-38 337 261
0.02281788 0.72299999 -0.026620859 1.6488503e-38 338 261
0.024085538 0.72299999 -0.026620859 1.6119722e-38 339 261
0.025353199 0.72299999 -0.026620859 1.6119722e-38 340 261
0.026620859 0.72299999 -0.026620859 1.5843134e-38 341 261
0.027965667 0.72500002 -0.026694499 1.5933531e-38 342 261
0.029317487 0.727 -0.026768139 1.57495e-38 343 261
0.030634239 0.72799999 -0.026804959 1.5197764e-38 344 261
0.031998333 0.73000002 -0.026878599 1.4921538e-38 345 261
0.033278264 0.73000002 -0.026878599 1.482754e-38 346 261
0.034605537 0.73100001 -0.026915418 1.464279e-38 347 261
0.035887226 0.73100001 -0.026915418 1.418217e-38 348 261
0.037168913 0.73100001 -0.026915418 1.3444605e-38 349 261
0.038450599 0.73100001 -0.026915418 1.2705615e-38 350 261
0.039677933 0.73000002 -0.026878599 1.1875855e-38 351 261
0.040957868 0.73000002 -0.026878599 1.1687517e-38 352 261
0.0422378 0.73000002 -0.026878599 1.01202e-38 353 261
0.043517731 0.73000002 -0.026878599 1.1785496e-38 354 261
-0.048071139 0.70300001 -0.027117053 1.4373455e-38 281 262
-0.046705291 0.70099998 -0.027039904 1.547617e-38 282 262
-0.04541133 0.69999999 -0.027001332 1.5844951e-38 283 262
-0.044183996 0.69999999 -0.027001332 1.602933e-38 284 262
-0.042956665 0.69999999 -0.027001332 1.602933e-38 285 262
-0.041610107 0.69800001 -0.026924185 1.6398107e-38 286 262
-0.040386278 0.69800001 -0.026924185 1.6582498e-38 287 262
-0.039106347 0.69700003 -0.026885614 1.6674694e-38 288 262
-0.037884273 0.69700003 -0.026885614 1.6490302e-38 289 262
-0.036662199 0.69700003 -0.026885614 1.6671452e-38 290 262
-0.035440128 0.69700003 -0.026885614 1.6210476e-38 291 262
-0.034218054 0.69700003 -0.026885614 1.5657655e-38 292 262
-0.03299598 0.69700003 -0.026885614 1.5380708e-38 293 262
-0.03177391 0.69700003 -0.026885614 1.5104484e-38 294 262
-0.030551834 0.69700003 -0.026885614 1.5104484e-38 295 262
-0.02932976 0.69700003 -0.026885614 1.4921888e-38 296 262
-0.028148014 0.69800001 -0.026924185 1.5105919e-38 297 262
-0.026924185 0.69800001 -0.026924185 1.5288515e-38 298 262
-0.025773998 0.69999999 -0.027001332 1.5104484e-38 299 262
-0.024546666 0.69999999 -0.027001332 1.5011935e-38 300 262
-0.023319334 0.69999999 -0.027001332 1.5104131e-38 301 262
-0.02218668 0.70300001 -0.027117053 1.4644222e-38 302 262
-0.020983893 0.704 -0.027155625 1.4367635e-38 303 262
-0.019749546 0.704 -0.027155625 1.3907729e-38 304 262
-0.018515198 0.704 -0.027155625 1.4184317e-38 305 262
-0.017329946 0.70599997 -0.027232772 1.4827537e-38 306 262
-0.016092092 0.70599997 -0.027232772 1.5288515e-38 307 262
-0.01489632 0.708 -0.027309919 1.5289597e-38 308 262
-0.013693533 0.70999998 -0.027387066 1.5473629e-38 309 262
-0.012448666 0.70999998 -0.027387066 1.5474708e-38 310 262
-0.01121958 0.71100003 -0.027425639 1.5474708e-38 311 262
-0.0099729598 0.71100003 -0.027425639 1.556762e-38 312 262
-0.0087263398 0.71100003 -0.027425639 1.5660175e-38 313 262
-0.0075007593 0.713 -0.027502786 1.59364e-38 314 262
-0.0062506334 0.713 -0.027502786 1.59364e-38 315 262
-0.0050075199 0.71399999 -0.02754136 1.6027879e-38 316 262
-0.0037556398 0.71399999 -0.02754136 1.5935684e-38 317 262
-0.0025107733 0.71600002 -0.027618507 1.5842415e-38 318 262
-0.0012553866 0.71600002 -0.027618507 1.5658024e-38 319 262
0 0.71700001 -0.027657079 1.5288159e-38 320 262
0.00125714 0.71700001 -0.027657079 1.5472909e-38 321 262
0.0025142799 0.71700001 -0.027657079 1.5937129e-38 322 262
0.0037714199 0.71700001 -0.027657079 1.6398107e-38 323 262
0.0050285598 0.71700001 -0.027657079 1.6489949e-38 324 262
0.0063032326 0.71899998 -0.027734226 1.6489949e-38 325 262
0.0075638802 0.71899998 -0.027734226 1.6673252e-38 326 262
0.0088245263 0.71899998 -0.027734226 1.6765447e-38 327 262
0.010085173 0.71899998 -0.027734226 1.6765445e-38 328 262
0.011361601 0.72000003 -0.027772799 1.6673249e-38 329 262
0.012624 0.72000003 -0.027772799 1.6581053e-38 330 262
0.0138864 0.72000003 -0.027772799 1.6581053e-38 331 262
0.0151488 0.72000003 -0.027772799 1.6580336e-38 332 262
0.0164112 0.72000003 -0.027772799 1.6487781e-38 333 262
0.017722692 0.722 -0.027849946 1.6487784e-38 334 262
0.0189886 0.722 -0.027849946 1.6764012e-38 335 262
0.020254506 0.722 -0.027849946 1.6581056e-38 336 262
0.021520413 0.722 -0.027849946 1.64885e-38 337 262
0.022786319 0.722 -0.027849946 1.6396307e-38 338 262
0.024085538 0.72299999 -0.02788852 1.6119722e-38 339 262
0.025353199 0.72299999 -0.02788852 1.6118643e-38 340 262
0.026620859 0.72299999 -0.02788852 1.5750219e-38 341 262
0.02788852 0.72299999 -0.02788852 1.5748419e-38 342 262
0.029236834 0.72500002 -0.027965667 1.5656221e-38 343 262
0.030592158 0.727 -0.028042812 1.5105569e-38 344 262
0.031910665 0.72799999 -0.028081384 1.4828983e-38 345 262
0.033278264 0.73000002 -0.028158534 1.4552398e-38 346 262
0.034558199 0.73000002 -0.028158534 1.4091421e-38 347 262
0.035887226 0.73100001 -0.028197108 1.4089622e-38 348 262
0.037168913 0.73100001 -0.028197108 1.3352057e-38 349 262
0.038450599 0.73100001 -0.028197108 1.2705618e-38 350 262
0.039732285 0.73100001 -0.028197108 1.1783303e-38 351 262
0.040957868 0.73000002 -0.028158534 1.1870465e-38 352 262
0.0422378 0.73000002 -0.028158534 1.0394989e-38 353 262
0.043517731 0.73000002 -0.028158534 1.0953936e-38 354 262
-0.051621638 0.70099998 -0.028268991 1.759997e-38 278 263
-0.049303733 0.70300001 -0.028349647 1.5202125e-38 280 263
-0.047934376 0.70099998 -0.028268991 1.4925179e-38 281 263
-0.046638668 0.69999999 -0.028228667 1.5844948e-38 282 263
-0.04541133 0.69999999 -0.028228667 1.5660917e-38 283 263
-0.04405776 0.69800001 -0.028148014 1.5844585e-38 284 263
-0.042833932 0.69800001 -0.028148014 1.6028977e-38 285 263
-0.041610107 0.69800001 -0.028148014 1.6122246e-38 286 263
-0.040328421 0.69700003 -0.028107686 1.6214441e-38 287 263
-0.039106347 0.69700003 -0.028107686 1.6304838e-38 288 263
-0.037884273 0.69700003 -0.028107686 1.6027892e-38 289 263
-0.036662199 0.69700003 -0.028107686 1.6117923e-38 290 263
-0.035440128 0.69700003 -0.028107686 1.5933531e-38 291 263
-0.034218054 0.69700003 -0.028107686 1.5749851e-38 292 263
-0.03299598 0.69700003 -0.028107686 1.5565459e-38 293 263
-0.03177391 0.69700003 -0.028107686 1.5288512e-38 294 263
-0.030551834 0.69700003 -0.028107686 1.5288512e-38 295 263
-0.02932976 0.69700003 -0.028107686 1.5105922e-38 296 263
-0.028148014 0.69800001 -0.028148014 1.4829336e-38 297 263
-0.026924185 0.69800001 -0.028148014 1.5010855e-38 298 263
-0.025700359 0.69800001 -0.028148014 1.4734269e-38 299 263
-0.024476532 0.69800001 -0.028148014 1.4642074e-38 300 263
-0.023252707 0.69800001 -0.028148014 1.4734269e-38 301 263
-0.02218668 0.70300001 -0.028349647 1.4552029e-38 302 263
-0.020983893 0.704 -0.028389972 1.4552029e-38 303 263
-0.019749546 0.704 -0.028389972 1.4644942e-38 304 263
-0.018515198 0.704 -0.028389972 1.4552745e-38 305 263
-0.017329946 0.70599997 -0.028470624 1.4920456e-38 306 263
-0.016092092 0.70599997 -0.028470624 1.5104847e-38 307 263
-0.01487528 0.70700002 -0.028510952 1.5289241e-38 308 263
-0.013654959 0.708 -0.02855128 1.5473274e-38 309 263
-0.012448666 0.70999998 -0.028631933 1.5474708e-38 310 263
-0.011203799 0.70999998 -0.028631933 1.5566904e-38 311 263
-0.0099589331 0.70999998 -0.028631933 1.5659819e-38 312 263
-0.0087263398 0.71100003 -0.028672259 1.5936406e-38 313 263
-0.0074797203 0.71100003 -0.028672259 1.6028601e-38 314 263
-0.0062506334 0.713 -0.028752912 1.5936406e-38 315 263
-0.0050005065 0.713 -0.028752912 1.6027526e-38 316 263
-0.0037503797 0.713 -0.028752912 1.5843134e-38 317 263
-0.0025037599 0.71399999 -0.028793238 1.5566907e-38 318 263
-0.00125188 0.71399999 -0.028793238 1.5197764e-38 319 263
0 0.71600002 -0.028873893 1.501193e-38 320 263
0.0012553866 0.71600002 -0.028873893 1.5288515e-38 321 263
0.0025107733 0.71600002 -0.028873893 1.6212274e-38 322 263
0.0037714199 0.71700001 -0.028914221 1.6673252e-38 323 263
0.0050285598 0.71700001 -0.028914221 1.6673617e-38 324 263
0.0062857 0.71700001 -0.028914221 1.6765813e-38 325 263
0.0075428397 0.71700001 -0.028914221 1.6765447e-38 326 263
0.0088245263 0.71899998 -0.028994869 1.6765447e-38 327 263
0.010085173 0.71899998 -0.028994869 1.6581056e-38 328 263
0.01134582 0.71899998 -0.028994869 1.64885e-38 329 263
0.012606465 0.71899998 -0.028994869 1.6396305e-38 330 263
0.013867113 0.71899998 -0.028994869 1.6396305e-38 331 263
0.01512776 0.71899998 -0.028994869 1.6395589e-38 332 263
0.0164112 0.72000003 -0.029035201 1.6487784e-38 333 263
0.017673599 0.72000003 -0.029035201 1.6488506e-38 334 263
0.018935999 0.72000003 -0.029035201 1.6580703e-38 335 263
0.020254506 0.722 -0.029115854 1.6396307e-38 336 263
0.021520413 0.722 -0.029115854 1.6027526e-38 337 263
0.022786319 0.722 -0.029115854 1.5935334e-38 338 263
0.024052227 0.722 -0.029115854 1.5843136e-38 339 263
0.025318133 0.722 -0.029115854 1.5656949e-38 340 263
0.026584039 0.722 -0.029115854 1.5472556e-38 341 263
0.027849946 0.722 -0.029115854 1.5379639e-38 342 263
0.029156178 0.72299999 -0.029156178 1.5287443e-38 343 263
0.030508002 0.72500002 -0.029236834 1.4921538e-38 344 263
0.031910665 0.72799999 -0.029357811 1.4736788e-38 345 263
0.033278264 0.73000002 -0.029438468 1.4275812e-38 346 263
0.034558199 0.73000002 -0.029438468 1.3999225e-38 347 263
0.035838135 0.73000002 -0.029438468 1.3813755e-38 348 263
0.037168913 0.73100001 -0.029478792 1.3537168e-38 349 263
0.038450599 0.73100001 -0.029478792 1.2983644e-38 350 263
0.039732285 0.73100001 -0.029478792 1.1324481e-38 351 263
0.040957868 0.73000002 -0.029438468 1.177827e-38 352 263
0.0422378 0.73000002 -0.029438468 1.0302795e-38 353 263
0.043517731 0.73000002 -0.029438468 1.0491157e-38 354 263
-0.051621638 0.70099998 -0.029498078 1.7139345e-38 278 264
-0.050392549 0.70099998 -0.029498078 1.6032997e-38 279 264
-0.049163464 0.70099998 -0.029498078 1.5385791e-38 280 264
-0.047865998 0.69999999 -0.029455997 1.5385791e-38 281 264
-0.046638668 0.69999999 -0.029455997 1.5386128e-38 282 264
-0.045281585 0.69800001 -0.029371841 1.5293574e-38 283 264
-0.04405776 0.69800001 -0.029371841 1.5660917e-38 284 264
-0.042833932 0.69800001 -0.029371841 1.5844948e-38 285 264
-0.041550495 0.69700003 -0.02932976 1.5754185e-38 286 264
-0.040328421 0.69700003 -0.02932976 1.5754185e-38 287 264
-0.039106347 0.69700003 -0.02932976 1.6027176e-38 288 264
-0.037884273 0.69700003 -0.02932976 1.5566198e-38 289 264
-0.036609598 0.69599998 -0.029287677 1.5472923e-38 290 264
-0.035389278 0.69599998 -0.029287677 1.5472923e-38 291 264
-0.034218054 0.69700003 -0.02932976 1.538216e-38 292 264
-0.03299598 0.69700003 -0.02932976 1.538216e-38 293 264
-0.03177391 0.69700003 -0.02932976 1.4829702e-38 294 264
-0.030551834 0.69700003 -0.02932976 1.4737506e-38 295 264
-0.02932976 0.69700003 -0.02932976 1.4644948e-38 296 264
-0.028107686 0.69700003 -0.02932976 1.418397e-38 297 264
-0.026885614 0.69700003 -0.02932976 1.4548079e-38 298 264
-0.025663542 0.69700003 -0.02932976 1.4271493e-38 299 264
-0.024441468 0.69700003 -0.02932976 1.4087471e-38 300 264
-0.023219392 0.69700003 -0.02932976 1.4456613e-38 301 264
-0.02202888 0.69800001 -0.029371841 1.4183619e-38 302 264
-0.020983893 0.704 -0.029624319 1.4552042e-38 303 264
-0.019749546 0.704 -0.029624319 1.4644592e-38 304 264
-0.018515198 0.704 -0.029624319 1.4828983e-38 305 264
-0.017280852 0.704 -0.029624319 1.4737506e-38 306 264
-0.016092092 0.70599997 -0.029708479 1.4829702e-38 307 264
-0.01487528 0.70700002 -0.029750559 1.5105213e-38 308 264
-0.013635674 0.70700002 -0.029750559 1.5197767e-38 309 264
-0.0124136 0.708 -0.02979264 1.5290327e-38 310 264
-0.01117224 0.708 -0.02979264 1.5382881e-38 311 264
-0.0099589331 0.70999998 -0.029876797 1.5383958e-38 312 264
-0.0087140659 0.70999998 -0.029876797 1.575274e-38 313 264
-0.0074797203 0.71100003 -0.029918881 1.575274e-38 314 264
-0.0062330998 0.71100003 -0.029918881 1.575274e-38 315 264
-0.0050005065 0.713 -0.030003037 1.6027526e-38 316 264
-0.0037503797 0.713 -0.030003037 1.5843134e-38 317 264
-0.0025002533 0.713 -0.030003037 1.5658018e-38 318 264
-0.00125188 0.71399999 -0.030045118 1.5197399e-38 319 264
0 0.71600002 -0.03012928 1.5012639e-38 320 264
0.0012553866 0.71600002 -0.03012928 1.5012639e-38 321 264
0.0025107733 0.71600002 -0.03012928 1.6303743e-38 322 264
0.0037714199 0.71700001 -0.030171359 1.6856917e-38 323 264
0.0050285598 0.71700001 -0.030171359 1.6490305e-38 324 264
0.0062857 0.71700001 -0.030171359 1.6490305e-38 325 264
0.0075428397 0.71700001 -0.030171359 1.6673971e-38 326 264
0.0088245263 0.71899998 -0.030255521 1.6397385e-38 327 264
0.010085173 0.71899998 -0.030255521 1.6396307e-38 328 264
0.01134582 0.71899998 -0.030255521 1.6027526e-38 329 264
0.012606465 0.71899998 -0.030255521 1.6027532e-38 330 264
0.013867113 0.71899998 -0.030255521 1.6119728e-38 331 264
0.01512776 0.71899998 -0.030255521 1.6119372e-38 332 264
0.0164112 0.72000003 -0.0302976 1.6211567e-38 333 264
0.017673599 0.72000003 -0.0302976 1.6212286e-38 334 264
0.018935999 0.72000003 -0.0302976 1.6212286e-38 335 264
0.020198401 0.72000003 -0.0302976 1.6027895e-38 336 264
0.021460801 0.72000003 -0.0302976 1.5659471e-38 337 264
0.022723202 0.72000003 -0.0302976 1.5474002e-38 338 264
0.024052227 0.722 -0.030381758 1.5289611e-38 339 264
0.025318133 0.722 -0.030381758 1.538036e-38 340 264
0.026584039 0.722 -0.030381758 1.5011579e-38 341 264
0.027849946 0.722 -0.030381758 1.491974e-38 342 264
0.029156178 0.72299999 -0.030423839 1.491974e-38 343 264
0.030508002 0.72500002 -0.030508002 1.4644239e-38 344 264
0.031910665 0.72799999 -0.030634239 1.4552042e-38 345 264
0.033187091 0.72799999 -0.030634239 1.3999588e-38 346 264
0.034558199 0.73000002 -0.030718399 1.372336e-38 347 264
0.035838135 0.73000002 -0.030718399 1.3813758e-38 348 264
0.037118066 0.73000002 -0.030718399 1.3537171e-38 349 264
0.038450599 0.73100001 -0.03076048 1.2983644e-38 350 264
0.039732285 0.73100001 -0.03076048 1.1416678e-38 351 264
0.040957868 0.73000002 -0.030718399 1.1963381e-38 352 264
0.0422378 0.73000002 -0.030718399 1.0027288e-38 353 264
0.043517731 0.73000002 -0.030718399 1.0581554e-38 354 264
0.044797666 0.73000002 -0.030718399 1.8141955e-38 355 264
-0.050392549 0.70099998 -0.030727165 1.5111038e-38 279 265
-0.049163464 0.70099998 -0.030727165 1.5293595e-38 280 265
-0.047865998 0.69999999 -0.030683333 1.5385791e-38 281 265
-0.046638668 0.69999999 -0.030683333 1.5385775e-38 282 265
-0.045281585 0.69800001 -0.030595668 1.5293579e-38 283 265
-0.04405776 0.69800001 -0.030595668 1.5476892e-38 284 265
-0.042833932 0.69800001 -0.030595668 1.5569087e-38 285 265
-0.041550495 0.69700003 -0.030551834 1.5754551e-38 286 265
-0.040328421 0.69700003 -0.030551834 1.5386128e-38 287 265
-0.039106347 0.69700003 -0.030551834 1.5566566e-38 288 265
-0.037884273 0.69700003 -0.030551834 1.528998e-38 289 265
-0.036609598 0.69599998 -0.030507999 1.5197062e-38 290 265
-0.035389278 0.69599998 -0.030507999 1.5104865e-38 291 265
-0.034218054 0.69700003 -0.030551834 1.5289964e-38 292 265
-0.032948639 0.69599998 -0.030507999 1.5197767e-38 293 265
-0.031728316 0.69599998 -0.030507999 1.5012298e-38 294 265
-0.030507999 0.69599998 -0.030507999 1.4643874e-38 295 265
-0.029287677 0.69599998 -0.030507999 1.4550597e-38 296 265
-0.028067358 0.69599998 -0.030507999 1.3444249e-38 297 265
-0.026847038 0.69599998 -0.030507999 1.3901991e-38 298 265
-0.025663542 0.69700003 -0.030551834 1.3994186e-38 299 265
-0.0244064 0.69599998 -0.030507999 1.3993836e-38 300 265
-0.023186078 0.69599998 -0.030507999 1.4454455e-38 301 265
-0.02202888 0.69800001 -0.030595668 1.436621e-38 302 265
-0.020954086 0.70300001 -0.030814834 1.4827187e-38 303 265
-0.019721493 0.70300001 -0.030814834 1.473679e-38 304 265
-0.018515198 0.704 -0.030858666 1.4828986e-38 305 265
-0.017280852 0.704 -0.030858666 1.4828989e-38 306 265
-0.016046507 0.704 -0.030858666 1.4921184e-38 307 265
-0.014854239 0.70599997 -0.030946331 1.4921184e-38 308 265
-0.013616386 0.70599997 -0.030946331 1.5105216e-38 309 265
-0.012396066 0.70700002 -0.030990168 1.5289244e-38 310 265
-0.011156459 0.70700002 -0.030990168 1.5565472e-38 311 265
-0.0099168532 0.70700002 -0.030990168 1.5566904e-38 312 265
-0.008689519 0.708 -0.031034 1.5843131e-38 313 265
-0.0074691991 0.70999998 -0.031121666 1.5935687e-38 314 265
-0.0062243328 0.70999998 -0.031121666 1.5935687e-38 315 265
-0.0049864799 0.71100003 -0.031165501 1.5935331e-38 316 265
-0.0037398601 0.71100003 -0.031165501 1.5750938e-38 317 265
-0.0025002533 0.713 -0.031253166 1.5474353e-38 318 265
-0.00125188 0.71399999 -0.031296998 1.5197764e-38 319 265
0 0.71600002 -0.031384666 1.4921888e-38 320 265
0.0012553866 0.71600002 -0.031384666 1.4829692e-38 321 265
0.0025107733 0.71600002 -0.031384666 1.6211548e-38 322 265
0.00376616 0.71600002 -0.031384666 1.6764363e-38 323 265
0.0050215465 0.71600002 -0.031384666 1.6489581e-38 324 265
0.0062769335 0.71600002 -0.031384666 1.6673971e-38 325 265
0.0075428397 0.71700001 -0.031428497 1.6489581e-38 326 265
0.0087999795 0.71700001 -0.031428497 1.6305188e-38 327 265
0.01005712 0.71700001 -0.031428497 1.6303393e-38 328 265
0.01131426 0.71700001 -0.031428497 1.6210839e-38 329 265
0.0125714 0.71700001 -0.031428497 1.5934978e-38 330 265
0.013828539 0.71700001 -0.031428497 1.5934978e-38 331 265
0.015085679 0.71700001 -0.031428497 1.6210491e-38 332 265
0.016342819 0.71700001 -0.031428497 1.6302687e-38 333 265
0.017649053 0.71899998 -0.031516165 1.6211573e-38 334 265
0.018909698 0.71899998 -0.031516165 1.6211573e-38 335 265
0.020170346 0.71899998 -0.031516165 1.5935702e-38 336 265
0.021430992 0.71899998 -0.031516165 1.556692e-38 337 265
0.022691639 0.71899998 -0.031516165 1.5289964e-38 338 265
0.023952285 0.71899998 -0.031516165 1.4921182e-38 339 265
0.025212931 0.71899998 -0.031516165 1.5103405e-38 340 265
0.02647358 0.71899998 -0.031516165 1.5010849e-38 341 265
0.027772799 0.72000003 -0.03156 1.4826818e-38 342 265
0.029035201 0.72000003 -0.03156 1.4734623e-38 343 265
0.030423839 0.72299999 -0.031691495 1.464279e-38 344 265
0.03186683 0.727 -0.03186683 1.4366563e-38 345 265
0.033187091 0.72799999 -0.031910665 1.418254e-38 346 265
0.034463517 0.72799999 -0.031910665 1.3721562e-38 347 265
0.035739943 0.72799999 -0.031910665 1.3628295e-38 348 265
0.037118066 0.73000002 -0.031998333 1.3443902e-38 349 265
0.038398001 0.73000002 -0.031998333 1.3075124e-38 350 265
0.039677933 0.73000002 -0.031998333 1.1968416e-38 351 265
0.040957868 0.73000002 -0.031998333 1.1687517e-38 352 265
0.0422378 0.73000002 -0.031998333 9.751423e-39 353 265
0.043517731 0.73000002 -0.031998333 1.0675904e-38 354 265
0.044797666 0.73000002 -0.031998333 1.8051555e-38 355 265
-0.051768921 0.70300001 -0.032047424 1.5756044e-38 278 266
-0.050536323 0.70300001 -0.032047424 1.4649337e-38 279 266
-0.049163464 0.70099998 -0.031956252 1.5294671e-38 280 266
-0.047865998 0.69999999 -0.031910665 1.5202475e-38 281 266
-0.046638668 0.69999999 -0.031910665 1.5293945e-38 282 266
-0.045281585 0.69800001 -0.031819493 1.520175e-38 283 266
-0.04405776 0.69800001 -0.031819493 1.5201031e-38 284 266
-0.042833932 0.69800001 -0.031819493 1.5385422e-38 285 266
-0.041550495 0.69700003 -0.03177391 1.5294298e-38 286 266
-0.040328421 0.69700003 -0.03177391 1.5201744e-38 287 266
-0.039106347 0.69700003 -0.03177391 1.5108462e-38 288 266
-0.037884273 0.69700003 -0.03177391 1.4831875e-38 289 266
-0.036609598 0.69599998 -0.031728316 1.4922269e-38 290 266
-0.035389278 0.69599998 -0.031728316 1.4738238e-38 291 266
-0.034168959 0.69599998 -0.031728316 1.4554197e-38 292 266
-0.032948639 0.69599998 -0.031728316 1.4369447e-38 293 266
-0.031728316 0.69599998 -0.031728316 1.4093222e-38 294 266
-0.030507999 0.69599998 -0.031728316 1.3908472e-38 295 266
-0.029287677 0.69599998 -0.031728316 1.3906677e-38 296 266
-0.028067358 0.69599998 -0.031728316 1.3445698e-38 297 266
-0.026847038 0.69599998 -0.031728316 1.3811237e-38 298 266
-0.025626717 0.69599998 -0.031728316 1.3811237e-38 299 266
-0.0244064 0.69599998 -0.031728316 1.3720843e-38 300 266
-0.023186078 0.69599998 -0.031728316 1.418182e-38 301 266
-0.02202888 0.69800001 -0.031819493 1.4091789e-38 302 266
-0.020894472 0.70099998 -0.031956252 1.4368378e-38 303 266
-0.019665385 0.70099998 -0.031956252 1.4460576e-38 304 266
-0.018488899 0.70300001 -0.032047424 1.4736803e-38 305 266
-0.017280852 0.704 -0.032093015 1.4829357e-38 306 266
-0.016046507 0.704 -0.032093015 1.4736803e-38 307 266
-0.014812159 0.704 -0.032093015 1.4920828e-38 308 266
-0.013616386 0.70599997 -0.032184184 1.5105218e-38 309 266
-0.012378532 0.70599997 -0.032184184 1.5288888e-38 310 266
-0.011140679 0.70599997 -0.032184184 1.5473279e-38 311 266
-0.0099028256 0.70599997 -0.032184184 1.5382879e-38 312 266
-0.008677247 0.70700002 -0.032229774 1.556727e-38 313 266
-0.0074481601 0.708 -0.03227536 1.5383958e-38 314 266
-0.0062067998 0.708 -0.03227536 1.5567989e-38 315 266
-0.0049794666 0.70999998 -0.032366529 1.5752021e-38 316 266
-0.0037345996 0.70999998 -0.032366529 1.556727e-38 317 266
-0.0024932399 0.71100003 -0.032412119 1.556762e-38 318 266
-0.0012501266 0.713 -0.032503292 1.5383229e-38 319 266
0 0.71399999 -0.032548878 1.5289947e-38 320 266
0.00125188 0.71399999 -0.032548878 1.5197752e-38 321 266
0.0025107733 0.71600002 -0.032640055 1.5842415e-38 322 266
0.00376616 0.71600002 -0.032640055 1.6395589e-38 323 266
0.0050215465 0.71600002 -0.032640055 1.6122243e-38 324 266
0.0062769335 0.71600002 -0.032640055 1.6122243e-38 325 266
0.00753232 0.71600002 -0.032640055 1.6213358e-38 326 266
0.0087999795 0.71700001 -0.032685637 1.5937131e-38 327 266
0.01005712 0.71700001 -0.032685637 1.593605e-38 328 266
0.01131426 0.71700001 -0.032685637 1.5752018e-38 329 266
0.0125714 0.71700001 -0.032685637 1.5752021e-38 330 266
0.013828539 0.71700001 -0.032685637 1.5659465e-38 331 266
0.015085679 0.71700001 -0.032685637 1.5658763e-38 332 266
0.016342819 0.71700001 -0.032685637 1.5935349e-38 333 266
0.017599959 0.71700001 -0.032685637 1.5843876e-38 334 266
0.018857099 0.71700001 -0.032685637 1.5843876e-38 335 266
0.020114239 0.71700001 -0.032685637 1.5751665e-38 336 266
0.021371379 0.71700001 -0.032685637 1.5290327e-38 337 266
0.022691639 0.71899998 -0.032776814 1.5105566e-38 338 266
0.023952285 0.71899998 -0.032776814 1.4737143e-38 339 266
0.025212931 0.71899998 -0.032776814 1.482789e-38 340 266
0.02647358 0.71899998 -0.032776814 1.4643499e-38 341 266
0.027734226 0.71899998 -0.032776814 1.45513e-38 342 266
0.029035201 0.72000003 -0.0328224 1.4367269e-38 343 266
0.030381758 0.722 -0.032913569 1.3999222e-38 344 266
0.03186683 0.727 -0.033141505 1.381483e-38 345 266
0.033187091 0.72799999 -0.033187091 1.3721212e-38 346 266
0.034463517 0.72799999 -0.033187091 1.3629016e-38 347 266
0.035739943 0.72799999 -0.033187091 1.3260954e-38 348 266
0.037016369 0.72799999 -0.033187091 1.289253e-38 349 266
0.038398001 0.73000002 -0.033278264 1.3073322e-38 350 266
0.039677933 0.73000002 -0.033278264 1.2335756e-38 351 266
0.040957868 0.73000002 -0.033278264 1.2055211e-38 352 266
0.0422378 0.73000002 -0.033278264 1.0579736e-38 353 266
0.043517731 0.73000002 -0.033278264 1.2056672e-38 354 266
0.044797666 0.73000002 -0.033278264 1.8971343e-38 355 266
-0.051768921 0.70300001 -0.033280019 1.5478734e-38 278 267
-0.050392549 0.70099998 -0.03318534 1.4372027e-38 279 267
-0.049163464 0.70099998 -0.03318534 1.5294671e-38 280 267
-0.047865998 0.69999999 -0.033137999 1.511028e-38 281 267
-0.046638668 0.69999999 -0.033137999 1.5293226e-38 282 267
-0.045281585 0.69800001 -0.033043321 1.5108835e-38 283 267
-0.04405776 0.69800001 -0.033043321 1.5291424e-38 284 267
-0.042833932 0.69800001 -0.033043321 1.5291424e-38 285 267
-0.041550495 0.69700003 -0.03299598 1.5200306e-38 286 267
-0.040328421 0.69700003 -0.03299598 1.5108109e-38 287 267
-0.039106347 0.69700003 -0.03299598 1.4923718e-38 288 267
-0.037884273 0.69700003 -0.03299598 1.4739327e-38 289 267
-0.036662199 0.69700003 -0.03299598 1.4646411e-38 290 267
-0.035389278 0.69599998 -0.032948639 1.4461661e-38 291 267
-0.034168959 0.69599998 -0.032948639 1.3260934e-38 292 267
-0.03299598 0.69700003 -0.03299598 1.1785804e-38 293 267
-0.031728316 0.69599998 -0.032948639 1.2333587e-38 294 267
-0.030507999 0.69599998 -0.032948639 1.3809076e-38 295 267
-0.029287677 0.69599998 -0.032948639 1.3354947e-38 296 267
-0.028067358 0.69599998 -0.032948639 1.3447502e-38 297 267
-0.026847038 0.69599998 -0.032948639 1.3721562e-38 298 267
-0.025626717 0.69599998 -0.032948639 1.3721562e-38 299 267
-0.0244064 0.69599998 -0.032948639 1.3630443e-38 300 267
-0.023186078 0.69599998 -0.032948639 1.3999225e-38 301 267
-0.02199732 0.69700003 -0.03299598 1.4091424e-38 302 267
-0.020805053 0.69800001 -0.033043321 1.4275815e-38 303 267
-0.019665385 0.70099998 -0.03318534 1.4458774e-38 304 267
-0.018436298 0.70099998 -0.03318534 1.4827557e-38 305 267
-0.017256306 0.70300001 -0.033280019 1.473644e-38 306 267
-0.016023712 0.70300001 -0.033280019 1.4828636e-38 307 267
-0.014812159 0.704 -0.03332736 1.4921182e-38 308 267
-0.013577812 0.704 -0.03332736 1.5105213e-38 309 267
-0.012378532 0.70599997 -0.033422034 1.5290314e-38 310 267
-0.011140679 0.70599997 -0.033422034 1.5290314e-38 311 267
-0.0099028256 0.70599997 -0.033422034 1.5382513e-38 312 267
-0.008677247 0.70700002 -0.033469379 1.5474708e-38 313 267
-0.0074376399 0.70700002 -0.033469379 1.5568345e-38 314 267
-0.0062067998 0.708 -0.033516716 1.5568345e-38 315 267
-0.0049794666 0.70999998 -0.033611398 1.5660186e-38 316 267
-0.0037345996 0.70999998 -0.033611398 1.5660186e-38 317 267
-0.0024932399 0.71100003 -0.033658739 1.5476874e-38 318 267
-0.00124662 0.71100003 -0.033658739 1.5200285e-38 319 267
0 0.713 -0.033753417 1.5014099e-38 320 267
0.00125188 0.71399999 -0.033800758 1.4737512e-38 321 267
0.0025037599 0.71399999 -0.033800758 1.5474721e-38 322 267
0.0037556398 0.71399999 -0.033800758 1.5935699e-38 323 267
0.0050075199 0.71399999 -0.033800758 1.6212642e-38 324 267
0.0062769335 0.71600002 -0.03389544 1.6304838e-38 325 267
0.00753232 0.71600002 -0.03389544 1.5936775e-38 326 267
0.0087877065 0.71600002 -0.03389544 1.584458e-38 327 267
0.010043093 0.71600002 -0.03389544 1.5752021e-38 328 267
0.01131426 0.71700001 -0.033942781 1.5659465e-38 329 267
0.0125714 0.71700001 -0.033942781 1.5659821e-38 330 267
0.013828539 0.71700001 -0.033942781 1.5567626e-38 331 267
0.015085679 0.71700001 -0.033942781 1.5749866e-38 332 267
0.016342819 0.71700001 -0.033942781 1.6118649e-38 333 267
0.017599959 0.71700001 -0.033942781 1.5752387e-38 334 267
0.018857099 0.71700001 -0.033942781 1.5844583e-38 335 267
0.020114239 0.71700001 -0.033942781 1.5660186e-38 336 267
0.021371379 0.71700001 -0.033942781 1.5014816e-38 337 267
0.02262852 0.71700001 -0.033942781 1.4369083e-38 338 267
0.023952285 0.71899998 -0.03403746 1.4184333e-38 339 267
0.025212931 0.71899998 -0.03403746 1.4552029e-38 340 267
0.02647358 0.71899998 -0.03403746 1.4552029e-38 341 267
0.027734226 0.71899998 -0.03403746 1.4459831e-38 342 267
0.029035201 0.72000003 -0.034084801 1.4183244e-38 343 267
0.030381758 0.722 -0.034179479 1.399742e-38 344 267
0.03186683 0.727 -0.03441618 1.3721194e-38 345 267
0.033141505 0.727 -0.03441618 1.3536448e-38 346 267
0.034463517 0.72799999 -0.034463517 1.3444252e-38 347 267
0.035739943 0.72799999 -0.034463517 1.3168035e-38 348 267
0.037016369 0.72799999 -0.034463517 1.307584e-38 349 267
0.038398001 0.73000002 -0.034558199 1.2889659e-38 350 267
0.039677933 0.73000002 -0.034558199 1.2152094e-38 351 267
0.040957868 0.73000002 -0.034558199 1.141056e-38 352 267
0.0422378 0.73000002 -0.034558199 1.1318366e-38 353 267
0.043577347 0.73100001 -0.034605537 1.3810906e-38 354 267
0.045043133 0.73400003 -0.03474756 1.9066057e-38 355 267
-0.051768921 0.70300001 -0.034512613 1.5478734e-38 278 268
-0.050392549 0.70099998 -0.034414422 1.4372027e-38 279 268
-0.049163464 0.70099998 -0.034414422 1.5110643e-38 280 268
-0.047865998 0.69999999 -0.034365334 1.4926612e-38 281 268
-0.046638668 0.69999999 -0.034365334 1.5017363e-38 282 268
-0.045281585 0.69800001 -0.034267146 1.483297e-38 283 268
-0.04405776 0.69800001 -0.034267146 1.4831172e-38 284 268
