# .PCD v.7 - Point Cloud Data file format
FIELDS x y z rgb imX imY
SIZE 4 4 4 4 4 4
TYPE F F F F F F
COUNT 1 1 1 1 1 1
WIDTH 403
HEIGHT 1
VIEWPOINT 0 0 0 1 0 0 0
POINTS 403
DATA ascii
-0.011771879 0.74599999 -0.03793161 1.7976718e-38 311 269
-0.010463892 0.74599999 -0.03793161 1.7885602e-38 312 269
-0.0091559067 0.74599999 -0.03793161 1.7793406e-38 313 269
-0.016958239 0.74400002 -0.039134398 1.3919407e-38 307 270
-0.015695838 0.74599999 -0.039239597 1.4108472e-38 308 270
-0.014387853 0.74599999 -0.039239597 1.4108472e-38 309 270
-0.013079867 0.74599999 -0.039239597 1.4659125e-38 310 270
-0.011771879 0.74599999 -0.039239597 1.4843516e-38 311 270
-0.010463892 0.74599999 -0.039239597 1.5028986e-38 312 270
-0.0091559067 0.74599999 -0.039239597 1.5305213e-38 313 270
-0.0078479191 0.74599999 -0.039239597 1.539849e-38 314 270
-0.035505001 0.75 -0.040764999 1.8714284e-38 293 271
-0.034189999 0.75 -0.040764999 1.8531327e-38 294 271
-0.032874998 0.75 -0.040764999 1.8346577e-38 295 271
-0.031517919 0.74900001 -0.040710647 1.8530245e-38 296 271
-0.030124018 0.74699998 -0.040601939 1.8714637e-38 297 271
-0.028814279 0.74699998 -0.040601939 1.8899032e-38 298 271
-0.027467718 0.74599999 -0.040547583 1.9175259e-38 299 271
-0.026159734 0.74599999 -0.040547583 1.5862748e-38 300 271
-0.024851745 0.74599999 -0.040547583 4.6148794e-39 301 271
-0.023543758 0.74599999 -0.040547583 4.7906611e-40 302 271
-0.022235774 0.74599999 -0.040547583 4.2590869e-39 303 271
-0.01826272 0.74400002 -0.040438879 9.7724285e-39 306 271
-0.016958239 0.74400002 -0.040438879 9.4032858e-39 307 271
-0.015653761 0.74400002 -0.040438879 9.7774633e-39 308 271
-0.01434928 0.74400002 -0.040438879 9.9618546e-39 309 271
-0.0130448 0.74400002 -0.040438879 1.0972038e-38 310 271
-0.011740319 0.74400002 -0.040438879 1.1341179e-38 311 271
-0.010463892 0.74599999 -0.040547583 1.2078018e-38 312 271
-0.0091559067 0.74599999 -0.040547583 1.226241e-38 313 271
-0.0078479191 0.74599999 -0.040547583 1.1897584e-38 314 271
-0.0065399334 0.74599999 -0.040547583 1.2358923e-38 315 271
-0.036819998 0.75 -0.04208 1.8346577e-38 292 272
-0.03545766 0.74900001 -0.042023893 1.8531327e-38 293 272
-0.034144413 0.74900001 -0.042023893 1.8439492e-38 294 272
-0.032831166 0.74900001 -0.042023893 1.8439492e-38 295 272
-0.031433757 0.74699998 -0.041911677 1.8439492e-38 296 272
-0.030124018 0.74699998 -0.041911677 1.8624243e-38 297 272
-0.028814279 0.74699998 -0.041911677 1.8992312e-38 298 272
-0.027467718 0.74599999 -0.04185557 1.7794128e-38 299 272
-0.026159734 0.74599999 -0.04185557 1.2179259e-38 300 272
-0.024851745 0.74599999 -0.04185557 6.9168092e-42 301 272
-0.023480639 0.74400002 -0.04174336 6.559338e-40 302 272
-0.022176161 0.74400002 -0.04174336 3.9749765e-39 303 272
-0.02087168 0.74400002 -0.04174336 4.1726394e-39 304 272
-0.019567199 0.74400002 -0.04174336 5.1864326e-39 305 272
-0.018213626 0.74199998 -0.041631144 8.2962376e-39 306 272
-0.016912652 0.74199998 -0.041631144 8.4806303e-39 307 272
-0.015653761 0.74400002 -0.04174336 7.6577023e-39 308 272
-0.014310705 0.74199998 -0.041631144 8.3956261e-39 309 272
-0.013009733 0.74199998 -0.041631144 1.0418166e-38 310 272
-0.011740319 0.74400002 -0.04174336 1.0602558e-38 311 272
-0.01043584 0.74400002 -0.04174336 1.115428e-38 312 272
-0.0091313599 0.74400002 -0.04174336 1.0785857e-38 313 272
-0.0078268806 0.74400002 -0.04174336 7.205338e-39 314 272
-0.0065048663 0.74199998 -0.041631144 7.7585104e-39 315 272
-0.0052038929 0.74199998 -0.041631144 9.3143398e-39 316 272
-0.0039029196 0.74199998 -0.041631144 8.761166e-39 317 272
-0.0026019465 0.74199998 -0.041631144 7.4769082e-39 318 272
-0.0013009732 0.74199998 -0.041631144 7.5694626e-39 319 272
-0.035362978 0.74699998 -0.043221418 1.8531327e-38 293 273
-0.034053236 0.74699998 -0.043221418 1.8531327e-38 294 273
-0.032743499 0.74699998 -0.043221418 1.871536e-38 295 273
-0.031391677 0.74599999 -0.04316356 1.871536e-38 296 273
-0.03008369 0.74599999 -0.04316356 1.8899751e-38 297 273
-0.028775707 0.74599999 -0.04316356 1.8993048e-38 298 273
-0.027394081 0.74400002 -0.043047838 1.4843885e-38 299 273
-0.026089599 0.74400002 -0.043047838 8.1237476e-39 300 273
-0.02478512 0.74400002 -0.043047838 5.4902874e-42 301 273
-0.023480639 0.74400002 -0.043047838 1.0212663e-41 302 273
-0.022116546 0.74199998 -0.042932119 9.3324936e-40 303 273
-0.020815572 0.74199998 -0.042932119 4.8017454e-40 304 273
-0.0195146 0.74199998 -0.042932119 1.5865221e-39 305 273
-0.018189078 0.741 -0.042874258 4.7067612e-39 306 273
-0.016889861 0.741 -0.042874258 5.2599349e-39 307 273
-0.01559064 0.741 -0.042874258 3.5118137e-39 308 273
-0.014310705 0.74199998 -0.042932119 4.1571831e-39 309 273
-0.013009733 0.74199998 -0.042932119 6.9190863e-39 310 273
-0.01170876 0.74199998 -0.042932119 7.6566514e-39 311 273
-0.01043584 0.74400002 -0.043047838 8.3927535e-39 312 273
-0.0090945391 0.741 -0.042874258 8.1161652e-39 313 273
-0.0077953199 0.741 -0.042874258 5.4532735e-39 314 273
-0.0064960998 0.741 -0.042874258 7.2049905e-39 315 273
-0.0051968796 0.741 -0.042874258 8.9491446e-39 316 273
-0.00388714 0.73900002 -0.042758539 8.4885266e-39 317 273
-0.0025914267 0.73900002 -0.042758539 6.4667178e-39 318 273
-0.0012957134 0.73900002 -0.042758539 6.8358604e-39 319 273
0 0.73900002 -0.042758539 1.0328859e-38 320 273
0.0012957134 0.73900002 -0.042758539 1.0605444e-38 321 273
0.0025914267 0.73900002 -0.042758539 7.6587771e-39 322 273
0.0038976599 0.741 -0.042874258 7.1056048e-39 323 273
0.0051968796 0.741 -0.042874258 1.023163e-38 324 273
0.0064960998 0.741 -0.042874258 9.8624885e-39 325 273
-0.031307522 0.74400002 -0.044352323 1.8531327e-38 296 274
-0.030003037 0.74400002 -0.044352323 1.8899751e-38 297 274
-0.02869856 0.74400002 -0.044352323 1.8806839e-38 298 274
-0.027320439 0.74199998 -0.044233091 1.0601068e-38 299 274
-0.026019465 0.74199998 -0.044233091 1.3376795e-41 300 274
-0.024718491 0.74199998 -0.044233091 7.2559234e-42 301 274
-0.023417519 0.74199998 -0.044233091 1.0024189e-40 302 274
-0.02208674 0.741 -0.044173479 1.2065894e-39 303 274
-0.020787518 0.741 -0.044173479 1.1647593e-41 304 274
-0.019488299 0.741 -0.044173479 1.9747939e-40 305 274
-0.018189078 0.741 -0.044173479 2.1332163e-39 306 274
-0.016889861 0.741 -0.044173479 2.7785857e-39 307 274
-0.01559064 0.741 -0.044173479 3.8788012e-39 308 274
-0.01429142 0.741 -0.044173479 3.9709982e-39 309 274
-0.0129922 0.741 -0.044173479 2.5923825e-39 310 274
-0.01170876 0.74199998 -0.044233091 1.9470131e-39 311 274
-0.010407786 0.74199998 -0.044233091 2.4058333e-39 312 274
-0.0090945391 0.741 -0.044173479 2.5902245e-39 313 274
-0.0077953199 0.741 -0.044173479 2.8660884e-39 314 274
-0.0064960998 0.741 -0.044173479 3.0508398e-39 315 274
-0.0051828534 0.73900002 -0.044054255 2.8682436e-39 316 274
-0.00388714 0.73900002 -0.044054255 3.4214173e-39 317 274
-0.0025914267 0.73900002 -0.044054255 4.2540479e-39 318 274
-0.0012957134 0.73900002 -0.044054255 4.7146673e-39 319 274
0 0.73900002 -0.044054255 8.2026169e-39 320 274
0.0012957134 0.73900002 -0.044054255 8.7557906e-39 321 274
0.0025914267 0.73900002 -0.044054255 5.9067141e-39 322 274
0.00388714 0.73900002 -0.044054255 6.0911053e-39 323 274
0.0051968796 0.741 -0.044173479 8.2973334e-39 324 274
0.0064960998 0.741 -0.044173479 7.4675728e-39 325 274
0.0077953199 0.741 -0.044173479 2.0510203e-39 326 274
0.0090699932 0.73900002 -0.044054255 5.5540941e-39 327 274
0.010365707 0.73900002 -0.044054255 1.3645348e-38 328 274
0.01166142 0.73900002 -0.044054255 1.5120478e-38 329 274
0.012957133 0.73900002 -0.044054255 1.2818455e-38 330 274
0.014233559 0.73799998 -0.043994635 1.291065e-38 331 274
0.015527519 0.73799998 -0.043994635 1.2639105e-38 332 274
0.016821479 0.73799998 -0.043994635 1.1348367e-38 333 274
0.018139986 0.73900002 -0.044054255 1.382794e-38 334 274
-0.033688545 0.73900002 -0.045349967 1.8530971e-38 294 275
-0.032392833 0.73900002 -0.045349967 1.8530971e-38 295 275
-0.03109712 0.73900002 -0.045349967 1.8714637e-38 296 275
-0.029801406 0.73900002 -0.045349967 1.8622441e-38 297 275
-0.028621411 0.74199998 -0.045534063 1.7518952e-38 298 275
-0.027320439 0.74199998 -0.045534063 1.0696115e-38 299 275
-0.026019465 0.74199998 -0.045534063 2.769857e-39 300 275
-0.024685178 0.741 -0.045472696 3.6918133e-39 301 275
-0.023385961 0.741 -0.045472696 3.1387138e-39 302 275
-0.02208674 0.741 -0.045472696 2.8621255e-39 303 275
-0.020787518 0.741 -0.045472696 1.4838798e-39 304 275
-0.019488299 0.741 -0.045472696 1.8526623e-39 305 275
-0.018139986 0.73900002 -0.045349967 2.682423e-39 306 275
-0.016844273 0.73900002 -0.045349967 3.2355968e-39 307 275
-0.01554856 0.73900002 -0.045349967 3.9709954e-39 308 275
-0.014252847 0.73900002 -0.045349967 3.8787984e-39 309 275
-0.012957133 0.73900002 -0.045349967 4.5198518e-39 310 275
-0.01169298 0.741 -0.045472696 4.6120474e-39 311 275
-0.010393759 0.741 -0.045472696 4.6142026e-39 312 275
-0.0090699932 0.73900002 -0.045349967 4.4294526e-39 313 275
-0.0077742799 0.73900002 -0.045349967 3.4188964e-39 314 275
-0.0064697997 0.73799998 -0.0452886 3.3267008e-39 315 275
-0.0051758396 0.73799998 -0.0452886 2.8660912e-39 316 275
-0.0038818798 0.73799998 -0.0452886 2.7738955e-39 317 275
-0.0025879198 0.73799998 -0.0452886 2.7753389e-39 318 275
-0.0012939599 0.73799998 -0.0452886 2.4069151e-39 319 275
0 0.73799998 -0.0452886 4.0613917e-39 320 275
0.0012939599 0.73799998 -0.0452886 4.6145655e-39 321 275
0.0025879198 0.73799998 -0.0452886 3.1433885e-39 322 275
0.00388714 0.73900002 -0.045349967 3.1433885e-39 323 275
0.0051828534 0.73900002 -0.045349967 3.695133e-39 324 275
0.0064785667 0.73900002 -0.045349967 2.3121985e-39 325 275
0.0077742799 0.73900002 -0.045349967 1.2112011e-39 326 275
0.0090577193 0.73799998 -0.0452886 1.0154177e-38 327 275
0.010351679 0.73799998 -0.0452886 1.4655903e-38 328 275
0.011645639 0.73799998 -0.0452886 1.4379316e-38 329 275
0.012939599 0.73799998 -0.0452886 1.3647143e-38 330 275
0.014233559 0.73799998 -0.0452886 1.4292513e-38 331 275
0.015527519 0.73799998 -0.0452886 1.2452909e-38 332 275
0.016821479 0.73799998 -0.0452886 1.1439117e-38 333 275
0.018115439 0.73799998 -0.0452886 1.4291437e-38 334 275
0.019409399 0.73799998 -0.0452886 1.4291437e-38 335 275
0.020703359 0.73799998 -0.0452886 1.1528092e-38 336 275
0.021937706 0.736 -0.045165867 1.281883e-38 337 275
0.023228159 0.736 -0.045165867 1.3466365e-38 338 275
-0.033688545 0.73900002 -0.046645679 1.8531692e-38 294 276
-0.032348998 0.73799998 -0.046582557 1.8531692e-38 295 276
-0.031055039 0.73799998 -0.046582557 1.871536e-38 296 276
-0.029801406 0.73900002 -0.046645679 1.8346577e-38 297 276
-0.025914267 0.73900002 -0.046645679 1.2721924e-38 300 276
-0.024618553 0.73900002 -0.046645679 1.2260947e-38 301 276
-0.023322839 0.73900002 -0.046645679 1.0879125e-38 302 276
-0.022027127 0.73900002 -0.046645679 9.7727788e-39 303 276
-0.020703359 0.73799998 -0.046582557 8.3913045e-39 304 276
-0.019409399 0.73799998 -0.046582557 7.7459351e-39 305 276
-0.018115439 0.73799998 -0.046582557 6.641761e-39 306 276
-0.016821479 0.73799998 -0.046582557 6.2726197e-39 307 276
-0.015527519 0.73799998 -0.046582557 5.2606412e-39 308 276
-0.014233559 0.73799998 -0.046582557 4.2464893e-39 309 276
-0.012939599 0.73799998 -0.046582557 5.0708577e-39 310 276
-0.011645639 0.73799998 -0.046582557 5.347446e-39 311 276
-0.010351679 0.73799998 -0.046582557 5.8080542e-39 312 276
-0.0090577193 0.73799998 -0.046582557 5.623663e-39 313 276
-0.0077216802 0.73400003 -0.046330083 4.2446942e-39 314 276
-0.006434733 0.73400003 -0.046330083 4.2446942e-39 315 276
-0.0051477868 0.73400003 -0.046330083 3.7848049e-39 316 276
-0.0038713599 0.736 -0.046456318 3.6007737e-39 317 276
-0.0025879198 0.73799998 -0.046582557 3.8759285e-39 318 276
-0.0012939599 0.73799998 -0.046582557 3.5993402e-39 319 276
0 0.73799998 -0.046582557 1.669713e-39 320 276
0.0012939599 0.73799998 -0.046582557 9.3214794e-40 321 276
0.0025879198 0.73799998 -0.046582557 1.9531158e-40 322 276
0.0038818798 0.73799998 -0.046582557 1.9531158e-40 323 276
0.0051758396 0.73799998 -0.046582557 1.2719586e-41 324 276
0.0064697997 0.73799998 -0.046582557 8.3979817e-42 325 276
0.0077637597 0.73799998 -0.046582557 2.2188861e-39 326 276
0.0090577193 0.73799998 -0.046582557 1.3190166e-38 327 276
0.010351679 0.73799998 -0.046582557 1.5577484e-38 328 276
0.011645639 0.73799998 -0.046582557 1.3826127e-38 329 276
0.012904533 0.736 -0.046456318 1.3924079e-38 330 276
0.014194986 0.736 -0.046456318 1.4938233e-38 331 276
0.015485439 0.736 -0.046456318 1.2267079e-38 332 276
0.016775893 0.736 -0.046456318 1.1897938e-38 333 276
0.018115439 0.73799998 -0.046582557 1.4660572e-38 334 276
0.019304199 0.73400003 -0.046330083 1.4383985e-38 335 276
0.020591147 0.73400003 -0.046330083 1.2724837e-38 336 276
0.021878093 0.73400003 -0.046330083 1.3462402e-38 337 276
0.023165042 0.73400003 -0.046330083 1.3095784e-38 338 276
0.024418673 0.73299998 -0.046266954 8.6703927e-39 339 276
0.025703866 0.73299998 -0.046266954 8.1189986e-39 340 276
0.026989058 0.73299998 -0.046266954 1.4480497e-38 341 276
-0.032261331 0.736 -0.047746774 1.8533489e-38 295 277
-0.030970879 0.736 -0.047746774 1.8991947e-38 296 277
-0.029680425 0.736 -0.047746774 1.871536e-38 297 277
-0.028389972 0.736 -0.047746774 1.7884873e-38 298 277
-0.02702588 0.73400003 -0.047617026 1.7239504e-38 299 277
-0.025738932 0.73400003 -0.047617026 1.6688132e-38 300 277
-0.024451986 0.73400003 -0.047617026 1.6595936e-38 301 277
-0.023165042 0.73400003 -0.047617026 1.6227528e-38 302 277
-0.021878093 0.73400003 -0.047617026 1.6134974e-38 303 277
-0.020591147 0.73400003 -0.047617026 1.5766198e-38 304 277
-0.019304199 0.73400003 -0.047617026 1.548961e-38 305 277
-0.018017253 0.73400003 -0.047617026 1.5029002e-38 306 277
-0.016730307 0.73400003 -0.047617026 1.4198881e-38 307 277
-0.01544336 0.73400003 -0.047617026 1.3644639e-38 308 277
-0.014156413 0.73400003 -0.047617026 1.2907073e-38 309 277
-0.012869466 0.73400003 -0.047617026 1.2537216e-38 310 277
-0.011582521 0.73400003 -0.047617026 1.1984042e-38 311 277
-0.010295574 0.73400003 -0.047617026 1.2530735e-38 312 277
-0.0090086265 0.73400003 -0.047617026 1.1239996e-38 313 277
-0.0077216802 0.73400003 -0.047617026 9.9532198e-39 314 277
-0.0064259665 0.73299998 -0.04755215 9.9532198e-39 315 277
-0.005140773 0.73299998 -0.04755215 9.6795266e-39 316 277
-0.0038608401 0.73400003 -0.047617026 9.6795266e-39 317 277
-0.0025738934 0.73400003 -0.047617026 8.759015e-39 318 277
-0.0012869467 0.73400003 -0.047617026 8.0214486e-39 319 277
0 0.73400003 -0.047617026 5.5361365e-39 320 277
0.0012869467 0.73400003 -0.047617026 3.7844195e-39 321 277
0.0025738934 0.73400003 -0.047617026 2.3114726e-39 322 277
0.0038713599 0.736 -0.047746774 1.2973207e-39 323 277
0.005161813 0.736 -0.047746774 1.3060102e-41 324 277
0.0077427197 0.736 -0.047746774 8.286884e-39 326 277
0.0090331733 0.736 -0.047746774 1.6768882e-38 327 277
0.010323626 0.736 -0.047746774 1.4751676e-38 328 277
0.01161408 0.736 -0.047746774 1.2815568e-38 329 277
0.012904533 0.736 -0.047746774 1.4107026e-38 330 277
0.014156413 0.73400003 -0.047617026 1.4844591e-38 331 277
0.01544336 0.73400003 -0.047617026 1.3460582e-38 332 277
0.016730307 0.73400003 -0.047617026 1.3552777e-38 333 277
0.017992707 0.73299998 -0.04755215 1.3557815e-38 334 277
0.019225299 0.73100001 -0.047422405 1.3004642e-38 335 277
0.020506985 0.73100001 -0.047422405 1.4286765e-38 336 277
0.021758866 0.73000002 -0.047357533 1.4102732e-38 337 277
0.023038799 0.73000002 -0.047357533 1.0885962e-38 338 277
0.024318734 0.73000002 -0.047357533 7.8435061e-39 339 277
0.025598666 0.73000002 -0.047357533 1.1430128e-38 340 277
0.026878599 0.73000002 -0.047357533 1.5578933e-38 341 277
0.028081384 0.72799999 -0.047227785 1.6410838e-38 342 277
-0.030886721 0.73400003 -0.048903972 1.8624243e-38 296 278
-0.029599773 0.73400003 -0.048903972 1.8163265e-38 297 278
-0.028312827 0.73400003 -0.048903972 1.8069988e-38 298 278
-0.02702588 0.73400003 -0.048903972 1.8162183e-38 299 278
-0.025738932 0.73400003 -0.048903972 1.8071785e-38 300 278
-0.024451986 0.73400003 -0.048903972 1.8163981e-38 301 278
-0.023133477 0.73299998 -0.048837345 1.7980316e-38 302 278
-0.021848286 0.73299998 -0.048837345 1.8164705e-38 303 278
-0.020563092 0.73299998 -0.048837345 1.8163633e-38 304 278
-0.019277899 0.73299998 -0.048837345 1.8071438e-38 305 278
-0.017992707 0.73299998 -0.048837345 1.8070363e-38 306 278
-0.016707512 0.73299998 -0.048837345 1.7978167e-38 307 278
-0.015422319 0.73299998 -0.048837345 1.7885252e-38 308 278
-0.014137126 0.73299998 -0.048837345 1.7793056e-38 309 278
-0.012851933 0.73299998 -0.048837345 1.7425347e-38 310 278
-0.011566739 0.73299998 -0.048837345 1.7148758e-38 311 278
-0.010281546 0.73299998 -0.048837345 1.7236623e-38 312 278
-0.0089963535 0.73299998 -0.048837345 1.4747341e-38 313 278
-0.0077111595 0.73299998 -0.048837345 1.4282414e-38 314 278
-0.006408433 0.73100001 -0.048704091 1.4098022e-38 315 278
-0.0051267464 0.73100001 -0.048704091 1.4099836e-38 316 278
-0.0038397999 0.73000002 -0.048637468 1.4745205e-38 317 278
-0.0025598668 0.73000002 -0.048637468 1.4376427e-38 318 278
-0.0012799334 0.73000002 -0.048637468 1.4007284e-38 319 278
0 0.73000002 -0.048637468 1.2626155e-38 320 278
0.0012799334 0.73000002 -0.048637468 1.1427611e-38 321 278
0.0025598668 0.73000002 -0.048637468 1.0321282e-38 322 278
0.0038397999 0.73000002 -0.048637468 9.0305432e-39 323 278
0.0051197335 0.73000002 -0.048637468 4.252938e-39 324 278
0.0064259665 0.73299998 -0.048837345 5.0826987e-39 325 278
0.0077111595 0.73299998 -0.048837345 1.0784058e-38 326 278
0.0089963535 0.73299998 -0.048837345 1.520909e-38 327 278
0.010295574 0.73400003 -0.048903972 1.4105951e-38 328 278
0.011582521 0.73400003 -0.048903972 1.2815212e-38 329 278
0.012816866 0.73100001 -0.048704091 1.3553146e-38 330 278
0.014098554 0.73100001 -0.048704091 1.3368754e-38 331 278
0.01538024 0.73100001 -0.048704091 1.3551704e-38 332 278
0.016661927 0.73100001 -0.048704091 1.4381464e-38 333 278
0.017919067 0.73000002 -0.048637468 1.3187593e-38 334 278
0.0191464 0.72799999 -0.048504211 1.2450028e-38 335 278
0.020422826 0.72799999 -0.048504211 1.4659143e-38 336 278
0.021699252 0.72799999 -0.048504211 1.3368404e-38 337 278
0.022975679 0.72799999 -0.048504211 7.3889922e-39 338 278
0.024252106 0.72799999 -0.048504211 7.8496116e-39 339 278
0.025528532 0.72799999 -0.048504211 1.3365868e-38 340 278
0.026804959 0.72799999 -0.048504211 1.5486367e-38 341 278
0.028081384 0.72799999 -0.048504211 1.6134964e-38 342 278
-0.01538024 0.73100001 -0.049985781 1.6597753e-38 308 279
-0.014098554 0.73100001 -0.049985781 1.668995e-38 309 279
-0.012816866 0.73100001 -0.049985781 1.6965813e-38 310 279
-0.01153518 0.73100001 -0.049985781 1.7150205e-38 311 279
-0.010253493 0.73100001 -0.049985781 1.7882355e-38 312 279
-0.0089595336 0.73000002 -0.0499174 1.6499421e-38 313 279
-0.0076795998 0.73000002 -0.0499174 1.7412745e-38 314 279
-0.0063996664 0.73000002 -0.0499174 1.667518e-38 315 279
-0.0051197335 0.73000002 -0.0499174 1.5847947e-38 316 279
-0.0038397999 0.73000002 -0.0499174 1.5847947e-38 317 279
-0.0025598668 0.73000002 -0.0499174 1.6029094e-38 318 279
-0.0012799334 0.73000002 -0.0499174 1.612129e-38 319 279
0 0.73000002 -0.0499174 1.6581547e-38 320 279
0.0012764266 0.72799999 -0.049780637 1.6949969e-38 321 279
0.0025528532 0.72799999 -0.049780637 1.6495482e-38 322 279
0.0038292799 0.72799999 -0.049780637 1.7509273e-38 323 279
0.0051057064 0.72799999 -0.049780637 1.5493573e-38 324 279
0.0063996664 0.73000002 -0.0499174 1.5216986e-38 325 279
0.0076795998 0.73000002 -0.0499174 1.5857315e-38 326 279
0.0089595336 0.73000002 -0.0499174 1.5488891e-38 327 279
0.010239467 0.73000002 -0.0499174 1.484279e-38 328 279
0.011519399 0.73000002 -0.0499174 1.4197421e-38 329 279
0.012799333 0.73000002 -0.0499174 1.3738245e-38 330 279
0.014079267 0.73000002 -0.0499174 1.3646048e-38 331 279
0.0153592 0.73000002 -0.0499174 1.4015553e-38 332 279
0.016593546 0.72799999 -0.049780637 1.429214e-38 333 279
0.017869972 0.72799999 -0.049780637 1.3368389e-38 334 279
0.0191464 0.72799999 -0.049780637 1.3736811e-38 335 279
0.020422826 0.72799999 -0.049780637 1.3650027e-38 336 279
0.021699252 0.72799999 -0.049780637 1.0423539e-38 337 279
0.022975679 0.72799999 -0.049780637 5.8231056e-39 338 279
0.024218792 0.727 -0.049712259 9.4190953e-39 339 279
0.025423333 0.72500002 -0.0495755 1.4381096e-38 340 279
0.026694499 0.72500002 -0.0495755 1.5395246e-38 341 279
0.027965667 0.72500002 -0.0495755 1.6318995e-38 342 279
-0.0063821329 0.72799999 -0.051057063 1.5116866e-38 315 280
-0.0051057064 0.72799999 -0.051057063 1.4933189e-38 316 280
-0.0038292799 0.72799999 -0.051057063 1.4933189e-38 317 280
-0.0025528532 0.72799999 -0.051057063 1.5298363e-38 318 280
-0.0012764266 0.72799999 -0.051057063 1.5021416e-38 319 280
0 0.72799999 -0.051057063 1.5296561e-38 320 280
0.0012764266 0.72799999 -0.051057063 1.5388757e-38 321 280
0.0025528532 0.72799999 -0.051057063 1.5850828e-38 322 280
0.0038292799 0.72799999 -0.051057063 1.7326317e-38 323 280
0.0051057064 0.72799999 -0.051057063 1.7610108e-38 324 280
0.0063821329 0.72799999 -0.051057063 1.7517911e-38 325 280
0.0076585598 0.72799999 -0.051057063 1.7426068e-38 326 280
0.0089349858 0.72799999 -0.051057063 1.6780699e-38 327 280
0.010211413 0.72799999 -0.051057063 1.6872526e-38 328 280
0.01148784 0.72799999 -0.051057063 1.6688135e-38 329 280
0.012764266 0.72799999 -0.051057063 1.6410825e-38 330 280
0.014040692 0.72799999 -0.051057063 1.5949847e-38 331 280
0.01531712 0.72799999 -0.051057063 1.5672554e-38 332 280
0.016593546 0.72799999 -0.051057063 1.5304131e-38 333 280
0.017869972 0.72799999 -0.051057063 1.5026112e-38 334 280
0.019120099 0.727 -0.050986931 1.5026112e-38 335 280
0.020394772 0.727 -0.050986931 1.5027903e-38 336 280
0.021669446 0.727 -0.050986931 1.4014111e-38 337 280
0.022944121 0.727 -0.050986931 1.1987971e-38 338 280
0.024218792 0.727 -0.050986931 1.3186514e-38 339 280
0.025318133 0.722 -0.050636265 1.3740408e-38 340 280
0.026584039 0.722 -0.050636265 1.4478332e-38 341 280
0.027849946 0.722 -0.050636265 1.6227878e-38 342 280
0.0025493465 0.727 -0.052261602 1.5211225e-38 322 281
0.0038240198 0.727 -0.052261602 1.5580008e-38 323 281
0.0050986931 0.727 -0.052261602 1.5491409e-38 324 281
0.0063733663 0.727 -0.052261602 1.5491409e-38 325 281
0.0076480396 0.727 -0.052261602 1.5767633e-38 326 281
0.0089227129 0.727 -0.052261602 1.604458e-38 327 281
0.010197386 0.727 -0.052261602 1.6597031e-38 328 281
0.01147206 0.727 -0.052261602 1.6873618e-38 329 281
0.012746733 0.727 -0.052261602 1.7423548e-38 330 281
0.014021406 0.727 -0.052261602 1.7515745e-38 331 281
0.015296079 0.727 -0.052261602 1.7516463e-38 332 281
0.016570752 0.727 -0.052261602 1.7516463e-38 333 281
0.017845426 0.727 -0.052261602 1.7425347e-38 334 281
0.019120099 0.727 -0.052261602 1.7333151e-38 335 281
0.020394772 0.727 -0.052261602 1.7883804e-38 336 281
0.021609833 0.72500002 -0.052117832 1.8068195e-38 337 281
0.022880999 0.72500002 -0.052117832 1.7422829e-38 338 281
0.024152167 0.72500002 -0.052117832 1.548672e-38 339 281
0.025318133 0.722 -0.051902171 1.2822768e-38 340 281
0.026584039 0.722 -0.051902171 1.3745083e-38 341 281
0.02788852 0.72299999 -0.051974058 1.6319725e-38 342 281
0.025353199 0.72299999 -0.053241719 1.245219e-38 340 282
0.026620859 0.72299999 -0.053241719 1.3742929e-38 341 282
