# .PCD v.7 - Point Cloud Data file format
FIELDS x y z rgb imX imY
SIZE 4 4 4 4 4 4
TYPE F F F F F F
COUNT 1 1 1 1 1 1
WIDTH 855
HEIGHT 1
VIEWPOINT 0 0 0 1 0 0 0
POINTS 855
DATA ascii
0.061780453 0.76599997 -0.033576332 1.7099698e-38 366 265
0.063205913 0.76700002 -0.033620168 1.7007145e-38 367 265
0.06455072 0.76700002 -0.033620168 1.7281934e-38 368 265
0.065895528 0.76700002 -0.033620168 1.7281934e-38 369 265
0.067240335 0.76700002 -0.033620168 1.709898e-38 370 265
0.068763971 0.76899999 -0.033707831 1.728301e-38 371 265
0.070112288 0.76899999 -0.033707831 1.7006427e-38 372 265
0.071646459 0.77100003 -0.033795502 1.6822039e-38 373 265
0.073187642 0.773 -0.033883166 1.7004992e-38 374 265
0.074542962 0.773 -0.033883166 1.6728768e-38 375 265
0.075898297 0.773 -0.033883166 1.6544739e-38 376 265
0.077353559 0.77399999 -0.033927001 1.6175962e-38 377 265
0.078710638 0.77399999 -0.033927001 1.6265286e-38 378 265
0.080067717 0.77399999 -0.033927001 1.5988703e-38 379 265
0.081424795 0.77399999 -0.033927001 1.6079821e-38 380 265
0.082995787 0.77600002 -0.034014668 1.5895433e-38 381 265
0.084356368 0.77600002 -0.034014668 1.5987268e-38 382 265
0.085716955 0.77600002 -0.034014668 1.6263851e-38 383 265
0.087077543 0.77600002 -0.034014668 1.5990856e-38 384 265
0.088438138 0.77600002 -0.034014668 1.608305e-38 385 265
0.089567274 0.77399999 -0.033927001 1.6541151e-38 386 265
0.09057194 0.77100003 -0.033795502 1.7831872e-38 387 265
0.091923758 0.77100003 -0.033795502 1.7011462e-38 388 265
0.093275577 0.77100003 -0.033795502 1.7103658e-38 389 265
0.0200406 0.76200002 -0.034737039 1.5824114e-38 335 266
0.02137664 0.76200002 -0.034737039 1.6831411e-38 336 266
0.02271268 0.76200002 -0.034737039 1.6554822e-38 337 266
0.02404872 0.76200002 -0.034737039 1.6828167e-38 338 266
0.02538476 0.76200002 -0.034737039 1.655158e-38 339 266
0.0267208 0.76200002 -0.034737039 1.6552299e-38 340 266
0.028056841 0.76200002 -0.034737039 1.6460103e-38 341 266
0.029354304 0.76099998 -0.034691449 1.6459031e-38 342 266
0.030688593 0.76099998 -0.034691449 1.6551585e-38 343 266
0.031938717 0.759 -0.034600276 1.6551936e-38 344 266
0.033269498 0.759 -0.034600276 1.6367186e-38 345 266
0.035931058 0.759 -0.034600276 1.5811131e-38 347 266
0.03726184 0.759 -0.034600276 1.6174888e-38 348 266
0.038592618 0.759 -0.034600276 1.6174888e-38 349 266
0.040081199 0.76200002 -0.034737039 1.6544748e-38 350 266
0.041417241 0.76200002 -0.034737039 1.7005368e-38 351 266
0.042865492 0.764 -0.034828212 1.7008938e-38 352 266
0.04420504 0.764 -0.034828212 1.7008938e-38 353 266
0.045425359 0.76200002 -0.034737039 1.7192609e-38 354 266
0.046761397 0.76200002 -0.034737039 1.7100415e-38 355 266
0.048097439 0.76200002 -0.034737039 1.7375563e-38 356 266
0.049433477 0.76200002 -0.034737039 1.7375563e-38 357 266
0.050769519 0.76200002 -0.034737039 1.7284445e-38 358 266
0.052105557 0.76200002 -0.034737039 1.7284445e-38 359 266
0.053441599 0.76200002 -0.034737039 1.7375563e-38 360 266
0.054777641 0.76200002 -0.034737039 1.7283369e-38 361 266
0.056113683 0.76200002 -0.034737039 1.709898e-38 362 266
0.057600506 0.764 -0.034828212 1.709898e-38 363 266
0.058940053 0.764 -0.034828212 1.709898e-38 364 266
0.0602796 0.764 -0.034828212 1.709898e-38 365 266
0.061619148 0.764 -0.034828212 1.7098621e-38 366 266
0.063123502 0.76599997 -0.034919381 1.7098621e-38 367 266
0.06455072 0.76700002 -0.034964975 1.6913874e-38 368 266
0.065895528 0.76700002 -0.034964975 1.6913874e-38 369 266
0.067240335 0.76700002 -0.034964975 1.6730921e-38 370 266
0.068763971 0.76899999 -0.035056144 1.6638726e-38 371 266
0.070112288 0.76899999 -0.035056144 1.6453979e-38 372 266
0.071460605 0.76899999 -0.035056144 1.626995e-38 373 266
0.072998285 0.77100003 -0.03514732 1.6268515e-38 374 266
0.074542962 0.773 -0.035238493 1.5991932e-38 375 266
0.075898297 0.773 -0.035238493 1.5990497e-38 376 266
0.077353559 0.77399999 -0.03528408 1.5622079e-38 377 266
0.078710638 0.77399999 -0.03528408 1.589615e-38 378 266
0.080067717 0.77399999 -0.03528408 1.5803597e-38 379 266
0.081424795 0.77399999 -0.03528408 1.5620285e-38 380 266
0.082995787 0.77600002 -0.035375252 1.5620285e-38 381 266
0.084356368 0.77600002 -0.035375252 1.5437332e-38 382 266
0.085716955 0.77600002 -0.035375252 1.5529526e-38 383 266
0.087077543 0.77600002 -0.035375252 1.5714991e-38 384 266
0.088438138 0.77600002 -0.035375252 1.5899379e-38 385 266
0.089451559 0.773 -0.035238493 1.6361068e-38 386 266
0.09057194 0.77100003 -0.03514732 1.7190818e-38 387 266
0.091923758 0.77100003 -0.03514732 1.6916746e-38 388 266
0.093275577 0.77100003 -0.03514732 1.6916746e-38 389 266
0.094627403 0.77100003 -0.03514732 1.5814383e-38 390 266
0.017300138 0.759 -0.035931058 1.5736956e-38 333 267
0.01863092 0.759 -0.035931058 1.6923959e-38 334 267
0.0199617 0.759 -0.035931058 1.6647371e-38 335 267
0.02129248 0.759 -0.035931058 1.67374e-38 336 267
0.02262326 0.759 -0.035931058 1.6645205e-38 337 267
0.023954039 0.759 -0.035931058 1.6735598e-38 338 267
0.025284819 0.759 -0.035931058 1.6643403e-38 339 267
0.026615599 0.759 -0.035931058 1.6550841e-38 340 267
0.027946379 0.759 -0.035931058 1.6550841e-38 341 267
0.029200014 0.75700003 -0.03583638 1.655012e-38 342 267
0.030527288 0.75700003 -0.03583638 1.6457925e-38 343 267
0.031854562 0.75700003 -0.03583638 1.6456849e-38 344 267
0.033181835 0.75700003 -0.03583638 1.5996237e-38 345 267
0.034509107 0.75700003 -0.03583638 1.5806109e-38 346 267
0.03583638 0.75700003 -0.03583638 1.5529885e-38 347 267
0.037065465 0.755 -0.035741698 1.6542227e-38 348 267
0.038389232 0.755 -0.035741698 1.746417e-38 349 267
0.039818201 0.75700003 -0.03583638 1.682455e-38 350 267
0.041254178 0.759 -0.035931058 1.7009297e-38 351 267
0.042584959 0.759 -0.035931058 1.7100415e-38 352 267
0.043915741 0.759 -0.035931058 1.7100415e-38 353 267
0.045365743 0.76099998 -0.036025736 1.7375563e-38 354 267
0.046700031 0.76099998 -0.036025736 1.7375563e-38 355 267
0.048034318 0.76099998 -0.036025736 1.7374845e-38 356 267
0.049368605 0.76099998 -0.036025736 1.746704e-38 357 267
0.050702889 0.76099998 -0.036025736 1.7192251e-38 358 267
0.052037176 0.76099998 -0.036025736 1.7099698e-38 359 267
0.053371463 0.76099998 -0.036025736 1.728301e-38 360 267
0.05470575 0.76099998 -0.036025736 1.7006786e-38 361 267
0.056040037 0.76099998 -0.036025736 1.7189022e-38 362 267
0.057449725 0.76200002 -0.036073081 1.7096828e-38 363 267
0.058785759 0.76200002 -0.036073081 1.7097545e-38 364 267
0.060121801 0.76200002 -0.036073081 1.7005351e-38 365 267
0.061619148 0.764 -0.036167759 1.7004634e-38 366 267
0.062958695 0.764 -0.036167759 1.7004634e-38 367 267
0.064466551 0.76599997 -0.036262438 1.6820963e-38 368 267
0.065809615 0.76599997 -0.036262438 1.6820963e-38 369 267
0.067240335 0.76700002 -0.036309779 1.6635857e-38 370 267
0.068585135 0.76700002 -0.036309779 1.6451468e-38 371 267
0.070112288 0.76899999 -0.036404461 1.654151e-38 372 267
0.071460605 0.76899999 -0.036404461 1.6265286e-38 373 267
0.072998285 0.77100003 -0.036499143 1.6173092e-38 374 267
0.074542962 0.773 -0.036593821 1.5988703e-38 375 267
0.075898297 0.773 -0.036593821 1.5712838e-38 376 267
0.077353559 0.77399999 -0.036641158 1.5712838e-38 377 267
0.078710638 0.77399999 -0.036641158 1.5712838e-38 378 267
0.080067717 0.77399999 -0.036641158 1.5712838e-38 379 267
0.081424795 0.77399999 -0.036641158 1.5252584e-38 380 267
0.089451559 0.773 -0.036593821 1.6459002e-38 386 267
0.090806887 0.773 -0.036593821 1.6735943e-38 387 267
0.092162207 0.773 -0.036593821 1.6641596e-38 388 267
0.093517542 0.773 -0.036593821 1.6180984e-38 389 267
0.015885198 0.755 -0.037065465 1.6561306e-38 332 268
0.017208965 0.755 -0.037065465 1.5639351e-38 333 268
0.018581826 0.75700003 -0.037163652 1.6739917e-38 334 268
0.019909101 0.75700003 -0.037163652 1.6555526e-38 335 268
0.021236373 0.75700003 -0.037163652 1.6737753e-38 336 268
0.022563647 0.75700003 -0.037163652 1.6553002e-38 337 268
0.02389092 0.75700003 -0.037163652 1.6460441e-38 338 268
0.025218192 0.75700003 -0.037163652 1.6276049e-38 339 268
0.026545467 0.75700003 -0.037163652 1.6551196e-38 340 268
0.027872739 0.75700003 -0.037163652 1.6366449e-38 341 268
0.029122867 0.755 -0.037065465 1.6365731e-38 342 268
0.030446632 0.755 -0.037065465 1.6181343e-38 343 268
0.031770397 0.755 -0.037065465 1.5718578e-38 344 268
0.033094164 0.755 -0.037065465 1.5257607e-38 345 268
0.034417931 0.755 -0.037065465 1.5715349e-38 346 268
0.035741698 0.755 -0.037065465 1.6175962e-38 347 268
0.037016369 0.75400001 -0.037016369 1.6731279e-38 348 268
0.038338386 0.75400001 -0.037016369 1.7100056e-38 349 268
0.039818201 0.75700003 -0.037163652 1.7100415e-38 350 268
0.041254178 0.759 -0.03726184 1.6916385e-38 351 268
0.042584959 0.759 -0.03726184 1.709898e-38 352 268
0.043915741 0.759 -0.03726184 1.709898e-38 353 268
0.045365743 0.76099998 -0.037360024 1.709898e-38 354 268
0.046700031 0.76099998 -0.037360024 1.709898e-38 355 268
0.048034318 0.76099998 -0.037360024 1.709898e-38 356 268
0.049368605 0.76099998 -0.037360024 1.709898e-38 357 268
0.050702889 0.76099998 -0.037360024 1.7006427e-38 358 268
0.052037176 0.76099998 -0.037360024 1.6914233e-38 359 268
0.053371463 0.76099998 -0.037360024 1.7097545e-38 360 268
0.05470575 0.76099998 -0.037360024 1.7097545e-38 361 268
0.056040037 0.76099998 -0.037360024 1.7005351e-38 362 268
0.057374325 0.76099998 -0.037360024 1.6820963e-38 363 268
0.058785759 0.76200002 -0.037409119 1.6820963e-38 364 268
0.060121801 0.76200002 -0.037409119 1.6728768e-38 365 268
0.061457843 0.76200002 -0.037409119 1.672841e-38 366 268
0.062958695 0.764 -0.037507307 1.672841e-38 367 268
0.064466551 0.76599997 -0.037605491 1.6453262e-38 368 268
0.065809615 0.76599997 -0.037605491 1.6268873e-38 369 268
0.067240335 0.76700002 -0.037654586 1.6358915e-38 370 268
0.068585135 0.76700002 -0.037654586 1.5990138e-38 371 268
0.070112288 0.76899999 -0.03775277 1.5897585e-38 372 268
0.071460605 0.76899999 -0.03775277 1.5897585e-38 373 268
0.072998285 0.77100003 -0.037850961 1.5622079e-38 374 268
0.074542962 0.773 -0.037949149 1.5622079e-38 375 268
0.075898297 0.773 -0.037949149 1.5347649e-38 376 268
0.078479193 0.74599999 -0.036623627 1.52594e-38 380 268
0.079787187 0.74599999 -0.036623627 1.5720013e-38 381 268
0.081203878 0.74699998 -0.036672719 1.5721089e-38 382 268
0.08306592 0.75199997 -0.036918186 1.5813283e-38 383 268
0.084384419 0.75199997 -0.036918186 1.6640163e-38 384 268
0.085702926 0.75199997 -0.036918186 1.7193337e-38 385 268
0.08702144 0.75199997 -0.036918186 1.6550478e-38 386 268
0.08833994 0.75199997 -0.036918186 1.6365731e-38 387 268
0.090016134 0.755 -0.037065465 1.6273178e-38 388 268
0.091581859 0.75700003 -0.037163652 1.6180984e-38 389 268
0.092909135 0.75700003 -0.037163652 1.5354832e-38 390 268
0.014561433 0.755 -0.038389232 1.5185937e-38 331 269
0.01586416 0.75400001 -0.038338386 1.6646647e-38 332 269
0.017186172 0.75400001 -0.038338386 1.6739201e-38 333 269
0.018532733 0.755 -0.038389232 1.6830668e-38 334 269
0.0198565 0.755 -0.038389232 1.6645918e-38 335 269
0.021180267 0.755 -0.038389232 1.6645551e-38 336 269
0.022504034 0.755 -0.038389232 1.646116e-38 337 269
0.023827799 0.755 -0.038389232 1.6551913e-38 338 269
0.025151566 0.755 -0.038389232 1.6275331e-38 339 269
0.026475333 0.755 -0.038389232 1.636609e-38 340 269
0.027799098 0.755 -0.038389232 1.636609e-38 341 269
0.029122867 0.755 -0.038389232 1.6273896e-38 342 269
0.030406307 0.75400001 -0.038338386 1.5536342e-38 343 269
0.03172832 0.75400001 -0.038338386 1.5069631e-38 344 269
0.033050332 0.75400001 -0.038338386 1.4884884e-38 345 269
0.034372345 0.75400001 -0.038338386 1.5992649e-38 346 269
0.035599679 0.75199997 -0.038236689 1.7190816e-38 347 269
0.036918186 0.75199997 -0.038236689 1.7009297e-38 348 269
0.038338386 0.75400001 -0.038338386 1.7101491e-38 349 269
0.039660402 0.75400001 -0.038338386 1.7100415e-38 350 269
0.041145474 0.75700003 -0.038490929 1.6824191e-38 351 269
0.042584959 0.759 -0.038592618 1.7006427e-38 352 269
0.043915741 0.759 -0.038592618 1.7006427e-38 353 269
0.045365743 0.76099998 -0.038694311 1.691495e-38 354 269
0.046700031 0.76099998 -0.038694311 1.6822756e-38 355 269
0.048034318 0.76099998 -0.038694311 1.7004992e-38 356 269
0.049368605 0.76099998 -0.038694311 1.6820963e-38 357 269
0.050702889 0.76099998 -0.038694311 1.672841e-38 358 269
0.052037176 0.76099998 -0.038694311 1.6820963e-38 359 269
0.053371463 0.76099998 -0.038694311 1.672841e-38 360 269
0.05470575 0.76099998 -0.038694311 1.672841e-38 361 269
0.056040037 0.76099998 -0.038694311 1.6636933e-38 362 269
0.057374325 0.76099998 -0.038694311 1.6636933e-38 363 269
0.058785759 0.76200002 -0.038745161 1.6544021e-38 364 269
0.060121801 0.76200002 -0.038745161 1.6451827e-38 365 269
0.061457843 0.76200002 -0.038745161 1.6450751e-38 366 269
0.062958695 0.764 -0.038846854 1.6450751e-38 367 269
0.064466551 0.76599997 -0.038948543 1.6083409e-38 368 269
0.065809615 0.76599997 -0.038948543 1.589902e-38 369 269
0.067240335 0.76700002 -0.038999394 1.5897944e-38 370 269
0.068585135 0.76700002 -0.038999394 1.580575e-38 371 269
0.070112288 0.76899999 -0.039101087 1.580575e-38 372 269
0.071460605 0.76899999 -0.039101087 1.580575e-38 373 269
0.07586322 0.74599999 -0.03793161 1.5259043e-38 378 269
0.077171214 0.74599999 -0.03793161 1.5812217e-38 379 269
0.078479193 0.74599999 -0.03793161 1.5541375e-38 380 269
0.079787187 0.74599999 -0.03793161 1.5817602e-38 381 269
0.081203878 0.74699998 -0.03798246 1.646116e-38 382 269
0.08273454 0.74900001 -0.038084153 1.6553355e-38 383 269
0.08416 0.75 -0.038135 1.6918542e-38 384 269
0.085702926 0.75199997 -0.038236689 1.6734151e-38 385 269
0.08702144 0.75199997 -0.038236689 1.6549043e-38 386 269
0.08869236 0.755 -0.038389232 1.6180266e-38 387 269
0.090016134 0.755 -0.038389232 1.5905119e-38 388 269
0.091581859 0.75700003 -0.038490929 1.5905119e-38 389 269
0.092909135 0.75700003 -0.038490929 1.5446677e-38 390 269
0.094236404 0.75700003 -0.038490929 1.812035e-38 391 269
0.013237666 0.755 -0.039712999 1.6835729e-38 330 270
0.014561433 0.755 -0.039712999 1.5913413e-38 331 270
0.01586416 0.75400001 -0.039660402 1.646189e-38 332 270
0.017186172 0.75400001 -0.039660402 1.6645921e-38 333 270
0.018508185 0.75400001 -0.039660402 1.6461885e-38 334 270
0.019830201 0.75400001 -0.039660402 1.636969e-38 335 270
0.021152213 0.75400001 -0.039660402 1.6368964e-38 336 270
0.022474226 0.75400001 -0.039660402 1.6184933e-38 337 270
0.023827799 0.755 -0.039712999 1.6367884e-38 338 270
0.025151566 0.755 -0.039712999 1.6275689e-38 339 270
0.026475333 0.755 -0.039712999 1.6183495e-38 340 270
0.027762281 0.75400001 -0.039660402 1.5722524e-38 341 270
0.029007144 0.75199997 -0.039555199 1.5532396e-38 342 270
0.030325651 0.75199997 -0.039555199 1.4610095e-38 343 270
0.03172832 0.75400001 -0.039660402 1.4977437e-38 344 270
0.032962665 0.75199997 -0.039555199 1.6360352e-38 345 270
0.034281172 0.75199997 -0.039555199 1.6828147e-38 346 270
0.035505001 0.75 -0.039449997 1.6920343e-38 347 270
0.036819998 0.75 -0.039449997 1.7011091e-38 348 270
0.038236689 0.75199997 -0.039555199 1.6826344e-38 349 270
0.039660402 0.75400001 -0.039660402 1.6916027e-38 350 270
0.041036766 0.755 -0.039712999 1.6639444e-38 351 270
0.042472746 0.75700003 -0.039818201 1.6638368e-38 352 270
0.043800019 0.75700003 -0.039818201 1.6546174e-38 353 270
0.045246519 0.759 -0.0399234 1.6637292e-38 354 270
0.046577301 0.759 -0.0399234 1.6544739e-38 355 270
0.048034318 0.76099998 -0.040028598 1.6544021e-38 356 270
0.049368605 0.76099998 -0.040028598 1.6451827e-38 357 270
0.050702889 0.76099998 -0.040028598 1.6450751e-38 358 270
0.052037176 0.76099998 -0.040028598 1.6542945e-38 359 270
0.053231198 0.759 -0.0399234 1.6359274e-38 360 270
0.054561976 0.759 -0.0399234 1.6359274e-38 361 270
0.056040037 0.76099998 -0.040028598 1.6174885e-38 362 270
0.057374325 0.76099998 -0.040028598 1.6174885e-38 363 270
0.058785759 0.76200002 -0.040081199 1.6082691e-38 364 270
0.060121801 0.76200002 -0.040081199 1.5990497e-38 365 270
0.061457843 0.76200002 -0.040081199 1.5990497e-38 366 270
0.062958695 0.764 -0.040186398 1.5898303e-38 367 270
0.064298242 0.764 -0.040186398 1.580575e-38 368 270
0.06563779 0.764 -0.040186398 1.5529526e-38 369 270
0.067152664 0.76599997 -0.040291596 1.5620285e-38 370 270
0.068585135 0.76700002 -0.040344197 1.5620285e-38 371 270
0.072854504 0.74199998 -0.0390292 1.5536342e-38 376 270
0.074155472 0.74199998 -0.0390292 1.608951e-38 377 270
0.075659841 0.74400002 -0.039134398 1.6366472e-38 378 270
0.076964319 0.74400002 -0.039134398 1.6642699e-38 379 270
0.078479193 0.74599999 -0.039239597 1.6643405e-38 380 270
0.079787187 0.74599999 -0.039239597 1.636682e-38 381 270
0.081203878 0.74699998 -0.039292198 1.6827061e-38 382 270
0.08273454 0.74900001 -0.0393974 1.6550478e-38 383 270
0.08416 0.75 -0.039449997 1.6731997e-38 384 270
0.085702926 0.75199997 -0.039555199 1.6455773e-38 385 270
0.087252878 0.75400001 -0.039660402 1.6362861e-38 386 270
0.08869236 0.755 -0.039712999 1.6362861e-38 387 270
0.090016134 0.755 -0.039712999 1.5904768e-38 388 270
0.091581859 0.75700003 -0.039818201 1.5996964e-38 389 270
0.092909135 0.75700003 -0.039818201 1.5355929e-38 390 270
0.094734348 0.76099998 -0.040028598 1.8121799e-38 391 270
0.096699834 0.76599997 -0.040291596 1.5565532e-38 392 270
0.0064522666 0.736 -0.040004052 1.6769133e-38 325 271
0.0077427197 0.736 -0.040004052 1.7410536e-38 326 271
0.01043584 0.74400002 -0.040438879 1.6844382e-38 328 271
0.01170876 0.74199998 -0.040330172 1.4631329e-38 329 271
0.013009733 0.74199998 -0.040330172 1.6554466e-38 330 271
0.014561433 0.755 -0.041036766 1.6462271e-38 331 271
0.01586416 0.75400001 -0.040982414 1.6369707e-38 332 271
0.017140586 0.75199997 -0.040873703 1.627751e-38 333 271
0.018459093 0.75199997 -0.040873703 1.6002349e-38 334 271
0.0197776 0.75199997 -0.040873703 1.5910154e-38 335 271
0.021096105 0.75199997 -0.040873703 1.60931e-38 336 271
0.022414612 0.75199997 -0.040873703 1.6000904e-38 337 271
0.02379624 0.75400001 -0.040982414 1.6276407e-38 338 271
0.025118252 0.75400001 -0.040982414 1.5999824e-38 339 271
0.026440267 0.75400001 -0.040982414 1.6090942e-38 340 271
0.027688639 0.75199997 -0.040873703 1.498497e-38 341 271
0.028929999 0.75 -0.040764999 1.4977795e-38 342 271
0.030244999 0.75 -0.040764999 1.4609019e-38 343 271
0.03156 0.75 -0.040764999 1.5442358e-38 344 271
0.032874998 0.75 -0.040764999 1.7470662e-38 345 271
0.034144413 0.74900001 -0.040710647 1.7198009e-38 346 271
0.035362978 0.74699998 -0.040601939 1.6828866e-38 347 271
0.036672719 0.74699998 -0.040601939 1.7104002e-38 348 271
0.038084153 0.74900001 -0.040710647 1.682742e-38 349 271
0.039555199 0.75199997 -0.040873703 1.682455e-38 350 271
0.041036766 0.755 -0.041036766 1.6271385e-38 351 271
0.042360533 0.755 -0.041036766 1.6361068e-38 352 271
0.043684296 0.755 -0.041036766 1.6268873e-38 353 271
0.045246519 0.759 -0.041254178 1.5993008e-38 354 271
0.046577301 0.759 -0.041254178 1.5900814e-38 355 271
0.047908079 0.759 -0.041254178 1.5991215e-38 356 271
0.049238857 0.759 -0.041254178 1.5991215e-38 357 271
0.050569639 0.759 -0.041254178 1.5990138e-38 358 271
0.051900417 0.759 -0.041254178 1.6082333e-38 359 271
0.053231198 0.759 -0.041254178 1.5714273e-38 360 271
0.054561976 0.759 -0.041254178 1.5898303e-38 361 271
0.056040037 0.76099998 -0.041362885 1.5897944e-38 362 271
0.057374325 0.76099998 -0.041362885 1.5897944e-38 363 271
0.058708608 0.76099998 -0.041362885 1.5898303e-38 364 271
0.060121801 0.76200002 -0.041417241 1.5898303e-38 365 271
0.061457843 0.76200002 -0.041417241 1.5898303e-38 366 271
0.062958695 0.764 -0.041525945 1.5806109e-38 367 271
0.064298242 0.764 -0.041525945 1.5806109e-38 368 271
0.06563779 0.764 -0.041525945 1.5806109e-38 369 271
0.071553528 0.74199998 -0.040330172 1.6548685e-38 375 271
0.072854504 0.74199998 -0.040330172 1.6458285e-38 376 271
0.074155472 0.74199998 -0.040330172 1.6643037e-38 377 271
0.075659841 0.74400002 -0.040438879 1.673523e-38 378 271
0.076964319 0.74400002 -0.040438879 1.6643034e-38 379 271
0.078479193 0.74599999 -0.040547583 1.6733791e-38 380 271
0.079787187 0.74599999 -0.040547583 1.6456849e-38 381 271
0.081203878 0.74699998 -0.040601939 1.6548326e-38 382 271
0.08273454 0.74900001 -0.040710647 1.6363937e-38 383 271
0.084384419 0.75199997 -0.040873703 1.6453979e-38 384 271
0.085702926 0.75199997 -0.040873703 1.6453979e-38 385 271
0.087252878 0.75400001 -0.040982414 1.5995519e-38 386 271
0.088927314 0.75700003 -0.041145474 1.6087714e-38 387 271
0.09025459 0.75700003 -0.041145474 1.5721816e-38 388 271
0.091581859 0.75700003 -0.041145474 1.5814371e-38 389 271
0.093154602 0.759 -0.041254178 1.5175145e-38 390 271
0.094734348 0.76099998 -0.041362885 1.7941372e-38 391 271
0.0051758396 0.73799998 -0.041406717 1.6859886e-38 324 272
0.0064522666 0.736 -0.041294504 1.6214517e-38 325 272
0.0077427197 0.736 -0.041294504 1.712709e-38 326 272
0.0090577193 0.73799998 -0.041406717 1.4084995e-38 327 272
0.010407786 0.74199998 -0.041631144 1.6558419e-38 328 272
0.01170876 0.74199998 -0.041631144 1.5728659e-38 329 272
0.013009733 0.74199998 -0.041631144 1.664557e-38 330 272
0.014407139 0.74699998 -0.041911677 1.6461539e-38 331 272
0.01575896 0.74900001 -0.042023893 1.6093829e-38 332 272
0.017072206 0.74900001 -0.042023893 1.6001633e-38 333 272
0.018409999 0.75 -0.04208 1.6001983e-38 334 272
0.019724999 0.75 -0.04208 1.6001983e-38 335 272
0.02104 0.75 -0.04208 1.5910141e-38 336 272
0.022414612 0.75199997 -0.04219221 1.5725394e-38 337 272
0.023733119 0.75199997 -0.04219221 1.6184213e-38 338 272
0.025051624 0.75199997 -0.04219221 1.5815794e-38 339 272
0.02637013 0.75199997 -0.04219221 1.5624231e-38 340 272
0.027688639 0.75199997 -0.04219221 1.3779988e-38 341 272
0.028891427 0.74900001 -0.042023893 1.4426424e-38 342 272
0.030204674 0.74900001 -0.042023893 1.6085935e-38 343 272
0.031517919 0.74900001 -0.042023893 1.6554098e-38 344 272
0.032831166 0.74900001 -0.042023893 1.7107272e-38 345 272
0.034144413 0.74900001 -0.042023893 1.710546e-38 346 272
0.035362978 0.74699998 -0.041911677 1.692071e-38 347 272
0.036525439 0.74400002 -0.04174336 1.7012896e-38 348 272
0.037829921 0.74400002 -0.04174336 1.6735949e-38 349 272
0.0393974 0.74900001 -0.042023893 1.6456132e-38 350 272
0.040982414 0.75400001 -0.042304426 1.5626025e-38 351 272
0.042304426 0.75400001 -0.042304426 1.5713556e-38 352 272
0.043684296 0.755 -0.042360533 1.5345137e-38 353 272
0.045127295 0.75700003 -0.042472746 1.5434821e-38 354 272
0.046454567 0.75700003 -0.042472746 1.5342626e-38 355 272
0.047908079 0.759 -0.042584959 1.5525221e-38 356 272
0.049238857 0.759 -0.042584959 1.5525221e-38 357 272
0.050569639 0.759 -0.042584959 1.5434821e-38 358 272
0.051900417 0.759 -0.042584959 1.5527015e-38 359 272
0.053231198 0.759 -0.042584959 1.552558e-38 360 272
0.054561976 0.759 -0.042584959 1.5802163e-38 361 272
0.056040037 0.76099998 -0.042697169 1.5528091e-38 362 272
0.057374325 0.76099998 -0.042697169 1.5712479e-38 363 272
0.058708608 0.76099998 -0.042697169 1.5623155e-38 364 272
0.060121801 0.76200002 -0.042753279 1.5900096e-38 365 272
0.061457843 0.76200002 -0.042753279 1.5993367e-38 366 272
0.062793881 0.76200002 -0.042753279 1.5993367e-38 367 272
0.064129919 0.76200002 -0.042753279 1.5903325e-38 368 272
0.064522661 0.736 -0.041294504 1.6363579e-38 370 272
0.065813117 0.736 -0.041294504 1.664052e-38 371 272
0.067285918 0.73799998 -0.041406717 1.6733084e-38 372 272
0.068579875 0.73799998 -0.041406717 1.682528e-38 373 272
0.07025256 0.74199998 -0.041631144 1.7010024e-38 374 272
0.071553528 0.74199998 -0.041631144 1.6917829e-38 375 272
0.072854504 0.74199998 -0.041631144 1.6917103e-38 376 272
0.074155472 0.74199998 -0.041631144 1.6733073e-38 377 272
0.075456448 0.74199998 -0.041631144 1.682455e-38 378 272
0.076964319 0.74400002 -0.04174336 1.6732356e-38 379 272
0.078268796 0.74400002 -0.04174336 1.6639803e-38 380 272
0.079787187 0.74599999 -0.04185557 1.6271026e-38 381 272
0.081203878 0.74699998 -0.041911677 1.6361068e-38 382 272
0.08273454 0.74900001 -0.042023893 1.6361068e-38 383 272
0.08416 0.75 -0.04208 1.6177755e-38 384 272
0.085702926 0.75199997 -0.04219221 1.626995e-38 385 272
0.087252878 0.75400001 -0.042304426 1.5812207e-38 386 272
0.088927314 0.75700003 -0.042472746 1.608879e-38 387 272
0.09025459 0.75700003 -0.042472746 1.5539226e-38 388 272
0.091581859 0.75700003 -0.042472746 1.5815814e-38 389 272
0.093154602 0.759 -0.042584959 1.4903602e-38 390 272
0.00388714 0.73900002 -0.042758539 1.6676221e-38 323 273
0.0051758396 0.73799998 -0.042700678 1.7410174e-38 324 273
0.0064697997 0.73799998 -0.042700678 1.5658457e-38 325 273
0.0077637597 0.73799998 -0.042700678 1.7027323e-38 326 273
0.0090577193 0.73799998 -0.042700678 1.435365e-38 327 273
0.010365707 0.73900002 -0.042758539 1.6186392e-38 328 273
0.01170876 0.74199998 -0.042932119 1.6186392e-38 329 273
0.013009733 0.74199998 -0.042932119 1.6094915e-38 330 273
0.01434928 0.74400002 -0.043047838 1.5910882e-38 331 273
0.015716879 0.74699998 -0.043221418 1.5910154e-38 332 273
0.017026618 0.74699998 -0.043221418 1.5910154e-38 333 273
0.018336359 0.74699998 -0.043221418 1.5819034e-38 334 273
0.0196987 0.74900001 -0.04333714 1.5726839e-38 335 273
0.021011947 0.74900001 -0.04333714 1.5910141e-38 336 273
0.022325192 0.74900001 -0.04333714 1.56332e-38 337 273
0.023669999 0.75 -0.043394998 1.5815077e-38 338 273
0.024984999 0.75 -0.043394998 1.4985329e-38 339 273
0.0263 0.75 -0.043394998 1.5435897e-38 340 273
0.027578179 0.74900001 -0.04333714 1.5805032e-38 341 273
0.028814279 0.74699998 -0.043221418 1.5537425e-38 342 273
0.030124018 0.74699998 -0.043221418 1.7105109e-38 343 273
0.031517919 0.74900001 -0.04333714 1.6832117e-38 344 273
0.032831166 0.74900001 -0.04333714 1.6462974e-38 345 273
0.034053236 0.74699998 -0.043221418 1.7011109e-38 346 273
0.035220962 0.74400002 -0.043047838 1.7103306e-38 347 273
0.036427252 0.74199998 -0.042932119 1.7010743e-38 348 273
0.037728224 0.74199998 -0.042932119 1.6733798e-38 349 273
0.0390292 0.74199998 -0.042932119 1.6914592e-38 350 273
0.040982414 0.75400001 -0.043626439 1.6269232e-38 351 273
0.042304426 0.75400001 -0.043626439 1.5804315e-38 352 273
0.043684296 0.755 -0.043684296 1.5804315e-38 353 273
0.045127295 0.75700003 -0.043800019 1.5986551e-38 354 273
0.046454567 0.75700003 -0.043800019 1.5986551e-38 355 273
0.047908079 0.759 -0.043915741 1.5986551e-38 356 273
0.053231198 0.759 -0.043915741 1.589615e-38 360 273
0.054561976 0.759 -0.043915741 1.6172733e-38 361 273
0.062362559 0.741 -0.042874258 1.682455e-38 368 273
0.063661776 0.741 -0.042874258 1.682455e-38 369 273
0.064522661 0.736 -0.042584959 1.6824909e-38 370 273
0.065813117 0.736 -0.042584959 1.6917103e-38 371 273
0.067285918 0.73799998 -0.042700678 1.7100415e-38 372 273
0.068579875 0.73799998 -0.042700678 1.7100415e-38 373 273
0.070157878 0.741 -0.042874258 1.6916027e-38 374 273
0.071553528 0.74199998 -0.042932119 1.6823832e-38 375 273
0.072854504 0.74199998 -0.042932119 1.6731997e-38 376 273
0.074155472 0.74199998 -0.042932119 1.6455773e-38 377 273
0.075456448 0.74199998 -0.042932119 1.6363579e-38 378 273
0.076964319 0.74400002 -0.043047838 1.6271385e-38 379 273
0.078268796 0.74400002 -0.043047838 1.626995e-38 380 273
0.079787187 0.74599999 -0.04316356 1.626995e-38 381 273
0.081203878 0.74699998 -0.043221418 1.6178114e-38 382 273
0.08273454 0.74900001 -0.04333714 1.608592e-38 383 273
0.08416 0.75 -0.043394998 1.5903325e-38 384 273
0.085702926 0.75199997 -0.04351072 1.5903325e-38 385 273
0.087252878 0.75400001 -0.043626439 1.5446659e-38 386 273
0.08869236 0.755 -0.043684296 1.5446659e-38 387 273
0.09025459 0.75700003 -0.043800019 1.4990015e-38 388 273
0.0038818798 0.73799998 -0.043994635 1.639494e-38 323 274
0.0051758396 0.73799998 -0.043994635 1.6483507e-38 324 274
0.0064697997 0.73799998 -0.043994635 1.3625442e-38 325 274
0.0077427197 0.736 -0.043875411 1.6462621e-38 326 274
0.0090331733 0.736 -0.043875411 1.6186394e-38 327 274
0.010351679 0.73799998 -0.043994635 1.6462255e-38 328 274
0.01169298 0.741 -0.044173479 1.637006e-38 329 274
0.0129922 0.741 -0.044173479 1.6002349e-38 330 274
0.014310705 0.74199998 -0.044233091 1.6002349e-38 331 274
0.015653761 0.74400002 -0.044352323 1.6002702e-38 332 274
0.017003827 0.74599999 -0.044471547 1.5910507e-38 333 274
0.018311813 0.74599999 -0.044471547 1.5727192e-38 334 274
0.019619798 0.74599999 -0.044471547 1.5727192e-38 335 274
0.020927785 0.74599999 -0.044471547 1.5817588e-38 336 274
0.022265578 0.74699998 -0.044531155 1.544917e-38 337 274
0.023575317 0.74699998 -0.044531155 1.5627819e-38 338 274
0.024885058 0.74699998 -0.044531155 1.4614041e-38 339 274
0.0263 0.75 -0.044709999 1.5534907e-38 340 274
0.027578179 0.74900001 -0.044650383 1.6825643e-38 341 274
0.028814279 0.74699998 -0.044531155 1.674064e-38 342 274
0.030124018 0.74699998 -0.044531155 1.6556249e-38 343 274
0.031433757 0.74699998 -0.044531155 1.6737753e-38 344 274
0.032524332 0.74199998 -0.044233091 1.618458e-38 345 274
0.033825304 0.74199998 -0.044233091 1.6916746e-38 346 274
0.03512628 0.74199998 -0.044233091 1.6916746e-38 347 274
0.036427252 0.74199998 -0.044233091 1.7099698e-38 348 274
0.037677377 0.741 -0.044173479 1.7099698e-38 349 274
0.038976599 0.741 -0.044173479 1.7007145e-38 350 274
0.040167112 0.73900002 -0.044054255 1.6914592e-38 351 274
0.041462827 0.73900002 -0.044054255 1.6823474e-38 352 274
0.043394998 0.75 -0.044709999 1.6823474e-38 353 274
0.044709999 0.75 -0.044709999 1.700858e-38 354 274
0.046454567 0.75700003 -0.045127295 1.7284804e-38 355 274
0.058228195 0.73799998 -0.043994635 1.7468833e-38 365 274
0.059522156 0.73799998 -0.043994635 1.7194403e-38 366 274
0.060816113 0.73799998 -0.043994635 1.7194403e-38 367 274
0.062110078 0.73799998 -0.043994635 1.7009297e-38 368 274
0.063661776 0.741 -0.044173479 1.6824909e-38 369 274
0.064960994 0.741 -0.044173479 1.6823832e-38 370 274
0.066081382 0.73900002 -0.044054255 1.6731638e-38 371 274
0.06737709 0.73900002 -0.044054255 1.6914592e-38 372 274
0.068672806 0.73900002 -0.044054255 1.6822397e-38 373 274
0.070157878 0.741 -0.044173479 1.6638009e-38 374 274
0.071553528 0.74199998 -0.044233091 1.6545815e-38 375 274
0.072854504 0.74199998 -0.044233091 1.6453621e-38 376 274
0.074155472 0.74199998 -0.044233091 1.6453621e-38 377 274
0.075659841 0.74400002 -0.044352323 1.6361426e-38 378 274
0.076964319 0.74400002 -0.044352323 1.6361426e-38 379 274
0.078479193 0.74599999 -0.044471547 1.6086279e-38 380 274
0.079787187 0.74599999 -0.044471547 1.5994084e-38 381 274
0.081203878 0.74699998 -0.044531155 1.5718578e-38 382 274
0.08273454 0.74900001 -0.044650383 1.5810772e-38 383 274
0.08416 0.75 -0.044709999 1.5628177e-38 384 274
0.085702926 0.75199997 -0.044829223 1.590476e-38 385 274
0.087368593 0.755 -0.045008067 1.5354829e-38 386 274
0.08869236 0.755 -0.045008067 1.572397e-38 387 274
0.0025879198 0.73799998 -0.0452886 1.7399706e-38 322 275
0.0038818798 0.73799998 -0.0452886 1.6477389e-38 323 275
0.0051758396 0.73799998 -0.0452886 1.6563442e-38 324 275
0.0064697997 0.73799998 -0.0452886 1.5087953e-38 325 275
0.0077427197 0.736 -0.045165867 1.6094195e-38 326 275
0.0090331733 0.736 -0.045165867 1.6186392e-38 327 275
0.010351679 0.73799998 -0.0452886 1.6094915e-38 328 275
0.01166142 0.73900002 -0.045349967 1.5910882e-38 329 275
0.012957133 0.73900002 -0.045349967 1.5819037e-38 330 275
0.01429142 0.741 -0.045472696 1.5726841e-38 331 275
0.015611678 0.74199998 -0.045534063 1.5910151e-38 332 275
0.016912652 0.74199998 -0.045534063 1.5910151e-38 333 275
0.018213626 0.74199998 -0.045534063 1.5727192e-38 334 275
0.0195146 0.74199998 -0.045534063 1.5634996e-38 335 275
0.020815572 0.74199998 -0.045534063 1.5815794e-38 336 275
0.022116546 0.74199998 -0.045534063 1.5170435e-38 337 275
0.023480639 0.74400002 -0.0456568 1.535016e-38 338 275
0.024885058 0.74699998 -0.045840897 1.6087714e-38 339 275
0.026194798 0.74699998 -0.045840897 1.59098e-38 340 275
0.027283618 0.741 -0.045472696 1.6462974e-38 341 275
0.028582839 0.741 -0.045472696 1.6646647e-38 342 275
0.029882059 0.741 -0.045472696 1.6277863e-38 343 275
0.03118128 0.741 -0.045472696 1.6734151e-38 344 275
0.032480497 0.741 -0.045472696 1.655012e-38 345 275
0.033688545 0.73900002 -0.045349967 1.6823832e-38 346 275
0.034984261 0.73900002 -0.045349967 1.7100775e-38 347 275
0.036279973 0.73900002 -0.045349967 1.7191533e-38 348 275
0.037575684 0.73900002 -0.045349967 1.7284086e-38 349 275
0.038818799 0.73799998 -0.0452886 1.7375563e-38 350 275
0.040112756 0.73799998 -0.0452886 1.7375563e-38 351 275
0.041406717 0.73799998 -0.0452886 1.7375563e-38 352 275
0.042700678 0.73799998 -0.0452886 1.7467757e-38 353 275
0.043994635 0.73799998 -0.0452886 1.7560669e-38 354 275
0.0452886 0.73799998 -0.0452886 1.7745057e-38 355 275
0.046456318 0.736 -0.045165867 1.7562821e-38 356 275
0.047746774 0.736 -0.045165867 1.7562821e-38 357 275
0.049037226 0.736 -0.045165867 1.7561745e-38 358 275
0.050327681 0.736 -0.045165867 1.7745775e-38 359 275
0.051758397 0.73799998 -0.0452886 1.7378074e-38 360 275
0.053052358 0.73799998 -0.0452886 1.728588e-38 361 275
0.054346316 0.73799998 -0.0452886 1.7285162e-38 362 275
0.055640277 0.73799998 -0.0452886 1.7285162e-38 363 275
0.057165679 0.741 -0.045472696 1.7284445e-38 364 275
0.058228195 0.73799998 -0.0452886 1.7192251e-38 365 275
0.059522156 0.73799998 -0.0452886 1.7191892e-38 366 275
0.060816113 0.73799998 -0.0452886 1.7007503e-38 367 275
0.062110078 0.73799998 -0.0452886 1.7006427e-38 368 275
0.063489959 0.73900002 -0.045349967 1.6914233e-38 369 275
0.064960994 0.741 -0.045472696 1.6731279e-38 370 275
0.066260219 0.741 -0.045472696 1.6731279e-38 371 275
0.06737709 0.73900002 -0.045349967 1.6546174e-38 372 275
0.068672806 0.73900002 -0.045349967 1.6453979e-38 373 275
0.070157878 0.741 -0.045472696 1.626995e-38 374 275
0.071457103 0.741 -0.045472696 1.626995e-38 375 275
0.072756313 0.741 -0.045472696 1.5995161e-38 376 275
0.074155472 0.74199998 -0.045534063 1.5995161e-38 377 275
0.075456448 0.74199998 -0.045534063 1.5902966e-38 378 275
0.076964319 0.74400002 -0.0456568 1.5902966e-38 379 275
0.078479193 0.74599999 -0.045779534 1.581149e-38 380 275
0.079894133 0.74699998 -0.045840897 1.581149e-38 381 275
0.081421293 0.74900001 -0.045963634 1.5720372e-38 382 275
0.082844995 0.75 -0.046024997 1.5812566e-38 383 275
0.084384419 0.75199997 -0.04614773 1.5538135e-38 384 275
0.0012869467 0.73400003 -0.046330083 1.582482e-38 321 276
0.0025703865 0.73299998 -0.046266954 1.6372226e-38 322 276
0.0038555798 0.73299998 -0.046266954 1.5911249e-38 323 276
0.005140773 0.73299998 -0.046266954 1.609455e-38 324 276
0.006434733 0.73400003 -0.046330083 1.6186747e-38 325 276
0.0077216802 0.73400003 -0.046330083 1.6095271e-38 326 276
0.0090331733 0.736 -0.046456318 1.5910879e-38 327 276
0.010323626 0.736 -0.046456318 1.5911956e-38 328 276
0.01166142 0.73900002 -0.046645679 1.5819759e-38 329 276
0.012957133 0.73900002 -0.046645679 1.5911233e-38 330 276
0.014252847 0.73900002 -0.046645679 1.5819037e-38 331 276
0.01559064 0.741 -0.046771921 1.5817955e-38 332 276
0.016889861 0.741 -0.046771921 1.5910151e-38 333 276
0.018189078 0.741 -0.046771921 1.5818308e-38 334 276
0.019488299 0.741 -0.046771921 1.5542082e-38 335 276
0.020787518 0.741 -0.046771921 1.5629612e-38 336 276
0.02208674 0.741 -0.046771921 1.4984253e-38 337 276
0.023385961 0.741 -0.046771921 1.5537418e-38 338 276
0.024685178 0.741 -0.046771921 1.6274977e-38 339 276
0.025984399 0.741 -0.046771921 1.6464404e-38 340 276
0.027209979 0.73900002 -0.046645679 1.5726839e-38 341 276
0.028505694 0.73900002 -0.046645679 1.6643753e-38 342 276
0.029801406 0.73900002 -0.046645679 1.6367526e-38 343 276
0.031055039 0.73799998 -0.046582557 1.6916744e-38 344 276
0.032261331 0.736 -0.046456318 1.7101133e-38 345 276
0.033551786 0.736 -0.046456318 1.7010373e-38 346 276
0.034936916 0.73799998 -0.046582557 1.7286956e-38 347 276
0.036230877 0.73799998 -0.046582557 1.7287315e-38 348 276
0.037524838 0.73799998 -0.046582557 1.7287315e-38 349 276
0.038818799 0.73799998 -0.046582557 1.7377715e-38 350 276
0.040004052 0.736 -0.046456318 1.7377715e-38 351 276
0.041294504 0.736 -0.046456318 1.7468475e-38 352 276
0.042584959 0.736 -0.046456318 1.7468475e-38 353 276
0.043875411 0.736 -0.046456318 1.7559951e-38 354 276
0.045165867 0.736 -0.046456318 1.7652504e-38 355 276
0.046456318 0.736 -0.046456318 1.7653222e-38 356 276
0.047746774 0.736 -0.046456318 1.7561028e-38 357 276
0.049037226 0.736 -0.046456318 1.7468475e-38 358 276
0.050327681 0.736 -0.046456318 1.7284445e-38 359 276
0.051618133 0.736 -0.046456318 1.7284445e-38 360 276
0.052908584 0.736 -0.046456318 1.7192251e-38 361 276
0.05419904 0.736 -0.046456318 1.7192251e-38 362 276
0.055640277 0.73799998 -0.046582557 1.7192251e-38 363 276
0.056934237 0.73799998 -0.046582557 1.728301e-38 364 276
0.0583071 0.73900002 -0.046645679 1.728301e-38 365 276
0.059522156 0.73799998 -0.046582557 1.7007145e-38 366 276
0.060816113 0.73799998 -0.046582557 1.691495e-38 367 276
0.062110078 0.73799998 -0.046582557 1.6638368e-38 368 276
0.063489959 0.73900002 -0.046645679 1.6638368e-38 369 276
0.064960994 0.741 -0.046771921 1.6546891e-38 370 276
0.066260219 0.741 -0.046771921 1.6454338e-38 371 276
0.06737709 0.73900002 -0.046645679 1.6361068e-38 372 276
0.068672806 0.73900002 -0.046645679 1.6361068e-38 373 276
0.070157878 0.741 -0.046771921 1.6086279e-38 374 276
0.071457103 0.741 -0.046771921 1.6178473e-38 375 276
0.072756313 0.741 -0.046771921 1.5995161e-38 376 276
0.074155472 0.74199998 -0.046835039 1.5995161e-38 377 276
0.075456448 0.74199998 -0.046835039 1.5903325e-38 378 276
0.076964319 0.74400002 -0.046961278 1.5903325e-38 379 276
0.078479193 0.74599999 -0.047087517 1.5812566e-38 380 276
0.079894133 0.74699998 -0.047150634 1.5812566e-38 381 276
0.081421293 0.74900001 -0.047276881 1.5629971e-38 382 276
0.082844995 0.75 -0.047339998 1.5906195e-38 383 276
0.0012816866 0.73100001 -0.047422405 1.6279677e-38 321 277
0.0025633732 0.73100001 -0.047422405 1.6278237e-38 322 277
0.00384506 0.73100001 -0.047422405 1.6186041e-38 323 277
0.005140773 0.73299998 -0.04755215 1.6094562e-38 324 277
0.0064259665 0.73299998 -0.04755215 1.6094562e-38 325 277
0.0077111595 0.73299998 -0.04755215 1.5910879e-38 326 277
0.0090086265 0.73400003 -0.047617026 1.6095271e-38 327 277
0.010295574 0.73400003 -0.047617026 1.5636797e-38 328 277
0.01161408 0.736 -0.047746774 1.5728992e-38 329 277
0.012904533 0.736 -0.047746774 1.5727913e-38 330 277
0.014194986 0.736 -0.047746774 1.5727913e-38 331 277
0.015527519 0.73799998 -0.047876518 1.60027e-38 332 277
0.016821479 0.73799998 -0.047876518 1.5910504e-38 333 277
0.018115439 0.73799998 -0.047876518 1.5816871e-38 334 277
0.019409399 0.73799998 -0.047876518 1.5171511e-38 335 277
0.020703359 0.73799998 -0.047876518 1.5535624e-38 336 277
0.021997318 0.73799998 -0.047876518 1.6180984e-38 337 277
0.023291279 0.73799998 -0.047876518 1.6367526e-38 338 277
0.024585238 0.73799998 -0.047876518 1.6367526e-38 339 277
0.025809066 0.736 -0.047746774 1.6828497e-38 340 277
0.02709952 0.736 -0.047746774 1.6367884e-38 341 277
0.028389972 0.736 -0.047746774 1.7010732e-38 342 277
0.029680425 0.736 -0.047746774 1.7287315e-38 343 277
0.030970879 0.736 -0.047746774 1.7289467e-38 344 277
0.032173667 0.73400003 -0.047617026 1.7381661e-38 345 277
0.033460613 0.73400003 -0.047617026 1.7474214e-38 346 277
0.034842238 0.736 -0.047746774 1.7381661e-38 347 277
0.036132693 0.736 -0.047746774 1.7472062e-38 348 277
0.037423145 0.736 -0.047746774 1.7195479e-38 349 277
0.038713597 0.736 -0.047746774 1.728588e-38 350 277
0.040004052 0.736 -0.047746774 1.728588e-38 351 277
0.041294504 0.736 -0.047746774 1.7285162e-38 352 277
0.042584959 0.736 -0.047746774 1.7192609e-38 353 277
0.043875411 0.736 -0.047746774 1.7467757e-38 354 277
0.045165867 0.736 -0.047746774 1.7559951e-38 355 277
0.046330083 0.73400003 -0.047617026 1.7284445e-38 356 277
0.047617026 0.73400003 -0.047617026 1.7284445e-38 357 277
0.049037226 0.736 -0.047746774 1.7100415e-38 358 277
0.050327681 0.736 -0.047746774 1.7100415e-38 359 277
0.051618133 0.736 -0.047746774 1.7099698e-38 360 277
0.052908584 0.736 -0.047746774 1.7007503e-38 361 277
0.05419904 0.736 -0.047746774 1.691495e-38 362 277
0.055640277 0.73799998 -0.047876518 1.7007145e-38 363 277
0.056934237 0.73799998 -0.047876518 1.691495e-38 364 277
0.0583071 0.73900002 -0.047941394 1.691495e-38 365 277
0.059522156 0.73799998 -0.047876518 1.645649e-38 366 277
0.060816113 0.73799998 -0.047876518 1.6364296e-38 367 277
0.062194239 0.73900002 -0.047941394 1.636322e-38 368 277
0.063661776 0.741 -0.048071139 1.6271026e-38 369 277
0.064960994 0.741 -0.048071139 1.626995e-38 370 277
0.066260219 0.741 -0.048071139 1.6177755e-38 371 277
0.067559443 0.741 -0.048071139 1.5902966e-38 372 277
0.068858653 0.741 -0.048071139 1.5902966e-38 373 277
0.070157878 0.741 -0.048071139 1.5902966e-38 374 277
0.071553528 0.74199998 -0.048136011 1.5995161e-38 375 277
0.072854504 0.74199998 -0.048136011 1.5721089e-38 376 277
0.074155472 0.74199998 -0.048136011 1.5721089e-38 377 277
0.075659841 0.74400002 -0.048265759 1.572073e-38 378 277
0.077171214 0.74599999 -0.048395503 1.5812924e-38 379 277
0.078479193 0.74599999 -0.048395503 1.5629971e-38 380 277
0.079894133 0.74699998 -0.048460379 1.5722525e-38 381 277
0 0.73000002 -0.048637468 1.6002747e-38 320 278
0.0012799334 0.73000002 -0.048637468 1.6002747e-38 321 278
0.0025598668 0.73000002 -0.048637468 1.6003095e-38 322 278
0.00384506 0.73100001 -0.048704091 1.6003095e-38 323 278
0.0051267464 0.73100001 -0.048704091 1.6186394e-38 324 278
0.006408433 0.73100001 -0.048704091 1.6094197e-38 325 278
0.00769012 0.73100001 -0.048704091 1.6002349e-38 326 278
0.0089963535 0.73299998 -0.048837345 1.6094545e-38 327 278
0.010281546 0.73299998 -0.048837345 1.5911583e-38 328 278
0.011566739 0.73299998 -0.048837345 1.5911583e-38 329 278
0.012869466 0.73400003 -0.048903972 1.5819743e-38 330 278
0.014156413 0.73400003 -0.048903972 1.5819743e-38 331 278
0.01544336 0.73400003 -0.048903972 1.6185652e-38 332 278
0.016775893 0.736 -0.049037226 1.5816871e-38 333 278
0.018066347 0.736 -0.049037226 1.5722165e-38 334 278
0.019356798 0.736 -0.049037226 1.5353388e-38 335 278
0.020647252 0.736 -0.049037226 1.5813642e-38 336 278
0.021937706 0.736 -0.049037226 1.6459002e-38 337 278
0.023228159 0.736 -0.049037226 1.6827061e-38 338 278
0.024518613 0.736 -0.049037226 1.6550837e-38 339 278
0.025809066 0.736 -0.049037226 1.6734508e-38 340 278
0.02702588 0.73400003 -0.048903972 1.6826702e-38 341 278
0.028312827 0.73400003 -0.048903972 1.719512e-38 342 278
0.029680425 0.736 -0.049037226 1.7472062e-38 343 278
0.030970879 0.736 -0.049037226 1.7381661e-38 344 278
0.032173667 0.73400003 -0.048903972 1.7474214e-38 345 278
0.033460613 0.73400003 -0.048903972 1.7564615e-38 346 278
0.034842238 0.736 -0.049037226 1.7287673e-38 347 278
0.036132693 0.736 -0.049037226 1.7378074e-38 348 278
0.037423145 0.736 -0.049037226 1.7101491e-38 349 278
0.038713597 0.736 -0.049037226 1.7010015e-38 350 278
0.040004052 0.736 -0.049037226 1.691782e-38 351 278
0.041294504 0.736 -0.049037226 1.7192609e-38 352 278
0.042584959 0.736 -0.049037226 1.7100415e-38 353 278
0.043875411 0.736 -0.049037226 1.7100415e-38 354 278
0.045165867 0.736 -0.049037226 1.7100415e-38 355 278
0.046330083 0.73400003 -0.048903972 1.6916744e-38 356 278
0.047617026 0.73400003 -0.048903972 1.682455e-38 357 278
0.049037226 0.736 -0.049037226 1.6824191e-38 358 278
0.050327681 0.736 -0.049037226 1.6731997e-38 359 278
0.051618133 0.736 -0.049037226 1.6639803e-38 360 278
0.052908584 0.736 -0.049037226 1.6731997e-38 361 278
0.05419904 0.736 -0.049037226 1.6639444e-38 362 278
0.055640277 0.73799998 -0.049170475 1.6639444e-38 363 278
0.056934237 0.73799998 -0.049170475 1.6455414e-38 364 278
0.0583071 0.73900002 -0.049237106 1.636322e-38 365 278
0.059522156 0.73799998 -0.049170475 1.6271743e-38 366 278
0.060816113 0.73799998 -0.049170475 1.6271743e-38 367 278
0.062194239 0.73900002 -0.049237106 1.5995878e-38 368 278
0.063661776 0.741 -0.049370356 1.5903684e-38 369 278
0.065048665 0.74199998 -0.049436983 1.5995161e-38 370 278
0.066260219 0.741 -0.049370356 1.5902966e-38 371 278
0.067559443 0.741 -0.049370356 1.5904043e-38 372 278
0.068951584 0.74199998 -0.049436983 1.5996237e-38 373 278
0.07025256 0.74199998 -0.049436983 1.572073e-38 374 278
0.071553528 0.74199998 -0.049436983 1.5812924e-38 375 278
0.072854504 0.74199998 -0.049436983 1.5629971e-38 376 278
0.074355356 0.74400002 -0.04957024 1.5629971e-38 377 278
0.075659841 0.74400002 -0.04957024 1.553957e-38 378 278
-0.0051197335 0.73000002 -0.0499174 1.6002349e-38 316 279
-0.0038397999 0.73000002 -0.0499174 1.5817958e-38 317 279
-0.0025598668 0.73000002 -0.0499174 1.5909082e-38 318 279
-0.0012799334 0.73000002 -0.0499174 1.6093832e-38 319 279
0 0.73000002 -0.0499174 1.5909803e-38 320 279
0.0012799334 0.73000002 -0.0499174 1.6094195e-38 321 279
0.0025598668 0.73000002 -0.0499174 1.6094915e-38 322 279
0.0038397999 0.73000002 -0.0499174 1.618711e-38 323 279
0.0051197335 0.73000002 -0.0499174 1.6186747e-38 324 279
0.0063996664 0.73000002 -0.0499174 1.6186747e-38 325 279
0.0076795998 0.73000002 -0.0499174 1.6278213e-38 326 279
0.0089718066 0.73100001 -0.049985781 1.6370409e-38 327 279
0.010253493 0.73100001 -0.049985781 1.609597e-38 328 279
0.01153518 0.73100001 -0.049985781 1.6188167e-38 329 279
0.012851933 0.73299998 -0.050122537 1.6188164e-38 330 279
0.014137126 0.73299998 -0.050122537 1.581974e-38 331 279
0.015422319 0.73299998 -0.050122537 1.6000542e-38 332 279
0.016730307 0.73400003 -0.050190922 1.5262629e-38 333 279
0.018017253 0.73400003 -0.050190922 1.5994443e-38 334 279
0.019304199 0.73400003 -0.050190922 1.6731997e-38 335 279
0.020591147 0.73400003 -0.050190922 1.6553348e-38 336 279
0.021878093 0.73400003 -0.050190922 1.6368601e-38 337 279
0.023165042 0.73400003 -0.050190922 1.7011808e-38 338 279
0.024451986 0.73400003 -0.050190922 1.6919255e-38 339 279
0.025738932 0.73400003 -0.050190922 1.7102209e-38 340 279
0.02702588 0.73400003 -0.050190922 1.7102209e-38 341 279
0.028312827 0.73400003 -0.050190922 1.7377715e-38 342 279
0.029680425 0.736 -0.050327681 1.7469909e-38 343 279
0.030970879 0.736 -0.050327681 1.7377357e-38 344 279
0.032173667 0.73400003 -0.050190922 1.7377357e-38 345 279
0.033460613 0.73400003 -0.050190922 1.7010015e-38 346 279
0.034842238 0.736 -0.050327681 1.691782e-38 347 279
0.036132693 0.736 -0.050327681 1.7100415e-38 348 279
0.037423145 0.736 -0.050327681 1.6916385e-38 349 279
0.038713597 0.736 -0.050327681 1.6824909e-38 350 279
0.040004052 0.736 -0.050327681 1.6732356e-38 351 279
0.041294504 0.736 -0.050327681 1.6823832e-38 352 279
0.042584959 0.736 -0.050327681 1.6823832e-38 353 279
0.043875411 0.736 -0.050327681 1.6823832e-38 354 279
0.045165867 0.736 -0.050327681 1.6823832e-38 355 279
0.046456318 0.736 -0.050327681 1.691495e-38 356 279
0.047746774 0.736 -0.050327681 1.6822756e-38 357 279
0.049037226 0.736 -0.050327681 1.6639085e-38 358 279
0.050327681 0.736 -0.050327681 1.6639085e-38 359 279
0.051618133 0.736 -0.050327681 1.6454338e-38 360 279
0.052908584 0.736 -0.050327681 1.6638726e-38 361 279
0.05419904 0.736 -0.050327681 1.6270667e-38 362 279
0.055640277 0.73799998 -0.050464436 1.6270667e-38 363 279
0.056934237 0.73799998 -0.050464436 1.6270667e-38 364 279
0.0583071 0.73900002 -0.050532822 1.6178473e-38 365 279
0.059522156 0.73799998 -0.050464436 1.6088072e-38 366 279
0.060816113 0.73799998 -0.050464436 1.6088072e-38 367 279
0.062194239 0.73900002 -0.050532822 1.590476e-38 368 279
0.063661776 0.741 -0.050669577 1.5812207e-38 369 279
0.065048665 0.74199998 -0.050737958 1.5903325e-38 370 279
0.066349633 0.74199998 -0.050737958 1.5995878e-38 371 279
0.067650609 0.74199998 -0.050737958 1.5720013e-38 372 279
0.068951584 0.74199998 -0.050737958 1.590476e-38 373 279
0.07025256 0.74199998 -0.050737958 1.5629254e-38 374 279
-0.0076585598 0.72799999 -0.051057063 1.6094182e-38 314 280
-0.0063821329 0.72799999 -0.051057063 1.5909432e-38 315 280
-0.0051057064 0.72799999 -0.051057063 1.60931e-38 316 280
-0.0038292799 0.72799999 -0.051057063 1.6000904e-38 317 280
-0.0025528532 0.72799999 -0.051057063 1.6092381e-38 318 280
-0.0012764266 0.72799999 -0.051057063 1.6184577e-38 319 280
0 0.72799999 -0.051057063 1.6277497e-38 320 280
