# .PCD v.7 - Point Cloud Data file format
FIELDS x y z rgb imX imY
SIZE 4 4 4 4 4 4
TYPE F F F F F F
COUNT 1 1 1 1 1 1
WIDTH 850
HEIGHT 1
VIEWPOINT 0 0 0 1 0 0 0
POINTS 850
DATA ascii
0.045651536 0.78899997 -0.024900839 7.1225016e-39 353 258
0.0124662 0.79000002 -0.026317533 2.7731318e-39 329 259
0.013851333 0.79000002 -0.026317533 2.6820348e-39 330 259
0.015236467 0.79000002 -0.026317533 2.9586217e-39 331 259
0.016621601 0.79000002 -0.026317533 3.1401361e-39 332 259
0.018052319 0.792 -0.02638416 2.8639079e-39 333 259
0.019490054 0.79400003 -0.026450787 3.139769e-39 334 259
0.0209348 0.796 -0.026517414 3.0475733e-39 335 259
0.022386558 0.79799998 -0.026584039 3.6897029e-39 336 259
0.02378572 0.79799998 -0.026584039 3.3209204e-39 337 259
0.025184877 0.79799998 -0.026584039 3.2305198e-39 338 259
0.026650665 0.80000001 -0.026650665 3.691498e-39 339 259
0.028053332 0.80000001 -0.026650665 3.9662842e-39 340 259
0.029456001 0.80000001 -0.026650665 3.9662842e-39 341 259
0.030858666 0.80000001 -0.026650665 3.7826244e-39 342 259
0.032261331 0.80000001 -0.026650665 3.7826244e-39 343 259
0.033663999 0.80000001 -0.026650665 3.324177e-39 344 259
0.034978997 0.79799998 -0.026584039 3.324177e-39 345 259
0.036286984 0.796 -0.026517414 2.5902245e-39 346 259
0.037587963 0.79400003 -0.026450787 2.5902245e-39 347 259
0.03888192 0.792 -0.02638416 2.4998324e-39 348 259
0.040270559 0.792 -0.02638416 2.8682562e-39 349 259
0.041501399 0.78899997 -0.026284218 3.0547998e-39 350 259
0.042884778 0.78899997 -0.026284218 3.1473542e-39 351 259
0.044268157 0.78899997 -0.026284218 5.7770631e-40 352 259
0.011081067 0.79000002 -0.027702667 2.2246468e-39 328 260
0.0124662 0.79000002 -0.027702667 1.9484186e-39 329 260
0.013851333 0.79000002 -0.027702667 3.2326877e-39 330 260
0.01527504 0.792 -0.027772799 2.7717095e-39 331 260
0.01666368 0.792 -0.027772799 1.9437467e-39 332 260
0.018052319 0.792 -0.027772799 1.9437467e-39 333 260
0.019539146 0.796 -0.027913066 2.7727787e-39 334 260
0.0209348 0.796 -0.027913066 3.7872908e-39 335 260
0.022386558 0.79799998 -0.027983198 5.3499249e-39 336 260
0.02378572 0.79799998 -0.027983198 5.8109017e-39 337 260
0.025184877 0.79799998 -0.027983198 5.903449e-39 338 260
0.036378156 0.79799998 -0.027983198 2.4990827e-39 346 260
0.037682641 0.796 -0.027913066 2.4990827e-39 347 260
0.038980108 0.79400003 -0.027842935 2.4987352e-39 348 260
0.040270559 0.792 -0.027772799 2.7753221e-39 349 260
0.041554 0.79000002 -0.027702667 3.2380995e-39 350 260
0.04293913 0.79000002 -0.027702667 3.7912718e-39 351 260
0.044324268 0.79000002 -0.027702667 2.5041049e-39 352 260
0.011081067 0.79000002 -0.029087799 3.418881e-39 328 261
0.0124662 0.79000002 -0.029087799 3.326684e-39 329 261
0.0138864 0.792 -0.029161438 3.7847726e-39 330 261
0.01527504 0.792 -0.029161438 4.1531964e-39 331 261
0.01666368 0.792 -0.029161438 4.6138046e-39 332 261
0.018097907 0.79400003 -0.029235078 5.0747828e-39 333 261
0.019539146 0.796 -0.029308718 7.0069225e-39 334 261
0.0209348 0.796 -0.029308718 7.4682594e-39 335 261
0.040372252 0.79400003 -0.029235078 3.4195971e-39 349 261
0.041764401 0.79400003 -0.029235078 3.2384554e-39 350 261
0.011109119 0.792 -0.030550079 4.153202e-39 328 262
0.012497759 0.792 -0.030550079 4.0606477e-39 329 262
0.0079846792 0.759 -0.034600276 4.8036063e-39 326 266
0.00931546 0.759 -0.034600276 4.7114107e-39 327 266
0.036404461 0.76899999 -0.035056144 2.4983666e-39 347 266
0.03775277 0.76899999 -0.035056144 2.313618e-39 348 266
0.039101087 0.76899999 -0.035056144 2.313618e-39 349 266
0.041145474 0.75700003 -0.034509107 3.0504446e-39 351 266
0.042472746 0.75700003 -0.034509107 4.1528012e-39 352 266
0.058708608 0.76099998 -0.034691449 8.2969257e-39 364 266
0.060042895 0.76099998 -0.034691449 7.190218e-39 365 266
0.061457843 0.76200002 -0.034737039 5.3499277e-39 366 266
0.062793881 0.76200002 -0.034737039 4.5198083e-39 367 266
0.064129919 0.76200002 -0.034737039 3.1394158e-39 368 266
0.067152664 0.76599997 -0.034919381 2.2207063e-39 370 266
0.068495713 0.76599997 -0.034919381 2.2207063e-39 371 266
0.069838762 0.76599997 -0.034919381 1.9455642e-39 372 266
0.071181826 0.76599997 -0.034919381 2.1299554e-39 373 266
0.0066538998 0.759 -0.035931058 5.0790988e-39 325 267
0.0079846792 0.759 -0.035931058 5.0776793e-39 326 267
0.00931546 0.759 -0.035931058 5.0776793e-39 327 267
0.010618187 0.75700003 -0.03583638 4.8010882e-39 328 267
0.01194546 0.75700003 -0.03583638 4.7085338e-39 329 267
0.034964975 0.76700002 -0.036309779 2.9543057e-39 346 267
0.036262438 0.76599997 -0.036262438 2.9543057e-39 347 267
0.037605491 0.76599997 -0.036262438 2.679867e-39 348 267
0.039101087 0.76899999 -0.036404461 2.7720626e-39 349 267
0.039818201 0.75700003 -0.03583638 3.4159845e-39 350 267
0.041145474 0.75700003 -0.03583638 4.0613539e-39 351 267
0.042472746 0.75700003 -0.03583638 5.7176158e-39 352 267
0.043800019 0.75700003 -0.03583638 8.9444629e-39 353 267
0.050569639 0.759 -0.035931058 7.2820479e-39 358 267
0.051900417 0.759 -0.035931058 5.8069178e-39 359 267
0.053231198 0.759 -0.035931058 3.6914798e-39 360 267
0.054561976 0.759 -0.035931058 3.4145328e-39 361 267
0.055892758 0.759 -0.035931058 1.9473368e-39 362 267
0.057374325 0.76099998 -0.036025736 1.7633057e-39 363 267
0.058708608 0.76099998 -0.036025736 1.7633155e-39 364 267
0.060042895 0.76099998 -0.036025736 1.8558699e-39 365 267
0.061457843 0.76200002 -0.036073081 2.2225028e-39 366 267
0.062793881 0.76200002 -0.036073081 2.2225028e-39 367 267
0.064129919 0.76200002 -0.036073081 2.4969359e-39 368 267
0.06563779 0.764 -0.036167759 2.3129048e-39 369 267
0.067152664 0.76599997 -0.036262438 3.2309122e-39 370 267
0.068495713 0.76599997 -0.036262438 3.1387166e-39 371 267
0.069838762 0.76599997 -0.036262438 2.9550484e-39 372 267
0.071181826 0.76599997 -0.036262438 2.9550484e-39 373 267
0.072335519 0.764 -0.036167759 3.3238295e-39 374 267
0.073675066 0.764 -0.036167759 3.4160251e-39 375 267
0.075210981 0.76599997 -0.036262438 3.416744e-39 376 267
0.076554038 0.76599997 -0.036262438 3.416744e-39 377 267
0.077897087 0.76599997 -0.036262438 2.5923769e-39 378 267
0.079033248 0.764 -0.036167759 2.9611581e-39 379 267
0.080372795 0.764 -0.036167759 3.8791543e-39 380 267
0.0039712996 0.755 -0.037065465 9.6784126e-39 323 268
0.0053231199 0.759 -0.03726184 5.2634956e-39 324 268
0.0066538998 0.759 -0.03726184 5.1709413e-39 325 268
0.0079636406 0.75700003 -0.037163652 4.9851277e-39 326 268
0.0092909131 0.75700003 -0.037163652 4.800735e-39 327 268
0.010590133 0.755 -0.037065465 4.5259432e-39 328 268
0.011866559 0.75199997 -0.036918186 4.5259432e-39 329 268
0.013185065 0.75199997 -0.036918186 4.6174172e-39 330 268
0.014503572 0.75199997 -0.036918186 4.7099729e-39 331 268
0.015822079 0.75199997 -0.036918186 4.8010854e-39 332 268
0.017186172 0.75400001 -0.037016369 4.8010854e-39 333 268
0.018508185 0.75400001 -0.037016369 5.1684273e-39 334 268
0.019830201 0.75400001 -0.037016369 5.1684273e-39 335 268
0.021152213 0.75400001 -0.037016369 5.1662721e-39 336 268
0.022474226 0.75400001 -0.037016369 4.9818809e-39 337 268
0.023827799 0.755 -0.037065465 4.154644e-39 338 268
0.025151566 0.755 -0.037065465 3.8780571e-39 339 268
0.034828212 0.764 -0.037507307 2.3114572e-39 346 268
0.036073081 0.76200002 -0.037409119 2.4036529e-39 347 268
0.037163652 0.75700003 -0.037163652 2.8642583e-39 348 268
0.038490929 0.75700003 -0.037163652 3.1404864e-39 349 268
0.039818201 0.75700003 -0.037163652 3.6932931e-39 350 268
0.041145474 0.75700003 -0.037163652 4.1542712e-39 351 268
0.042472746 0.75700003 -0.037163652 5.259174e-39 352 268
0.043800019 0.75700003 -0.037163652 6.3655216e-39 353 268
0.045127295 0.75700003 -0.037163652 7.1938347e-39 354 268
0.046454567 0.75700003 -0.037163652 6.9176066e-39 355 268
0.04778184 0.75700003 -0.037163652 6.7321405e-39 356 268
0.049109112 0.75700003 -0.037163652 5.7176284e-39 357 268
0.050569639 0.759 -0.03726184 4.430142e-39 358 268
0.051900417 0.759 -0.03726184 4.0610008e-39 359 268
0.053231198 0.759 -0.03726184 3.2341324e-39 360 268
0.054561976 0.759 -0.03726184 3.2341324e-39 361 268
0.055892758 0.759 -0.03726184 2.8667946e-39 362 268
0.057374325 0.76099998 -0.037360024 2.774599e-39 363 268
0.058708608 0.76099998 -0.037360024 2.7742431e-39 364 268
0.060121801 0.76200002 -0.037409119 2.4980163e-39 365 268
0.061457843 0.76200002 -0.037409119 2.1306757e-39 366 268
0.062793881 0.76200002 -0.037409119 1.9462831e-39 367 268
0.064129919 0.76200002 -0.037409119 1.9444894e-39 368 268
0.06563779 0.764 -0.037507307 1.9444894e-39 369 268
0.067152664 0.76599997 -0.037605491 1.5771516e-39 370 268
0.068495713 0.76599997 -0.037605491 1.5771516e-39 371 268
0.069838762 0.76599997 -0.037605491 1.66935e-39 372 268
0.071181826 0.76599997 -0.037605491 1.7615457e-39 373 268
0.072335519 0.764 -0.037507307 1.7622645e-39 374 268
0.073675066 0.764 -0.037507307 1.9466572e-39 375 268
0.075210981 0.76599997 -0.037605491 1.9473761e-39 376 268
0.076554038 0.76599997 -0.037605491 2.0395717e-39 377 268
0.077897087 0.76599997 -0.037605491 2.1321233e-39 378 268
0.079033248 0.764 -0.037507307 2.40835e-39 379 268
0.080372795 0.764 -0.037507307 2.3175907e-39 380 268
0.081498444 0.76200002 -0.037409119 2.6860131e-39 381 268
0.082834482 0.76200002 -0.037409119 2.227909e-39 382 268
-0.00260896 0.74400002 -0.037829921 1.5849001e-38 318 269
-0.0013009732 0.74199998 -0.037728224 1.6125228e-38 319 269
0 0.74199998 -0.037728224 1.4836306e-38 320 269
0.0013009732 0.74199998 -0.037728224 1.3361536e-38 321 269
0.00260896 0.74400002 -0.037829921 8.3016116e-39 322 269
0.0039712996 0.755 -0.038389232 6.8264801e-39 323 269
0.0052950666 0.755 -0.038389232 4.7103359e-39 324 269
0.0066188332 0.755 -0.038389232 4.7103359e-39 325 269
0.0079425992 0.755 -0.038389232 4.6174228e-39 326 269
0.0092663663 0.755 -0.038389232 4.5248684e-39 327 269
0.010576107 0.75400001 -0.038338386 4.2497165e-39 328 269
0.011866559 0.75199997 -0.038236689 4.2497165e-39 329 269
0.013185065 0.75199997 -0.038236689 4.4330287e-39 330 269
0.014503572 0.75199997 -0.038236689 4.3408331e-39 331 269
0.015822079 0.75199997 -0.038236689 3.6969084e-39 332 269
0.017186172 0.75400001 -0.038338386 3.5125172e-39 333 269
0.018508185 0.75400001 -0.038338386 3.6965525e-39 334 269
0.019830201 0.75400001 -0.038338386 3.4199656e-39 335 269
0.021152213 0.75400001 -0.038338386 3.5114424e-39 336 269
0.022474226 0.75400001 -0.038338386 3.3270511e-39 337 269
0.023827799 0.755 -0.038389232 3.1423025e-39 338 269
0.025151566 0.755 -0.038389232 2.8660757e-39 339 269
0.026615599 0.759 -0.038592618 2.6798824e-39 340 269
0.027946379 0.759 -0.038592618 2.4032969e-39 341 269
0.029277159 0.759 -0.038592618 2.4947667e-39 342 269
0.030607941 0.759 -0.038592618 2.4947667e-39 343 269
0.031854562 0.75700003 -0.038490929 2.4944024e-39 344 269
0.033488665 0.764 -0.038846854 2.678795e-39 345 269
0.034828212 0.764 -0.038846854 2.679867e-39 346 269
0.035741698 0.755 -0.038389232 3.1404864e-39 347 269
0.037065465 0.755 -0.038389232 3.0497229e-39 348 269
0.038389232 0.755 -0.038389232 3.5106997e-39 349 269
0.039712999 0.755 -0.038389232 3.8784102e-39 350 269
0.041036766 0.755 -0.038389232 3.9706058e-39 351 269
0.042360533 0.755 -0.038389232 4.06317e-39 352 269
0.043684296 0.755 -0.038389232 4.06317e-39 353 269
0.045127295 0.75700003 -0.038490929 3.2341352e-39 354 269
0.04633183 0.755 -0.038389232 3.0493852e-39 355 269
0.047655597 0.755 -0.038389232 2.7735242e-39 356 269
0.049109112 0.75700003 -0.038490929 2.8657198e-39 357 269
0.050436385 0.75700003 -0.038490929 2.5909308e-39 358 269
0.051763661 0.75700003 -0.038490929 2.7753221e-39 359 269
0.053090934 0.75700003 -0.038490929 2.4072626e-39 360 269
0.054418206 0.75700003 -0.038490929 2.4072626e-39 361 269
0.055892758 0.759 -0.038592618 2.7742459e-39 362 269
0.057374325 0.76099998 -0.038694311 2.4980191e-39 363 269
0.058708608 0.76099998 -0.038694311 2.3136236e-39 364 269
0.060121801 0.76200002 -0.038745161 2.1288736e-39 365 269
0.061619148 0.764 -0.038846854 1.9448425e-39 366 269
0.062958695 0.764 -0.038846854 1.8526469e-39 367 269
0.064298242 0.764 -0.038846854 2.0363151e-39 368 269
0.065809615 0.76599997 -0.038948543 1.9437607e-39 369 269
0.067240335 0.76700002 -0.038999394 1.7604513e-39 370 269
0.068585135 0.76700002 -0.038999394 1.8526469e-39 371 269
0.06992995 0.76700002 -0.038999394 1.8526497e-39 372 269
0.07127475 0.76700002 -0.038999394 1.9448453e-39 373 269
0.072619557 0.76700002 -0.038999394 2.1285205e-39 374 269
0.073964365 0.76700002 -0.038999394 2.2210749e-39 375 269
0.075309172 0.76700002 -0.038999394 2.0381228e-39 376 269
0.07665398 0.76700002 -0.038999394 2.2228741e-39 377 269
0.077897087 0.76599997 -0.038948543 2.2228741e-39 378 269
0.079240143 0.76599997 -0.038948543 2.4072654e-39 379 269
0.080372795 0.764 -0.038846854 2.4079871e-39 380 269
0.081391476 0.76099998 -0.038694311 2.5923797e-39 381 269
0.082725771 0.76099998 -0.038694311 2.502698e-39 382 269
0.083618224 0.75700003 -0.038490929 3.0558718e-39 383 269
0.084945492 0.75700003 -0.038490929 1.7698021e-39 384 269
0.086272769 0.75700003 -0.038490929 1.4932152e-39 385 269
-0.0039029196 0.74199998 -0.0390292 1.5942269e-38 317 270
-0.0026019465 0.74199998 -0.0390292 1.538731e-38 318 270
-0.0013009732 0.74199998 -0.0390292 1.474194e-38 319 270
0 0.74199998 -0.0390292 1.1428683e-38 320 270
0.00130448 0.74400002 -0.039134398 9.6769664e-39 321 270
0.00260896 0.74400002 -0.039134398 5.7237465e-39 322 270
0.0039134403 0.74400002 -0.039134398 5.1709315e-39 323 270
0.0052880533 0.75400001 -0.039660402 4.709617e-39 324 270
0.0066100666 0.75400001 -0.039660402 4.5252243e-39 325 270
0.00793208 0.75400001 -0.039660402 4.3408331e-39 326 270
0.0092540924 0.75400001 -0.039660402 4.3408331e-39 327 270
0.010576107 0.75400001 -0.039660402 4.0649693e-39 328 270
0.011866559 0.75199997 -0.039555199 3.9727736e-39 329 270
0.013185065 0.75199997 -0.039555199 3.9724177e-39 330 270
0.014503572 0.75199997 -0.039555199 3.8802207e-39 331 270
0.015822079 0.75199997 -0.039555199 3.6961923e-39 332 270
0.017186172 0.75400001 -0.039660402 3.603638e-39 333 270
0.018508185 0.75400001 -0.039660402 3.4199656e-39 334 270
0.019830201 0.75400001 -0.039660402 3.1437388e-39 335 270
0.021152213 0.75400001 -0.039660402 2.9589874e-39 336 270
0.022474226 0.75400001 -0.039660402 2.4983694e-39 337 270
0.023827799 0.755 -0.039712999 2.3129048e-39 338 270
0.025151566 0.755 -0.039712999 2.0359592e-39 339 270
0.026615599 0.759 -0.0399234 2.1285107e-39 340 270
0.027946379 0.759 -0.0399234 2.0363151e-39 341 270
0.029277159 0.759 -0.0399234 1.945546e-39 342 270
0.030527288 0.75700003 -0.039818201 2.2217727e-39 343 270
0.031854562 0.75700003 -0.039818201 2.5901881e-39 344 270
0.033269498 0.759 -0.0399234 2.7745808e-39 345 270
0.034417931 0.755 -0.039712999 2.8678512e-39 346 270
0.035741698 0.755 -0.039712999 2.8678512e-39 347 270
0.037016369 0.75400001 -0.039660402 3.3277545e-39 348 270
0.038338386 0.75400001 -0.039660402 3.3277545e-39 349 270
0.039660402 0.75400001 -0.039660402 3.4188782e-39 350 270
0.040982414 0.75400001 -0.039660402 3.4188782e-39 351 270
0.042360533 0.755 -0.039712999 3.0515432e-39 352 270
0.043684296 0.755 -0.039712999 3.0515432e-39 353 270
0.045008067 0.755 -0.039712999 3.3259819e-39 354 270
0.04633183 0.755 -0.039712999 3.1412305e-39 355 270
0.047655597 0.755 -0.039712999 2.9579211e-39 356 270
0.049109112 0.75700003 -0.039818201 2.9579211e-39 357 270
0.050436385 0.75700003 -0.039818201 2.6827733e-39 358 270
0.051763661 0.75700003 -0.039818201 2.4061864e-39 359 270
0.053090934 0.75700003 -0.039818201 2.4061836e-39 360 270
0.054418206 0.75700003 -0.039818201 2.1299554e-39 361 270
0.055892758 0.759 -0.0399234 2.2210693e-39 362 270
0.057374325 0.76099998 -0.040028598 2.2210693e-39 363 270
0.058785759 0.76200002 -0.040081199 2.2207063e-39 364 270
0.060121801 0.76200002 -0.040081199 2.0363151e-39 365 270
0.061619148 0.764 -0.040186398 2.127789e-39 366 270
0.062958695 0.764 -0.040186398 2.0355934e-39 367 270
0.064298242 0.764 -0.040186398 1.9433964e-39 368 270
0.065809615 0.76599997 -0.040291596 1.7586464e-39 369 270
0.067240335 0.76700002 -0.040344197 1.4831385e-39 370 270
0.068585135 0.76700002 -0.040344197 1.5753341e-39 371 270
0.06992995 0.76700002 -0.040344197 1.4827854e-39 372 270
0.07127475 0.76700002 -0.040344197 1.3905897e-39 373 270
0.072619557 0.76700002 -0.040344197 1.482791e-39 374 270
0.073964365 0.76700002 -0.040344197 1.5749866e-39 375 270
0.075309172 0.76700002 -0.040344197 1.8512134e-39 376 270
0.07665398 0.76700002 -0.040344197 2.035606e-39 377 270
0.077998787 0.76700002 -0.040344197 2.0374039e-39 378 270
0.079240143 0.76599997 -0.040291596 2.2221553e-39 379 270
0.080372795 0.764 -0.040186398 2.2228741e-39 380 270
0.081391476 0.76099998 -0.040028598 2.4072654e-39 381 270
0.082725771 0.76099998 -0.040028598 2.5012561e-39 382 270
0.083618224 0.75700003 -0.039818201 3.0540697e-39 383 270
0.084721066 0.755 -0.039712999 3.3313699e-39 384 270
0.086044833 0.755 -0.039712999 2.5938049e-39 385 270
0.087368593 0.755 -0.039712999 5.5415034e-39 386 270
-0.0065048663 0.74199998 -0.040330172 1.6034461e-38 315 271
-0.0052038929 0.74199998 -0.040330172 1.5942985e-38 316 271
-0.0039029196 0.74199998 -0.040330172 1.5297615e-38 317 271
-0.0026019465 0.74199998 -0.040330172 1.3914705e-38 318 271
-0.0013009732 0.74199998 -0.040330172 1.2623966e-38 319 271
0 0.74199998 -0.040330172 8.0224996e-39 320 271
0.00130448 0.74400002 -0.040438879 6.455534e-39 321 271
0.00260896 0.74400002 -0.040438879 4.710689e-39 322 271
0.0039134403 0.74400002 -0.040438879 4.6184934e-39 323 271
0.0052389596 0.74699998 -0.040601939 4.2493605e-39 324 271
0.0065486995 0.74699998 -0.040601939 4.1571649e-39 325 271
0.00789 0.75 -0.040764999 3.9727736e-39 326 271
0.0092049995 0.75 -0.040764999 3.8802179e-39 327 271
0.01052 0.75 -0.040764999 3.8802179e-39 328 271
0.011835 0.75 -0.040764999 3.6961867e-39 329 271
0.013185065 0.75199997 -0.040873703 3.4214005e-39 330 271
0.014503572 0.75199997 -0.040873703 3.3288462e-39 331 271
0.015822079 0.75199997 -0.040873703 3.4199656e-39 332 271
0.017140586 0.75199997 -0.040873703 3.1437388e-39 333 271
0.018508185 0.75400001 -0.040982414 3.2348513e-39 334 271
0.0198565 0.755 -0.041036766 2.9586245e-39 335 271
0.021180267 0.755 -0.041036766 2.68096e-39 336 271
0.022504034 0.755 -0.041036766 2.4043717e-39 337 271
0.023827799 0.755 -0.041036766 2.5869623e-39 338 271
0.025151566 0.755 -0.041036766 2.6795167e-39 339 271
0.026615599 0.759 -0.041254178 2.957177e-39 340 271
0.027946379 0.759 -0.041254178 3.0493726e-39 341 271
0.029277159 0.759 -0.041254178 2.5919846e-39 342 271
0.030406307 0.75400001 -0.040982414 2.6841802e-39 343 271
0.03172832 0.75400001 -0.040982414 2.5941384e-39 344 271
0.033050332 0.75400001 -0.040982414 2.5941384e-39 345 271
0.034372345 0.75400001 -0.040982414 2.5937852e-39 346 271
0.035599679 0.75199997 -0.040873703 2.409394e-39 347 271
0.036918186 0.75199997 -0.040873703 2.6834768e-39 348 271
0.038236689 0.75199997 -0.040873703 2.6834768e-39 349 271
0.039660402 0.75400001 -0.040982414 2.5909308e-39 350 271
0.040982414 0.75400001 -0.040982414 2.5909308e-39 351 271
0.042304426 0.75400001 -0.040982414 2.3154229e-39 352 271
0.043684296 0.755 -0.041036766 2.3154229e-39 353 271
0.045008067 0.755 -0.041036766 2.2239461e-39 354 271
0.04633183 0.755 -0.041036766 2.0395563e-39 355 271
0.047655597 0.755 -0.041036766 2.1306757e-39 356 271
0.048979364 0.755 -0.041036766 2.2228713e-39 357 271
0.050436385 0.75700003 -0.041145474 2.1306757e-39 358 271
0.051763661 0.75700003 -0.041145474 2.0384787e-39 359 271
0.053090934 0.75700003 -0.041145474 2.1288764e-39 360 271
0.054418206 0.75700003 -0.041145474 2.1288764e-39 361 271
0.055892758 0.759 -0.041254178 2.311823e-39 362 271
0.057374325 0.76099998 -0.041362885 2.311823e-39 363 271
0.058785759 0.76200002 -0.041417241 2.3121733e-39 364 271
0.060121801 0.76200002 -0.041417241 2.4043689e-39 365 271
0.061619148 0.764 -0.041525945 2.6791481e-39 366 271
0.081498444 0.76200002 -0.041417241 3.0486691e-39 381 271
0.082508355 0.759 -0.041254178 3.0511901e-39 382 271
0.083618224 0.75700003 -0.041145474 3.6043625e-39 383 271
0.084721066 0.755 -0.041036766 3.6987105e-39 384 271
0.086044833 0.755 -0.041036766 3.6061561e-39 385 271
0.087368593 0.755 -0.041036766 4.5273473e-39 386 271
0.08869236 0.755 -0.041036766 7.7541944e-39 387 271
-0.0077953199 0.741 -0.041575037 1.5665326e-38 314 272
-0.0064960998 0.741 -0.041575037 1.4558978e-38 315 272
-0.0052038929 0.74199998 -0.041631144 1.3083147e-38 316 272
-0.0039029196 0.74199998 -0.041631144 1.1147039e-38 317 272
-0.0026019465 0.74199998 -0.041631144 8.1107323e-39 318 272
-0.0013009732 0.74199998 -0.041631144 7.0043862e-39 319 272
0 0.74199998 -0.041631144 4.6181234e-39 320 272
0.0013009732 0.74199998 -0.041631144 4.8943516e-39 321 272
0.0026019465 0.74199998 -0.041631144 4.8007322e-39 322 272
0.0039134403 0.74400002 -0.04174336 4.616341e-39 323 272
0.0052319462 0.74599999 -0.04185557 3.881657e-39 324 272
0.0065399334 0.74599999 -0.04185557 3.7891026e-39 325 272
0.0078794798 0.74900001 -0.042023893 3.4214005e-39 326 272
0.0091927266 0.74900001 -0.042023893 3.4214005e-39 327 272
0.010505973 0.74900001 -0.042023893 3.3288462e-39 328 272
0.01181922 0.74900001 -0.042023893 3.3288462e-39 329 272
0.013132467 0.74900001 -0.042023893 3.4199656e-39 330 272
0.014445714 0.74900001 -0.042023893 3.1437388e-39 331 272
0.01578 0.75 -0.04208 3.3259763e-39 332 272
0.017140586 0.75199997 -0.04219221 3.049388e-39 333 272
0.018508185 0.75400001 -0.042304426 3.0493852e-39 334 272
0.019830201 0.75400001 -0.042304426 3.0493852e-39 335 272
0.021180267 0.755 -0.042360533 2.7749493e-39 336 272
0.022504034 0.755 -0.042360533 2.8671449e-39 337 272
0.023827799 0.755 -0.042360533 3.1444423e-39 338 272
0.025151566 0.755 -0.042360533 3.6972559e-39 339 272
0.026615599 0.759 -0.042584959 3.237354e-39 340 272
0.027872739 0.75700003 -0.042472746 3.1451584e-39 341 272
0.028929999 0.75 -0.04208 2.8700134e-39 342 272
0.030244999 0.75 -0.04208 2.5937852e-39 343 272
0.03156 0.75 -0.04208 2.6845515e-39 344 272
0.032874998 0.75 -0.04208 2.4079661e-39 345 272
0.034281172 0.75199997 -0.04219221 2.5905651e-39 346 272
0.035599679 0.75199997 -0.04219221 2.4061738e-39 347 272
0.036918186 0.75199997 -0.04219221 2.5891301e-39 348 272
0.038236689 0.75199997 -0.04219221 2.4969331e-39 349 272
0.039660402 0.75400001 -0.042304426 2.1303086e-39 350 272
0.040982414 0.75400001 -0.042304426 2.1303086e-39 351 272
0.042304426 0.75400001 -0.042304426 1.8551608e-39 352 272
0.043684296 0.755 -0.042360533 1.9477166e-39 353 272
0.045008067 0.755 -0.042360533 1.9462775e-39 354 272
0.04633183 0.755 -0.042360533 1.9462775e-39 355 272
0.047655597 0.755 -0.042360533 1.9455614e-39 356 272
0.048979364 0.755 -0.042360533 1.9455614e-39 357 272
0.050436385 0.75700003 -0.042472746 1.9455586e-39 358 272
0.051763661 0.75700003 -0.042472746 1.853363e-39 359 272
0.053090934 0.75700003 -0.042472746 2.127789e-39 360 272
0.054418206 0.75700003 -0.042472746 2.3118202e-39 361 272
0.055892758 0.759 -0.042584959 2.1285051e-39 362 272
0.057374325 0.76099998 -0.042697169 1.9441138e-39 363 272
0.058785759 0.76200002 -0.042753279 1.6678829e-39 364 272
0.060121801 0.76200002 -0.042753279 1.5756873e-39 365 272
0.082508355 0.759 -0.042584959 3.2362876e-39 382 272
0.083286837 0.75400001 -0.042304426 3.60471e-39 383 272
0.084608853 0.75400001 -0.042304426 3.7898215e-39 384 272
0.086044833 0.755 -0.042360533 3.4213977e-39 385 272
0.087368593 0.755 -0.042360533 3.7912172e-39 386 272
0.08869236 0.755 -0.042360533 6.9255099e-39 387 272
-0.0090945391 0.741 -0.042874258 1.4837357e-38 313 273
-0.0077953199 0.741 -0.042874258 1.3548791e-38 314 273
-0.0064960998 0.741 -0.042874258 1.2258053e-38 315 273
-0.0051968796 0.741 -0.042874258 9.5890896e-39 316 273
-0.0038976599 0.741 -0.042874258 7.745177e-39 317 273
-0.0025984398 0.741 -0.042874258 5.2609733e-39 318 273
-0.0013009732 0.74199998 -0.042932119 4.799635e-39 319 273
0 0.74199998 -0.042932119 4.3415562e-39 320 273
0.0013009732 0.74199998 -0.042932119 4.3415562e-39 321 273
0.0026019465 0.74199998 -0.042932119 3.8820227e-39 322 273
0.0039029196 0.74199998 -0.042932119 3.6972727e-39 323 273
0.0052179201 0.74400002 -0.043047838 3.8802207e-39 324 273
0.0065223998 0.74400002 -0.043047838 3.6961895e-39 325 273
0.0078479191 0.74599999 -0.04316356 3.4210446e-39 326 273
0.0091559067 0.74599999 -0.04316356 3.2366533e-39 327 273
0.010477919 0.74699998 -0.043221418 3.2366533e-39 328 273
0.011787659 0.74699998 -0.043221418 3.1444577e-39 329 273
0.013097399 0.74699998 -0.043221418 3.0519033e-39 330 273
0.014407139 0.74699998 -0.043221418 2.8678722e-39 331 273
0.015716879 0.74699998 -0.043221418 3.4185251e-39 332 273
0.017095 0.75 -0.043394998 3.4185251e-39 333 273
0.018459093 0.75199997 -0.04351072 3.7858558e-39 334 273
0.0197776 0.75199997 -0.04351072 3.9706058e-39 335 273
0.021152213 0.75400001 -0.043626439 3.513215e-39 336 273
0.022474226 0.75400001 -0.043626439 3.790162e-39 337 273
0.02379624 0.75400001 -0.043626439 4.2500668e-39 338 273
0.025118252 0.75400001 -0.043626439 4.3422624e-39 339 273
0.026615599 0.759 -0.043915741 4.1578711e-39 340 273
0.027578179 0.74900001 -0.04333714 4.0653168e-39 341 273
0.028891427 0.74900001 -0.04333714 3.420669e-39 342 273
0.030204674 0.74900001 -0.04333714 2.9596909e-39 343 273
0.03156 0.75 -0.043394998 2.4983694e-39 344 273
0.032874998 0.75 -0.043394998 2.2214224e-39 345 273
0.034189999 0.75 -0.043394998 1.7608142e-39 346 273
0.035505001 0.75 -0.043394998 1.7608142e-39 347 273
0.036819998 0.75 -0.043394998 1.7601009e-39 348 273
0.038236689 0.75199997 -0.04351072 1.6675452e-39 349 273
0.039555199 0.75199997 -0.04351072 1.4842329e-39 350 273
0.040982414 0.75400001 -0.043626439 1.6682654e-39 351 273
0.042304426 0.75400001 -0.043626439 1.4853091e-39 352 273
0.043626439 0.75400001 -0.043626439 1.4853091e-39 353 273
0.045008067 0.755 -0.043684296 1.6686186e-39 354 273
0.04633183 0.755 -0.043684296 1.6686186e-39 355 273
0.047655597 0.755 -0.043684296 1.6678983e-39 356 273
0.049109112 0.75700003 -0.043800019 1.6678983e-39 357 273
0.050436385 0.75700003 -0.043800019 2.0352403e-39 358 273
0.051763661 0.75700003 -0.043800019 2.0352403e-39 359 273
0.053231198 0.759 -0.043915741 2.4947667e-39 360 273
0.054561976 0.759 -0.043915741 2.6795167e-39 361 273
0.055892758 0.759 -0.043915741 3.4156342e-39 362 273
0.079894133 0.74699998 -0.043221418 5.7154634e-39 381 273
0.081203878 0.74699998 -0.043221418 3.6050631e-39 382 273
0.08273454 0.74900001 -0.04333714 3.5128675e-39 383 273
0.08416 0.75 -0.043394998 3.4210474e-39 384 273
0.085702926 0.75199997 -0.04351072 3.0519061e-39 385 273
0.087368593 0.755 -0.043684296 5.1694825e-39 386 273
-0.010365707 0.73900002 -0.044054255 1.0782578e-38 312 274
-0.0090699932 0.73900002 -0.044054255 8.4773288e-39 313 274
-0.0077742799 0.73900002 -0.044054255 5.1673133e-39 314 274
-0.0064785667 0.73900002 -0.044054255 4.705975e-39 315 274
-0.0051968796 0.741 -0.044173479 3.6046918e-39 316 274
-0.0038976599 0.741 -0.044173479 3.9734743e-39 317 274
-0.0025984398 0.741 -0.044173479 4.4330287e-39 318 274
-0.0012992199 0.741 -0.044173479 4.5252243e-39 319 274
0 0.741 -0.044173479 4.4323098e-39 320 274
0.0012992199 0.741 -0.044173479 4.3401142e-39 321 274
0.0025984398 0.741 -0.044173479 3.9727736e-39 322 274
0.0039029196 0.74199998 -0.044233091 3.9727736e-39 323 274
0.0052038929 0.74199998 -0.044233091 3.879499e-39 324 274
0.0065048663 0.74199998 -0.044233091 3.879499e-39 325 274
0.0078268806 0.74400002 -0.044352323 3.5117983e-39 326 274
0.0091313599 0.74400002 -0.044352323 3.5117983e-39 327 274
0.01043584 0.74400002 -0.044352323 3.4185279e-39 328 274
0.011771879 0.74599999 -0.044471547 3.4185279e-39 329 274
0.0130448 0.74400002 -0.044352323 3.3270483e-39 330 274
0.01434928 0.74400002 -0.044352323 3.6039939e-39 331 274
0.015653761 0.74400002 -0.044352323 3.1466031e-39 332 274
0.016958239 0.74400002 -0.044352323 3.5153856e-39 333 274
0.01826272 0.74400002 -0.044352323 3.6072155e-39 334 274
0.0197776 0.75199997 -0.044829223 3.5150199e-39 335 274
0.021152213 0.75400001 -0.044948451 3.6068596e-39 336 274
0.022474226 0.75400001 -0.044948451 3.5146639e-39 337 274
0.02379624 0.75400001 -0.044948451 3.8816514e-39 338 274
0.025118252 0.75400001 -0.044948451 3.8816514e-39 339 274
0.027504537 0.74699998 -0.044531155 3.6972587e-39 341 274
0.028814279 0.74699998 -0.044531155 3.2362848e-39 342 274
0.030204674 0.74900001 -0.044650383 2.7749465e-39 343 274
0.031517919 0.74900001 -0.044650383 2.4043717e-39 344 274
0.032874998 0.75 -0.044709999 2.0355906e-39 345 274
0.034189999 0.75 -0.044709999 2.0345102e-39 346 274
0.035505001 0.75 -0.044709999 2.0345102e-39 347 274
0.036819998 0.75 -0.044709999 1.8511979e-39 348 274
0.038236689 0.75199997 -0.044829223 1.7590023e-39 349 274
0.039555199 0.75199997 -0.044829223 1.6675298e-39 350 274
0.040982414 0.75400001 -0.044948451 1.6675298e-39 351 274
0.042304426 0.75400001 -0.044948451 1.6682514e-39 352 274
0.043626439 0.75400001 -0.044948451 1.6682514e-39 353 274
0.045008067 0.755 -0.045008067 1.8519196e-39 354 274
0.04633183 0.755 -0.045008067 1.8519196e-39 355 274
0.047655597 0.755 -0.045008067 2.0359465e-39 356 274
0.049109112 0.75700003 -0.045127295 1.9437495e-39 357 274
0.050436385 0.75700003 -0.045127295 2.126696e-39 358 274
0.051763661 0.75700003 -0.045127295 1.941946e-39 359 274
0.076653972 0.741 -0.044173479 1.0686079e-38 379 274
0.077953197 0.741 -0.044173479 7.0054862e-39 380 274
0.079573281 0.74400002 -0.044352323 5.9909755e-39 381 274
0.080877759 0.74400002 -0.044352323 4.0631672e-39 382 274
0.082513615 0.74699998 -0.044531155 3.7869404e-39 383 274
0.084047787 0.74900001 -0.044650383 3.6018261e-39 384 274
0.085702926 0.75199997 -0.044829223 3.2326849e-39 385 274
0.087368593 0.755 -0.045008067 7.0090609e-39 386 274
-0.01161408 0.736 -0.045165867 1.0225439e-38 311 275
-0.010351679 0.73799998 -0.0452886 8.1100163e-39 312 275
-0.0090577193 0.73799998 -0.0452886 7.2798969e-39 313 275
-0.0077637597 0.73799998 -0.0452886 5.259174e-39 314 275
-0.0064785667 0.73900002 -0.045349967 5.259174e-39 315 275
-0.0051828534 0.73900002 -0.045349967 4.3419093e-39 316 275
-0.00388714 0.73900002 -0.045349967 4.3419093e-39 317 275
-0.0025914267 0.73900002 -0.045349967 4.2493605e-39 318 275
-0.0012992199 0.741 -0.045472696 4.1571649e-39 319 275
0 0.741 -0.045472696 3.9727736e-39 320 275
0.0012992199 0.741 -0.045472696 3.9727736e-39 321 275
0.0025984398 0.741 -0.045472696 3.8802179e-39 322 275
0.0039029196 0.74199998 -0.045534063 3.6961867e-39 323 275
0.0052038929 0.74199998 -0.045534063 3.7873062e-39 324 275
0.0065048663 0.74199998 -0.045534063 3.6951105e-39 325 275
0.0078058392 0.74199998 -0.045534063 3.6029149e-39 326 275
0.009106813 0.74199998 -0.045534063 3.6029149e-39 327 275
0.01043584 0.74400002 -0.0456568 3.5117983e-39 328 275
0.011740319 0.74400002 -0.0456568 3.5117983e-39 329 275
0.013009733 0.74199998 -0.045534063 3.4213977e-39 330 275
0.014310705 0.74199998 -0.045534063 3.6976259e-39 331 275
0.015611678 0.74199998 -0.045534063 3.7905306e-39 332 275
0.016844273 0.73900002 -0.045349967 3.7905306e-39 333 275
0.018139986 0.73900002 -0.045349967 4.1578711e-39 334 275
0.0194357 0.73900002 -0.045349967 4.0653168e-39 335 275
0.020703359 0.73799998 -0.0452886 3.7894558e-39 336 275
0.021997318 0.73799998 -0.0452886 3.7894558e-39 337 275
0.023228159 0.736 -0.045165867 3.8816542e-39 338 275
0.024518613 0.736 -0.045165867 4.0656853e-39 339 275
0.025879199 0.73799998 -0.0452886 3.8827262e-39 340 275
0.027173158 0.73799998 -0.0452886 3.7905306e-39 341 275
0.028467119 0.73799998 -0.0452886 3.7872936e-39 342 275
0.030124018 0.74699998 -0.045840897 3.0493698e-39 343 275
0.031433757 0.74699998 -0.045840897 2.4969205e-39 344 275
0.032831166 0.74900001 -0.045963634 2.0359423e-39 345 275
0.034144413 0.74900001 -0.045963634 1.8511951e-39 346 275
0.035505001 0.75 -0.046024997 1.8511951e-39 347 275
0.036819998 0.75 -0.046024997 1.7589995e-39 348 275
0.038236689 0.75199997 -0.04614773 1.7589995e-39 349 275
0.039660402 0.75400001 -0.046270464 1.7589995e-39 350 275
0.040982414 0.75400001 -0.046270464 1.6668039e-39 351 275
0.042304426 0.75400001 -0.046270464 1.6668039e-39 352 275
0.043626439 0.75400001 -0.046270464 1.7589995e-39 353 275
0.071167797 0.73799998 -0.0452886 1.1797078e-38 375 275
0.072461754 0.73799998 -0.0452886 1.0324841e-38 376 275
0.073755711 0.73799998 -0.0452886 9.4947206e-39 377 275
0.075049676 0.73799998 -0.0452886 7.6537213e-39 378 275
0.076447085 0.73900002 -0.045349967 6.4555368e-39 379 275
0.077953197 0.741 -0.045472696 4.8907643e-39 380 275
0.079573281 0.74400002 -0.0456568 4.3375905e-39 381 275
0.080877759 0.74400002 -0.0456568 3.6029149e-39 382 275
0.082403161 0.74599999 -0.045779534 3.326328e-39 383 275
0.084047787 0.74900001 -0.045963634 3.3259553e-39 384 275
0.085702926 0.75199997 -0.04614773 3.1419242e-39 385 275
-0.012904533 0.736 -0.046456318 7.0843359e-39 310 276
-0.01161408 0.736 -0.046456318 7.0843359e-39 311 276
-0.010323626 0.736 -0.046456318 6.078488e-39 312 276
-0.0090577193 0.73799998 -0.046582557 6.8160545e-39 313 276
-0.0077637597 0.73799998 -0.046582557 5.8998771e-39 314 276
-0.0064697997 0.73799998 -0.046582557 5.9920727e-39 315 276
-0.0051758396 0.73799998 -0.046582557 4.7085338e-39 316 276
-0.00388714 0.73900002 -0.046645679 4.6163382e-39 317 276
-0.0025914267 0.73900002 -0.046645679 4.0653224e-39 318 276
-0.0012957134 0.73900002 -0.046645679 3.972768e-39 319 276
0 0.73900002 -0.046645679 3.6969056e-39 320 276
0.0012957134 0.73900002 -0.046645679 3.6969056e-39 321 276
0.0025984398 0.741 -0.046771921 3.6961895e-39 322 276
0.0038976599 0.741 -0.046771921 3.6039939e-39 323 276
0.0051968796 0.741 -0.046771921 3.6029149e-39 324 276
0.0064960998 0.741 -0.046771921 3.6029149e-39 325 276
0.0078058392 0.74199998 -0.046835039 3.5117983e-39 326 276
0.009106813 0.74199998 -0.046835039 3.5117983e-39 327 276
0.010407786 0.74199998 -0.046835039 3.5135933e-39 328 276
0.01170876 0.74199998 -0.046835039 3.5135933e-39 329 276
0.0129922 0.741 -0.046771921 3.6976259e-39 330 276
0.014252847 0.73900002 -0.046645679 3.7898215e-39 331 276
0.01554856 0.73900002 -0.046645679 3.881657e-39 332 276
0.016821479 0.73799998 -0.046582557 3.7891026e-39 333 276
0.018115439 0.73799998 -0.046582557 4.0642504e-39 334 276
0.019409399 0.73799998 -0.046582557 4.0642504e-39 335 276
0.020647252 0.736 -0.046456318 3.9720534e-39 336 276
0.021937706 0.736 -0.046456318 4.0642504e-39 337 276
0.023228159 0.736 -0.046456318 4.0649665e-39 338 276
0.024518613 0.736 -0.046456318 4.0649665e-39 339 276
0.025809066 0.736 -0.046456318 4.0660413e-39 340 276
0.02709952 0.736 -0.046456318 3.8816514e-39 341 276
0.028467119 0.73799998 -0.046582557 3.7880096e-39 342 276
0.029922385 0.74199998 -0.046835039 3.3270315e-39 343 276
0.031391677 0.74599999 -0.047087517 2.7742122e-39 344 276
0.032743499 0.74699998 -0.047150634 2.4054283e-39 345 276
0.034144413 0.74900001 -0.047276881 2.4947499e-39 346 276
0.035505001 0.75 -0.047339998 2.3103586e-39 347 276
0.036819998 0.75 -0.047339998 2.3103586e-39 348 276
0.038236689 0.75199997 -0.047466237 2.3103586e-39 349 276
0.069873832 0.73799998 -0.046582557 8.0196185e-39 374 276
0.071167797 0.73799998 -0.046582557 6.9129122e-39 375 276
0.072461754 0.73799998 -0.046582557 4.3386625e-39 376 276
0.073755711 0.73799998 -0.046582557 3.6932931e-39 377 276
0.075049676 0.73799998 -0.046582557 2.3154173e-39 378 276
0.076447085 0.73900002 -0.046645679 2.4079717e-39 379 276
0.078058399 0.74199998 -0.046835039 2.774599e-39 380 276
0.079359367 0.74199998 -0.046835039 2.9589902e-39 381 276
0.080877759 0.74400002 -0.046961278 3.1419396e-39 382 276
0.082403161 0.74599999 -0.047087517 3.3263322e-39 383 276
0.083823353 0.74699998 -0.047150634 3.6021764e-39 384 276
0.085474998 0.75 -0.047339998 3.786209e-39 385 276
-0.016707512 0.73299998 -0.04755215 6.6341379e-39 307 277
-0.015422319 0.73299998 -0.04755215 8.0945235e-39 308 277
-0.014156413 0.73400003 -0.047617026 8.0945235e-39 309 277
-0.012869466 0.73400003 -0.047617026 8.0930956e-39 310 277
-0.01161408 0.736 -0.047746774 8.1852926e-39 311 277
-0.010323626 0.736 -0.047746774 7.4527849e-39 312 277
-0.0090331733 0.736 -0.047746774 7.6375363e-39 313 277
-0.0077637597 0.73799998 -0.047876518 6.0803027e-39 314 277
-0.0064697997 0.73799998 -0.047876518 6.4490852e-39 315 277
-0.0051758396 0.73799998 -0.047876518 4.6159752e-39 316 277
-0.0038818798 0.73799998 -0.047876518 4.5237796e-39 317 277
-0.0025879198 0.73799998 -0.047876518 3.9727708e-39 318 277
-0.0012939599 0.73799998 -0.047876518 3.9727708e-39 319 277
0 0.73799998 -0.047876518 3.6969056e-39 320 277
0.0012939599 0.73799998 -0.047876518 3.5125143e-39 321 277
0.0025914267 0.73900002 -0.047941394 3.4199628e-39 322 277
0.00388714 0.73900002 -0.047941394 3.2359317e-39 323 277
0.0051828534 0.73900002 -0.047941394 3.4199628e-39 324 277
0.0064785667 0.73900002 -0.047941394 3.5125172e-39 325 277
0.0077953199 0.741 -0.048071139 3.5135933e-39 326 277
0.0090699932 0.73900002 -0.047941394 3.6976259e-39 327 277
0.010365707 0.73900002 -0.047941394 3.8816542e-39 328 277
0.01166142 0.73900002 -0.047941394 4.0656853e-39 329 277
0.012904533 0.736 -0.047746774 4.0649665e-39 330 277
0.014156413 0.73400003 -0.047617026 3.9727708e-39 331 277
0.01544336 0.73400003 -0.047617026 4.0642476e-39 332 277
0.016730307 0.73400003 -0.047617026 4.0642476e-39 333 277
0.018017253 0.73400003 -0.047617026 4.0642476e-39 334 277
0.019304199 0.73400003 -0.047617026 4.0642476e-39 335 277
0.020591147 0.73400003 -0.047617026 4.0649665e-39 336 277
0.021878093 0.73400003 -0.047617026 4.0649665e-39 337 277
0.023165042 0.73400003 -0.047617026 4.0649665e-39 338 277
0.024451986 0.73400003 -0.047617026 4.1571621e-39 339 277
0.025738932 0.73400003 -0.047617026 4.0653224e-39 340 277
0.02702588 0.73400003 -0.047617026 4.0653224e-39 341 277
0.028312827 0.73400003 -0.047617026 4.0645979e-39 342 277
0.029599773 0.73400003 -0.047617026 3.8802053e-39 343 277
0.030886721 0.73400003 -0.047617026 3.9702373e-39 344 277
0.032743499 0.74699998 -0.048460379 3.6932903e-39 345 277
0.034144413 0.74900001 -0.048590127 3.3237847e-39 346 277
0.06839402 0.736 -0.047746774 4.52376e-39 373 277
0.069684476 0.736 -0.047746774 3.7872936e-39 374 277
0.071167797 0.73799998 -0.047876518 3.5103465e-39 375 277
0.072461754 0.73799998 -0.047876518 2.8667946e-39 376 277
0.073855661 0.73900002 -0.047941394 2.8667946e-39 377 277
0.075151369 0.73900002 -0.047941394 2.6831292e-39 378 277
0.076653972 0.741 -0.048071139 2.5909336e-39 379 277
0.078058399 0.74199998 -0.048136011 2.774599e-39 380 277
0.079359367 0.74199998 -0.048136011 2.774599e-39 381 277
0.080877759 0.74400002 -0.048265759 3.1419368e-39 382 277
0.082182243 0.74400002 -0.048265759 3.1419368e-39 383 277
0.083823353 0.74699998 -0.048460379 4.061707e-39 384 277
-0.017992707 0.73299998 -0.048837345 3.874778e-39 306 278
-0.016661927 0.73100001 -0.048704091 3.137213e-39 307 278
-0.01538024 0.73100001 -0.048704091 6.1605859e-39 308 278
-0.014137126 0.73299998 -0.048837345 6.8059553e-39 309 278
-0.012851933 0.73299998 -0.048837345 7.817229e-39 310 278
-0.011582521 0.73400003 -0.048903972 7.7250333e-39 311 278
-0.010323626 0.736 -0.049037226 7.358427e-39 312 278
-0.0090331733 0.736 -0.049037226 7.173677e-39 313 278
-0.0077427197 0.736 -0.049037226 4.7917191e-39 314 278
-0.0064522666 0.736 -0.049037226 5.8055109e-39 315 278
-0.005161813 0.736 -0.049037226 4.2471955e-39 316 278
-0.0038713599 0.736 -0.049037226 4.431228e-39 317 278
-0.0025809065 0.736 -0.049037226 3.6969056e-39 318 278
-0.0012904532 0.736 -0.049037226 3.5125143e-39 319 278
0 0.736 -0.049037226 3.1444549e-39 320 278
0.0012904532 0.736 -0.049037226 3.0522593e-39 321 278
0.0025809065 0.736 -0.049037226 3.2359345e-39 322 278
0.0038818798 0.73799998 -0.049170475 3.4199656e-39 323 278
0.005161813 0.736 -0.049037226 3.4221138e-39 324 278
0.0064522666 0.736 -0.049037226 3.5143108e-39 325 278
0.0077742799 0.73900002 -0.049237106 3.7901746e-39 326 278
0.0090331733 0.736 -0.049037226 3.9749246e-39 327 278
0.010253493 0.73100001 -0.048704091 4.157518e-39 328 278
0.011519399 0.73000002 -0.048637468 4.0653224e-39 329 278
0.012799333 0.73000002 -0.048637468 4.2482787e-39 330 278
0.014098554 0.73100001 -0.048704091 4.2482787e-39 331 278
0.01538024 0.73100001 -0.048704091 4.2482787e-39 332 278
0.016707512 0.73299998 -0.048837345 4.2482787e-39 333 278
0.017992707 0.73299998 -0.048837345 4.2486346e-39 334 278
0.019277899 0.73299998 -0.048837345 4.3408303e-39 335 278
0.020563092 0.73299998 -0.048837345 4.4330231e-39 336 278
0.021878093 0.73400003 -0.048903972 4.4330231e-39 337 278
0.023165042 0.73400003 -0.048903972 4.3408275e-39 338 278
0.024451986 0.73400003 -0.048903972 4.3408275e-39 339 278
0.025738932 0.73400003 -0.048903972 4.3408303e-39 340 278
0.026989058 0.73299998 -0.048837345 4.3408303e-39 341 278
0.028274251 0.73299998 -0.048837345 4.3408303e-39 342 278
0.029559445 0.73299998 -0.048837345 4.3408303e-39 343 278
0.03076048 0.73100001 -0.048704091 4.5237796e-39 344 278
0.031998333 0.73000002 -0.048637468 4.4312252e-39 345 278
0.033278264 0.73000002 -0.048637468 3.6039659e-39 346 278
0.034558199 0.73000002 -0.048637468 3.4199348e-39 347 278
0.035838135 0.73000002 -0.048637468 3.2366085e-39 348 278
0.037118066 0.73000002 -0.048637468 3.5135555e-39 349 278
0.046077598 0.73000002 -0.048637468 9.497617e-39 356 278
0.047357533 0.73000002 -0.048637468 9.6816496e-39 357 278
0.048637468 0.73000002 -0.048637468 1.0416331e-38 358 278
0.0499174 0.73000002 -0.048637468 1.0324135e-38 359 278
0.051057063 0.72799999 -0.048504211 1.0048271e-38 360 278
0.052333489 0.72799999 -0.048504211 9.6794874e-39 361 278
0.053757198 0.73000002 -0.048637468 9.2188778e-39 362 278
0.055037133 0.73000002 -0.048637468 8.757901e-39 363 278
0.056317069 0.73000002 -0.048637468 7.9292319e-39 364 278
0.057675898 0.73100001 -0.048704091 7.2838625e-39 365 278
0.058957584 0.73100001 -0.048704091 5.9945783e-39 366 278
0.065813117 0.736 -0.049037226 2.6813145e-39 371 278
0.067103572 0.736 -0.049037226 2.2225028e-39 372 278
0.06839402 0.736 -0.049037226 2.2225028e-39 373 278
0.069684476 0.736 -0.049037226 2.4987352e-39 374 278
0.071167797 0.73799998 -0.049170475 2.4987352e-39 375 278
0.072559945 0.73900002 -0.049237106 2.4983792e-39 376 278
0.073855661 0.73900002 -0.049237106 2.5909336e-39 377 278
0.075354755 0.741 -0.049370356 2.590928e-39 378 278
0.076653972 0.741 -0.049370356 2.590928e-39 379 278
0.078058399 0.74199998 -0.049436983 2.7745934e-39 380 278
0.079359367 0.74199998 -0.049436983 2.7745934e-39 381 278
0.080877759 0.74400002 -0.04957024 3.0500915e-39 382 278
0.082182243 0.74400002 -0.04957024 2.9578958e-39 383 278
-0.017943613 0.73100001 -0.049985781 5.7158362e-39 306 279
-0.016661927 0.73100001 -0.049985781 4.8860769e-39 307 279
-0.01538024 0.73100001 -0.049985781 5.984842e-39 308 279
-0.014098554 0.73100001 -0.049985781 6.0770377e-39 309 279
-0.012816866 0.73100001 -0.049985781 7.3612927e-39 310 279
-0.011566739 0.73299998 -0.050122537 7.3612927e-39 311 279
-0.010295574 0.73400003 -0.050190922 6.8106426e-39 312 279
-0.0090086265 0.73400003 -0.050190922 6.8106426e-39 313 279
-0.0077216802 0.73400003 -0.050190922 4.8867846e-39 314 279
-0.006434733 0.73400003 -0.050190922 5.2552084e-39 315 279
-0.0051477868 0.73400003 -0.050190922 3.9713219e-39 316 279
-0.0038608401 0.73400003 -0.050190922 3.7872908e-39 317 279
-0.0025738934 0.73400003 -0.050190922 3.4195999e-39 318 279
-0.0012869467 0.73400003 -0.050190922 3.2348485e-39 319 279
0 0.73400003 -0.050190922 3.1426528e-39 320 279
0.0012869467 0.73400003 -0.050190922 3.4195999e-39 321 279
0.0025738934 0.73400003 -0.050190922 3.4203159e-39 322 279
0.0038555798 0.73299998 -0.050122537 3.6972615e-39 323 279
0.0051267464 0.73100001 -0.049985781 3.5150297e-39 324 279
0.006408433 0.73100001 -0.049985781 3.5150297e-39 325 279
0.00769012 0.73100001 -0.049985781 4.0656853e-39 326 279
0.0089718066 0.73100001 -0.049985781 4.0656853e-39 327 279
0.010239467 0.73000002 -0.0499174 4.157881e-39 328 279
0.011519399 0.73000002 -0.0499174 4.0656853e-39 329 279
0.012799333 0.73000002 -0.0499174 4.157518e-39 330 279
0.014079267 0.73000002 -0.0499174 4.157518e-39 331 279
0.0153592 0.73000002 -0.0499174 4.1582369e-39 332 279
0.016661927 0.73100001 -0.049985781 4.1582369e-39 333 279
0.017943613 0.73100001 -0.049985781 4.4330259e-39 334 279
0.019199001 0.73000002 -0.0499174 4.5252215e-39 335 279
0.020478934 0.73000002 -0.0499174 4.5255775e-39 336 279
0.021788673 0.73100001 -0.049985781 4.6177731e-39 337 279
0.023133477 0.73299998 -0.050122537 4.8010854e-39 338 279
0.024418673 0.73299998 -0.050122537 4.7088897e-39 339 279
0.025703866 0.73299998 -0.050122537 4.6163382e-39 340 279
0.026915418 0.73100001 -0.049985781 4.432307e-39 341 279
0.028197108 0.73100001 -0.049985781 4.3401142e-39 342 279
0.029478792 0.73100001 -0.049985781 4.4323098e-39 343 279
0.030718399 0.73000002 -0.0499174 3.9727708e-39 344 279
0.031998333 0.73000002 -0.0499174 3.9727708e-39 345 279
0.033278264 0.73000002 -0.0499174 3.421748e-39 346 279
0.034558199 0.73000002 -0.0499174 3.3295524e-39 347 279
0.035838135 0.73000002 -0.0499174 3.237354e-39 348 279
0.037118066 0.73000002 -0.0499174 3.3295496e-39 349 279
0.038398001 0.73000002 -0.0499174 3.8809241e-39 350 279
0.039677933 0.73000002 -0.0499174 4.0653168e-39 351 279
0.041013971 0.73100001 -0.049985781 4.7081681e-39 352 279
0.042295661 0.73100001 -0.049985781 4.5237768e-39 353 279
0.043577347 0.73100001 -0.049985781 4.3404617e-39 354 279
0.044859033 0.73100001 -0.049985781 4.3404617e-39 355 279
0.046077598 0.73000002 -0.0499174 4.3408177e-39 356 279
0.047357533 0.73000002 -0.0499174 4.1560663e-39 357 279
0.048637468 0.73000002 -0.0499174 4.0631518e-39 358 279
0.0499174 0.73000002 -0.0499174 3.9709561e-39 359 279
0.051057063 0.72799999 -0.049780637 3.0522425e-39 360 279
0.052333489 0.72799999 -0.049780637 2.9600468e-39 361 279
0.053757198 0.73000002 -0.0499174 2.3168424e-39 362 279
0.055037133 0.73000002 -0.0499174 2.5012337e-39 363 279
0.056317069 0.73000002 -0.0499174 2.6845515e-39 364 279
0.057675898 0.73100001 -0.049985781 2.5923559e-39 365 279
0.058957584 0.73100001 -0.049985781 2.7745934e-39 366 279
0.06023927 0.73100001 -0.049985781 2.406171e-39 367 279
0.061689276 0.73299998 -0.050122537 2.590928e-39 368 279
0.063060381 0.73400003 -0.050190922 2.590928e-39 369 279
0.064522661 0.736 -0.050327681 3.2337821e-39 370 279
0.065813117 0.736 -0.050327681 3.1415864e-39 371 279
0.067103572 0.736 -0.050327681 2.8660757e-39 372 279
0.06839402 0.736 -0.050327681 2.7738801e-39 373 279
0.069684476 0.736 -0.050327681 2.7738773e-39 374 279
0.071167797 0.73799998 -0.050464436 2.7738773e-39 375 279
0.072559945 0.73900002 -0.050532822 2.5905651e-39 376 279
0.073855661 0.73900002 -0.050532822 2.5905651e-39 377 279
0.075354755 0.741 -0.050669577 2.7742304e-39 378 279
0.076653972 0.741 -0.050669577 2.7742304e-39 379 279
0.078058399 0.74199998 -0.050737958 2.956821e-39 380 279
0.079359367 0.74199998 -0.050737958 2.6802327e-39 381 279
-0.019199001 0.73000002 -0.051197331 5.2609733e-39 305 280
-0.017919067 0.73000002 -0.051197331 4.2500668e-39 306 280
-0.016639132 0.73000002 -0.051197331 3.9731212e-39 307 280
-0.0153592 0.73000002 -0.051197331 4.7971015e-39 308 280
-0.014079267 0.73000002 -0.051197331 4.7971015e-39 309 280
-0.012799333 0.73000002 -0.051197331 5.4388583e-39 310 280
-0.01153518 0.73100001 -0.051267464 5.3466627e-39 311 280
-0.010253493 0.73100001 -0.051267464 5.4381521e-39 312 280
-0.0089718066 0.73100001 -0.051267464 5.3459564e-39 313 280
-0.00769012 0.73100001 -0.051267464 4.1542712e-39 314 280
-0.006408433 0.73100001 -0.051267464 3.9702401e-39 315 280
-0.005140773 0.73299998 -0.051407732 2.7763954e-39 316 280
-0.0038555798 0.73299998 -0.051407732 2.4079717e-39 317 280
-0.0025633732 0.73100001 -0.051267464 2.5909308e-39 318 280
-0.0012816866 0.73100001 -0.051267464 2.5909308e-39 319 280
0 0.73100001 -0.051267464 3.143736e-39 320 280
0.0012816866 0.73100001 -0.051267464 3.5125172e-39 321 280
0.0025633732 0.73100001 -0.051267464 3.697979e-39 322 280
0.00384506 0.73100001 -0.051267464 3.8823703e-39 323 280
0.0051197335 0.73000002 -0.051197331 4.2497136e-39 324 280
0.0063996664 0.73000002 -0.051197331 4.2497136e-39 325 280
