# .PCD v.7 - Point Cloud Data file format
FIELDS x y z rgb imX imY
SIZE 4 4 4 4 4 4
TYPE F F F F F F
COUNT 1 1 1 1 1 1
WIDTH 848
HEIGHT 1
VIEWPOINT 0 0 0 1 0 0 0
POINTS 848
DATA ascii
-0.0068590399 0.65200001 0.090310693 1.6695716e-38 314 161
-0.0057158666 0.65200001 0.090310693 1.6695716e-38 315 161
-0.0045726933 0.65200001 0.090310693 1.6603515e-38 316 161
-0.0034295199 0.65200001 0.090310693 1.6511319e-38 317 161
-0.0022863466 0.65200001 0.090310693 1.6511319e-38 318 161
-0.0011431733 0.65200001 0.090310693 1.6326928e-38 319 161
0 0.65200001 0.090310693 1.6602073e-38 320 161
0.0011431733 0.65200001 0.090310693 1.6509517e-38 321 161
0.0022863466 0.65200001 0.090310693 1.6601352e-38 322 161
0.0034295199 0.65200001 0.090310693 1.6601352e-38 323 161
0.0045726933 0.65200001 0.090310693 1.6417321e-38 324 161
0.0057246331 0.653 0.090449199 1.6325126e-38 325 161
0.0068800794 0.65399998 0.09058772 1.6324407e-38 326 161
0.0080267601 0.65399998 0.09058772 1.6416602e-38 327 161
0.0092155198 0.65700001 0.091003254 1.6048896e-38 328 161
0.01038324 0.65799999 0.091141768 1.5956701e-38 329 161
0.011536933 0.65799999 0.091141768 1.6232564e-38 330 161
0.012748486 0.66100001 0.091557316 1.6140369e-38 331 161
0.01392848 0.662 0.091695823 1.6047447e-38 332 161
0.015089186 0.662 0.091695823 1.5863056e-38 333 161
0.016249891 0.662 0.091695823 1.586197e-38 334 161
0.017410601 0.662 0.091695823 1.567722e-38 335 161
0.018571306 0.662 0.091695823 1.5584659e-38 336 161
0.019732011 0.662 0.091695823 1.4477951e-38 337 161
0.020892721 0.662 0.091695823 1.3460908e-38 338 161
-0.032499783 0.662 0.090535119 1.6692819e-38 292 162
-0.031291738 0.66100001 0.090398364 1.6785015e-38 293 162
-0.030132787 0.66100001 0.090398364 1.6784662e-38 294 162
-0.028886165 0.65899998 0.090124831 1.6876859e-38 295 162
-0.027688639 0.65799999 0.089988075 1.6877578e-38 296 162
-0.026494619 0.65700001 0.08985132 1.6877578e-38 297 162
-0.025265532 0.65499997 0.089577794 1.6694266e-38 298 162
-0.024117097 0.65499997 0.089577794 1.6694266e-38 299 162
-0.022968665 0.65499997 0.089577794 1.6419121e-38 300 162
-0.021820232 0.65499997 0.089577794 1.6419121e-38 301 162
-0.020640239 0.65399998 0.089441031 1.6235811e-38 302 162
-0.019463753 0.653 0.089304276 1.6235811e-38 303 162
-0.018318826 0.653 0.089304276 1.6694634e-38 304 162
-0.017173899 0.653 0.089304276 1.6694634e-38 305 162
-0.016028972 0.653 0.089304276 1.6603517e-38 306 162
-0.014861252 0.65200001 0.089167513 1.6603517e-38 307 162
-0.01371808 0.65200001 0.089167513 1.6695716e-38 308 162
-0.012536332 0.64999998 0.088893995 1.6695716e-38 309 162
-0.011396666 0.64999998 0.088893995 1.6696079e-38 310 162
-0.010256999 0.64999998 0.088893995 1.6696079e-38 311 162
-0.0091173323 0.64999998 0.088893995 1.6603883e-38 312 162
-0.0079776663 0.64999998 0.088893995 1.6511688e-38 313 162
-0.0068590399 0.65200001 0.089167513 1.6604236e-38 314 162
-0.0057158666 0.65200001 0.089167513 1.6512041e-38 315 162
-0.0045726933 0.65200001 0.089167513 1.6603515e-38 316 162
-0.0034295199 0.65200001 0.089167513 1.6511319e-38 317 162
-0.0022863466 0.65200001 0.089167513 1.6235455e-38 318 162
-0.0011431733 0.65200001 0.089167513 1.6051063e-38 319 162
0 0.65200001 0.089167513 1.6326208e-38 320 162
0.0011431733 0.65200001 0.089167513 1.6234012e-38 321 162
0.0022863466 0.65200001 0.089167513 1.6234009e-38 322 162
0.0034295199 0.65200001 0.089167513 1.6234009e-38 323 162
0.0045797066 0.653 0.089304276 1.6325129e-38 324 162
0.0057246331 0.653 0.089304276 1.6048543e-38 325 162
0.0068905996 0.65499997 0.089577794 1.6048899e-38 326 162
0.0080635799 0.65700001 0.08985132 1.6048899e-38 327 162
0.0092155198 0.65700001 0.08985132 1.5956701e-38 328 162
0.010399019 0.65899998 0.090124831 1.5864503e-38 329 162
0.011589534 0.66100001 0.090398364 1.5773385e-38 330 162
0.012767773 0.662 0.090535119 1.5681188e-38 331 162
0.01392848 0.662 0.090535119 1.5955252e-38 332 162
0.015089186 0.662 0.090535119 1.5863056e-38 333 162
0.016274439 0.66299999 0.090671875 1.5677942e-38 334 162
0.017436899 0.66299999 0.090671875 1.5401715e-38 335 162
0.018571306 0.662 0.090535119 1.5216954e-38 336 162
0.019732011 0.662 0.090535119 1.4110247e-38 337 162
0.020892721 0.662 0.090535119 1.3185753e-38 338 162
-0.032548878 0.66299999 0.089509413 1.6508072e-38 292 163
-0.031339079 0.662 0.089374408 1.6600268e-38 293 163
-0.030132787 0.66100001 0.089239404 1.6692466e-38 294 163
-0.028973831 0.66100001 0.089239404 1.6876859e-38 295 163
-0.027730718 0.65899998 0.088969387 1.660207e-38 296 163
-0.026494619 0.65700001 0.088699378 1.660207e-38 297 163
-0.025265532 0.65499997 0.088429362 1.6327281e-38 298 163
-0.024117097 0.65499997 0.088429362 1.6327281e-38 299 163
-0.022933599 0.65399998 0.088294357 1.6326925e-38 300 163
-0.021786919 0.65399998 0.088294357 1.6326925e-38 301 163
-0.020640239 0.65399998 0.088294357 1.6326928e-38 302 163
-0.019493559 0.65399998 0.088294357 1.6326928e-38 303 163
-0.01834688 0.65399998 0.088294357 1.6602083e-38 304 163
-0.017173899 0.653 0.088159345 1.6602083e-38 305 163
-0.016028972 0.653 0.088159345 1.6419489e-38 306 163
-0.014861252 0.65200001 0.088024348 1.6419489e-38 307 163
-0.01371808 0.65200001 0.088024348 1.6603164e-38 308 163
-0.012574906 0.65200001 0.088024348 1.6603164e-38 309 163
-0.011431733 0.65200001 0.088024348 1.6511685e-38 310 163
-0.01028856 0.65200001 0.088024348 1.6511685e-38 311 163
-0.0091453865 0.65200001 0.088024348 1.6236177e-38 312 163
-0.0080022132 0.65200001 0.088024348 1.6236177e-38 313 163
-0.0068590399 0.65200001 0.088024348 1.6419845e-38 314 163
-0.0057246331 0.653 0.088159345 1.6419845e-38 315 163
-0.0045797066 0.653 0.088159345 1.6511322e-38 316 163
-0.0034347798 0.653 0.088159345 1.6419126e-38 317 163
-0.0022898533 0.653 0.088159345 1.6326572e-38 318 163
-0.0011449266 0.653 0.088159345 1.6234375e-38 319 163
0 0.653 0.088159345 1.6234012e-38 320 163
0.0011431733 0.65200001 0.088024348 1.6141816e-38 321 163
0.0022863466 0.65200001 0.088024348 1.6234012e-38 322 163
0.0034295199 0.65200001 0.088024348 1.6141816e-38 323 163
0.0045797066 0.653 0.088159345 1.6048543e-38 324 163
0.0057333997 0.65399998 0.088294357 1.5956347e-38 325 163
0.0068905996 0.65499997 0.088429362 1.5955983e-38 326 163
0.0080635799 0.65700001 0.088699378 1.5955983e-38 327 163
0.0092295464 0.65799999 0.088834383 1.595598e-38 328 163
0.010399019 0.65899998 0.088969387 1.595598e-38 329 163
0.011589534 0.66100001 0.089239404 1.5772305e-38 330 163
0.012767773 0.662 0.089374408 1.5680109e-38 331 163
0.01392848 0.662 0.089374408 1.5679388e-38 332 163
0.015089186 0.662 0.089374408 1.5494996e-38 333 163
0.016274439 0.66299999 0.089509413 1.5585743e-38 334 163
0.017436899 0.66299999 0.089509413 1.5309516e-38 335 163
0.018571306 0.662 0.089374408 1.4940724e-38 336 163
0.019732011 0.662 0.089374408 1.4019128e-38 337 163
-0.032548878 0.66299999 0.088346958 1.6414437e-38 292 164
-0.031339079 0.662 0.088213705 1.6690666e-38 293 164
-0.030132787 0.66100001 0.088080451 1.6416958e-38 294 164
-0.028973831 0.66100001 0.088080451 1.6509154e-38 295 164
-0.027730718 0.65899998 0.087813944 1.6417321e-38 296 164
-0.026534945 0.65799999 0.08768069 1.6417321e-38 297 164
-0.025342681 0.65700001 0.087547436 1.6326205e-38 298 164
-0.024117097 0.65499997 0.087280929 1.6326205e-38 299 164
-0.022933599 0.65399998 0.087147675 1.650952e-38 300 164
-0.021786919 0.65399998 0.087147675 1.650952e-38 301 164
-0.020640239 0.65399998 0.087147675 1.6325852e-38 302 164
-0.019493559 0.65399998 0.087147675 1.6325852e-38 303 164
-0.01834688 0.65399998 0.087147675 1.6326575e-38 304 164
-0.017173899 0.653 0.087014422 1.6326575e-38 305 164
-0.016028972 0.653 0.087014422 1.6142906e-38 306 164
-0.014861252 0.65200001 0.086881176 1.6235461e-38 307 164
-0.01371808 0.65200001 0.086881176 1.6418773e-38 308 164
-0.012574906 0.65200001 0.086881176 1.6510969e-38 309 164
-0.011431733 0.65200001 0.086881176 1.6235458e-38 310 164
-0.01028856 0.65200001 0.086881176 1.6235458e-38 311 164
-0.0091594132 0.653 0.087014422 1.6235455e-38 312 164
-0.0080144862 0.653 0.087014422 1.6235455e-38 313 164
-0.0068695596 0.653 0.087014422 1.6235455e-38 314 164
-0.0057246331 0.653 0.087014422 1.614326e-38 315 164
-0.0045797066 0.653 0.087014422 1.6326572e-38 316 164
-0.0034347798 0.653 0.087014422 1.6234375e-38 317 164
-0.0022898533 0.653 0.087014422 1.6234731e-38 318 164
-0.0011449266 0.653 0.087014422 1.6050341e-38 319 164
0 0.653 0.087014422 1.6325126e-38 320 164
0.0011431733 0.65200001 0.086881176 1.6141095e-38 321 164
0.0022863466 0.65200001 0.086881176 1.6141097e-38 322 164
0.0034295199 0.65200001 0.086881176 1.6141097e-38 323 164
0.0045797066 0.653 0.087014422 1.5956347e-38 324 164
0.0057333997 0.65399998 0.087147675 1.586415e-38 325 164
0.0069116396 0.65700001 0.087547436 1.5863429e-38 326 164
0.0080758529 0.65799999 0.08768069 1.5955983e-38 327 164
0.009285653 0.662 0.088213705 1.5863785e-38 328 164
0.01043058 0.66100001 0.088080451 1.5863785e-38 329 164
0.011589534 0.66100001 0.088080451 1.5679393e-38 330 164
0.012767773 0.662 0.088213705 1.5679393e-38 331 164
0.01392848 0.662 0.088213705 1.5678672e-38 332 164
0.01518036 0.66600001 0.088746719 1.5494279e-38 333 164
0.016298985 0.66399997 0.088480204 1.5309879e-38 334 164
0.017436899 0.66299999 0.088346958 1.4941456e-38 335 164
0.018599359 0.66299999 0.088346958 1.5032204e-38 336 164
-0.032548878 0.66299999 0.087184496 1.6047097e-38 292 165
-0.031339079 0.662 0.087053001 1.6139293e-38 293 165
-0.030178372 0.662 0.087053001 1.6048899e-38 294 165
-0.029017664 0.662 0.087053001 1.6141095e-38 295 165
-0.027856959 0.662 0.087053001 1.6325129e-38 296 165
-0.026534945 0.65799999 0.086526997 1.6417324e-38 297 165
-0.025381252 0.65799999 0.086526997 1.6050341e-38 298 165
-0.024117097 0.65499997 0.086132489 1.6050341e-38 299 165
-0.022933599 0.65399998 0.086000994 1.6417324e-38 300 165
-0.021786919 0.65399998 0.086000994 1.6417324e-38 301 165
-0.020640239 0.65399998 0.086000994 1.6325852e-38 302 165
-0.019493559 0.65399998 0.086000994 1.6325852e-38 303 165
-0.01834688 0.65399998 0.086000994 1.6050709e-38 304 165
-0.017200198 0.65399998 0.086000994 1.6050709e-38 305 165
-0.016028972 0.653 0.085869491 1.6050709e-38 306 165
-0.014884046 0.653 0.085869491 1.6142906e-38 307 165
-0.013739119 0.653 0.085869491 1.6142906e-38 308 165
-0.012594193 0.653 0.085869491 1.6235461e-38 309 165
-0.011449266 0.653 0.085869491 1.6143981e-38 310 165
-0.010304339 0.653 0.085869491 1.6143981e-38 311 165
-0.0091594132 0.653 0.085869491 1.6143262e-38 312 165
-0.0080144862 0.653 0.085869491 1.6143262e-38 313 165
-0.0068800794 0.65399998 0.086000994 1.6143262e-38 314 165
-0.0057333997 0.65399998 0.086000994 1.6051065e-38 315 165
-0.0045867199 0.65399998 0.086000994 1.614326e-38 316 165
-0.0034400397 0.65399998 0.086000994 1.6051063e-38 317 165
-0.00229336 0.65399998 0.086000994 1.6234012e-38 318 165
-0.00114668 0.65399998 0.086000994 1.6141816e-38 319 165
0 0.653 0.085869491 1.6141097e-38 320 165
0.0011449266 0.653 0.085869491 1.6141097e-38 321 165
0.0022898533 0.653 0.085869491 1.5957069e-38 322 165
0.0034347798 0.653 0.085869491 1.5957069e-38 323 165
0.0045867199 0.65399998 0.086000994 1.586415e-38 324 165
0.0057596997 0.65700001 0.086395502 1.5771955e-38 325 165
0.0069221598 0.65799999 0.086526997 1.5771952e-38 326 165
0.0080758529 0.65799999 0.086526997 1.5771952e-38 327 165
0.009285653 0.662 0.087053001 1.5679756e-38 328 165
0.01044636 0.662 0.087053001 1.5679756e-38 329 165
0.011607066 0.662 0.087053001 1.5862706e-38 330 165
0.012767773 0.662 0.087053001 1.5862706e-38 331 165
0.01392848 0.662 0.087053001 1.5494996e-38 332 165
0.01518036 0.66600001 0.087578997 1.5310964e-38 333 165
0.016348081 0.66600001 0.087578997 1.521804e-38 334 165
0.017515799 0.66600001 0.087578997 1.4941453e-38 335 165
0.018683519 0.66600001 0.087578997 1.4940008e-38 336 165
-0.032548878 0.66299999 0.086022034 1.5771589e-38 292 166
-0.031339079 0.662 0.08589229 1.5863785e-38 293 166
-0.030178372 0.662 0.08589229 1.6139293e-38 294 166
-0.029017664 0.662 0.08589229 1.6324044e-38 295 166
-0.027856959 0.662 0.08589229 1.6141092e-38 296 166
-0.026575271 0.65899998 0.085503049 1.6417677e-38 297 166
-0.025419824 0.65899998 0.085503049 1.6050697e-38 298 166
-0.024190739 0.65700001 0.08524356 1.6050697e-38 299 166
-0.022933599 0.65399998 0.08485432 1.6417321e-38 300 166
-0.021786919 0.65399998 0.08485432 1.6417321e-38 301 166
-0.020640239 0.65399998 0.08485432 1.6234012e-38 302 166
-0.019493559 0.65399998 0.08485432 1.6326208e-38 303 166
-0.01843104 0.65700001 0.08524356 1.595887e-38 304 166
-0.0172791 0.65700001 0.08524356 1.6051065e-38 305 166
-0.01612716 0.65700001 0.08524356 1.6050709e-38 306 166
-0.014929632 0.65499997 0.084984057 1.6050709e-38 307 166
-0.013781199 0.65499997 0.084984057 1.6142906e-38 308 166
-0.012613479 0.65399998 0.08485432 1.6235461e-38 309 166
-0.011466799 0.65399998 0.08485432 1.6143262e-38 310 166
-0.01032012 0.65399998 0.08485432 1.6143262e-38 311 166
-0.0091734398 0.65399998 0.08485432 1.605143e-38 312 166
-0.0080267601 0.65399998 0.08485432 1.605143e-38 313 166
-0.0068800794 0.65399998 0.08485432 1.6234022e-38 314 166
-0.0057421662 0.65499997 0.084984057 1.6234022e-38 315 166
-0.0045937328 0.65499997 0.084984057 1.6051063e-38 316 166
-0.0034400397 0.65399998 0.08485432 1.5958867e-38 317 166
-0.00229336 0.65399998 0.08485432 1.6050341e-38 318 166
-0.00114668 0.65399998 0.08485432 1.5958145e-38 319 166
0 0.65399998 0.08485432 1.6049262e-38 320 166
0.00114668 0.65399998 0.08485432 1.5957066e-38 321 166
0.00229336 0.65399998 0.08485432 1.5957069e-38 322 166
0.0034400397 0.65399998 0.08485432 1.5773038e-38 323 166
0.0045937328 0.65499997 0.084984057 1.5864153e-38 324 166
0.0057596997 0.65700001 0.08524356 1.5864153e-38 325 166
0.0069221598 0.65799999 0.085373305 1.5588287e-38 326 166
0.0080881258 0.65899998 0.085503049 1.5588287e-38 327 166
0.009285653 0.662 0.08589229 1.5495725e-38 328 166
0.01044636 0.662 0.08589229 1.5495725e-38 329 166
0.011607066 0.662 0.08589229 1.5679391e-38 330 166
0.012767773 0.662 0.08589229 1.5587195e-38 331 166
0.01392848 0.662 0.08589229 1.5494992e-38 332 166
0.015089186 0.662 0.08589229 1.512657e-38 333 166
0.016348081 0.66600001 0.086411275 1.5400636e-38 334 166
0.017515799 0.66600001 0.086411275 1.5124049e-38 335 166
0.018683519 0.66600001 0.086411275 1.475634e-38 336 166
-0.031433757 0.66399997 0.084987566 1.5495725e-38 293 167
-0.030269546 0.66399997 0.084987566 1.558864e-38 294 167
-0.02910533 0.66399997 0.084987566 1.5680835e-38 295 167
-0.027941117 0.66399997 0.084987566 1.5773754e-38 296 167
-0.026575271 0.65899998 0.084347598 1.5958145e-38 297 167
-0.025419824 0.65899998 0.084347598 1.6050697e-38 298 167
-0.024264378 0.65899998 0.084347598 1.6050697e-38 299 167
-0.023108931 0.65899998 0.084347598 1.6050697e-38 300 167
-0.021820232 0.65499997 0.083835632 1.6050697e-38 301 167
-0.020671798 0.65499997 0.083835632 1.6050344e-38 302 167
-0.019582979 0.65700001 0.084091611 1.6050344e-38 303 167
-0.01843104 0.65700001 0.084091611 1.5958514e-38 304 167
-0.0172791 0.65700001 0.084091611 1.5958514e-38 305 167
-0.01612716 0.65700001 0.084091611 1.6050712e-38 306 167
-0.014929632 0.65499997 0.083835632 1.6050712e-38 307 167
-0.013781199 0.65499997 0.083835632 1.6142906e-38 308 167
-0.012613479 0.65399998 0.083707638 1.6235461e-38 309 167
-0.011466799 0.65399998 0.083707638 1.6143262e-38 310 167
-0.01032012 0.65399998 0.083707638 1.6143262e-38 311 167
-0.0091734398 0.65399998 0.083707638 1.6142906e-38 312 167
-0.0080267601 0.65399998 0.083707638 1.6142906e-38 313 167
-0.0068905996 0.65499997 0.083835632 1.6326577e-38 314 167
-0.0057421662 0.65499997 0.083835632 1.6234022e-38 315 167
-0.0045937328 0.65499997 0.083835632 1.6234375e-38 316 167
-0.0034452998 0.65499997 0.083835632 1.6050344e-38 317 167
-0.0022968664 0.65499997 0.083835632 1.5958145e-38 318 167
-0.0011484332 0.65499997 0.083835632 1.5958145e-38 319 167
0 0.65499997 0.083835632 1.5773754e-38 320 167
0.00114668 0.65399998 0.083707638 1.5773754e-38 321 167
0.00229336 0.65399998 0.083707638 1.5681202e-38 322 167
0.0034400397 0.65399998 0.083707638 1.5681202e-38 323 167
0.0045937328 0.65499997 0.083835632 1.5588287e-38 324 167
0.0057596997 0.65700001 0.084091611 1.5588287e-38 325 167
0.0069221598 0.65799999 0.084219612 1.5588642e-38 326 167
0.0080881258 0.65899998 0.084347598 1.5403892e-38 327 167
0.0092716264 0.66100001 0.084603593 1.5495725e-38 328 167
0.01044636 0.662 0.084731586 1.5495725e-38 329 167
0.011607066 0.662 0.084731586 1.5587195e-38 330 167
0.012767773 0.662 0.084731586 1.5587195e-38 331 167
0.01392848 0.662 0.084731586 1.5494629e-38 332 167
0.016348081 0.66600001 0.08524356 1.5217321e-38 334 167
0.017515799 0.66600001 0.08524356 1.5032569e-38 335 167
-0.026575271 0.65899998 0.083192155 1.5957066e-38 297 168
-0.025419824 0.65899998 0.083192155 1.6049618e-38 298 168
-0.024264378 0.65899998 0.083192155 1.6141813e-38 299 168
-0.023108931 0.65899998 0.083192155 1.6050697e-38 300 168
-0.021820232 0.65499997 0.082687192 1.6050697e-38 301 168
-0.020671798 0.65499997 0.082687192 1.6050341e-38 302 168
-0.019523365 0.65499997 0.082687192 1.6050341e-38 303 168
-0.018374931 0.65499997 0.082687192 1.595887e-38 304 168
-0.0172791 0.65700001 0.082939677 1.595887e-38 305 168
-0.01612716 0.65700001 0.082939677 1.5958514e-38 306 168
-0.014929632 0.65499997 0.082687192 1.6050709e-38 307 168
-0.013781199 0.65499997 0.082687192 1.6142906e-38 308 168
-0.012632766 0.65499997 0.082687192 1.6235461e-38 309 168
-0.011484332 0.65499997 0.082687192 1.6143981e-38 310 168
-0.010335899 0.65499997 0.082687192 1.6143981e-38 311 168
-0.0091874655 0.65499997 0.082687192 1.6143981e-38 312 168
-0.008039033 0.65499997 0.082687192 1.6051786e-38 313 168
-0.0068905996 0.65499997 0.082687192 1.6051065e-38 314 168
-0.0057421662 0.65499997 0.082687192 1.6051065e-38 315 168
-0.0046077599 0.65700001 0.082939677 1.6234378e-38 316 168
-0.0034452998 0.65499997 0.082687192 1.6050346e-38 317 168
-0.0022968664 0.65499997 0.082687192 1.5866671e-38 318 168
-0.0011484332 0.65499997 0.082687192 1.5774476e-38 319 168
0 0.65499997 0.082687192 1.586595e-38 320 168
0.0011484332 0.65499997 0.082687192 1.5773754e-38 321 168
0.0022968664 0.65499997 0.082687192 1.5681558e-38 322 168
0.0034452998 0.65499997 0.082687192 1.5589361e-38 323 168
0.0046077599 0.65700001 0.082939677 1.5588642e-38 324 168
0.0057596997 0.65700001 0.082939677 1.5588642e-38 325 168
0.0069221598 0.65799999 0.08306592 1.5679759e-38 326 168
0.0080881258 0.65899998 0.083192155 1.5495728e-38 327 168
0.0092716264 0.66100001 0.08344464 1.5679037e-38 328 168
0.01044636 0.662 0.083570883 1.5586842e-38 329 168
0.011607066 0.662 0.083570883 1.5587192e-38 330 168
0.012767773 0.662 0.083570883 1.5494996e-38 331 168
-0.026696252 0.662 0.082410172 1.5773038e-38 297 169
-0.025496973 0.66100001 0.08228568 1.5957066e-38 298 169
-0.02433802 0.66100001 0.08228568 1.6049262e-38 299 169
-0.023179067 0.66100001 0.08228568 1.6049262e-38 300 169
-0.022020113 0.66100001 0.08228568 1.6141816e-38 301 169
-0.020671798 0.65499997 0.081538759 1.5866315e-38 302 169
-0.019523365 0.65499997 0.081538759 1.595887e-38 303 169
-0.018374931 0.65499997 0.081538759 1.5867753e-38 304 169
-0.0172791 0.65700001 0.081787735 1.5775199e-38 305 169
-0.01612716 0.65700001 0.081787735 1.6051065e-38 306 169
-0.014929632 0.65499997 0.081538759 1.6143262e-38 307 169
-0.013781199 0.65499997 0.081538759 1.6142906e-38 308 169
-0.012632766 0.65499997 0.081538759 1.6142906e-38 309 169
-0.011484332 0.65499997 0.081538759 1.6143981e-38 310 169
-0.010335899 0.65499997 0.081538759 1.6143981e-38 311 169
-0.0091874655 0.65499997 0.081538759 1.6143262e-38 312 169
-0.008039033 0.65499997 0.081538759 1.6143262e-38 313 169
-0.0068905996 0.65499997 0.081538759 1.6418054e-38 314 169
-0.0057596997 0.65700001 0.081787735 1.6418054e-38 315 169
-0.0046077599 0.65700001 0.081787735 1.6325854e-38 316 169
-0.0034452998 0.65499997 0.081538759 1.6233659e-38 317 169
-0.0022968664 0.65499997 0.081538759 1.5958148e-38 318 169
-0.00115194 0.65700001 0.081787735 1.5958148e-38 319 169
0 0.65499997 0.081538759 1.5773754e-38 320 169
0.0011484332 0.65499997 0.081538759 1.5773754e-38 321 169
0.0023038799 0.65700001 0.081787735 1.5681558e-38 322 169
0.0034558198 0.65700001 0.081787735 1.5589361e-38 323 169
0.0046077599 0.65700001 0.081787735 1.558864e-38 324 169
0.0057596997 0.65700001 0.081787735 1.5496444e-38 325 169
0.0069221598 0.65799999 0.08191222 1.5496444e-38 326 169
0.0080881258 0.65899998 0.082036704 1.5312053e-38 327 169
0.0092716264 0.66100001 0.08228568 1.5586123e-38 328 169
0.01044636 0.662 0.082410172 1.5586123e-38 329 169
0.011607066 0.662 0.082410172 1.5586476e-38 330 169
0.012767773 0.662 0.082410172 1.5586476e-38 331 169
0.013970559 0.66399997 0.08265914 1.558539e-38 332 169
-0.026696252 0.662 0.081249461 1.5680838e-38 297 170
-0.025535546 0.662 0.081249461 1.5773035e-38 298 170
-0.02433802 0.66100001 0.081126735 1.5773035e-38 299 170
-0.023179067 0.66100001 0.081126735 1.5773757e-38 300 170
-0.021953486 0.65899998 0.08088126 1.5865952e-38 301 170
-0.020798039 0.65899998 0.08088126 1.577412e-38 302 170
-0.019523365 0.65499997 0.080390327 1.595887e-38 303 170
-0.018374931 0.65499997 0.080390327 1.5775204e-38 304 170
-0.0172791 0.65700001 0.080635801 1.58674e-38 305 170
-0.01612716 0.65700001 0.080635801 1.6050712e-38 306 170
-0.01497522 0.65700001 0.080635801 1.6050712e-38 307 170
-0.013823279 0.65700001 0.080635801 1.6142906e-38 308 170
-0.01267134 0.65700001 0.080635801 1.6142906e-38 309 170
-0.011484332 0.65499997 0.080390327 1.6326575e-38 310 170
-0.010335899 0.65499997 0.080390327 1.641877e-38 311 170
-0.0091874655 0.65499997 0.080390327 1.6326575e-38 312 170
-0.008039033 0.65499997 0.080390327 1.6326575e-38 313 170
-0.0068905996 0.65499997 0.080390327 1.6326575e-38 314 170
-0.0057596997 0.65700001 0.080635801 1.6234378e-38 315 170
-0.0046077599 0.65700001 0.080635801 1.6234375e-38 316 170
-0.0034558198 0.65700001 0.080635801 1.6050344e-38 317 170
-0.0023038799 0.65700001 0.080635801 1.6050697e-38 318 170
-0.00115194 0.65700001 0.080635801 1.5958501e-38 319 170
0 0.65700001 0.080635801 1.5957422e-38 320 170
0.00115194 0.65700001 0.080635801 1.5957422e-38 321 170
0.0023038799 0.65700001 0.080635801 1.5681556e-38 322 170
0.0034558198 0.65700001 0.080635801 1.5589359e-38 323 170
0.0046077599 0.65700001 0.080635801 1.549716e-38 324 170
0.0057596997 0.65700001 0.080635801 1.5313129e-38 325 170
0.0069221598 0.65799999 0.080758527 1.5404246e-38 326 170
0.0080881258 0.65899998 0.08088126 1.5404246e-38 327 170
0.0092716264 0.66100001 0.081126735 1.5494646e-38 328 170
0.01044636 0.662 0.081249461 1.5494646e-38 329 170
0.0116246 0.66299999 0.081372194 1.5494279e-38 330 170
0.012806346 0.66399997 0.081494927 1.5401725e-38 331 170
-0.025535546 0.662 0.080088757 1.5680838e-38 298 171
-0.024374841 0.662 0.080088757 1.5680838e-38 299 171
-0.023179067 0.66100001 0.079967782 1.5773757e-38 300 171
-0.021953486 0.65899998 0.079725809 1.5773757e-38 301 171
-0.020798039 0.65899998 0.079725809 1.5865597e-38 302 171
-0.019582979 0.65700001 0.079483859 1.5958151e-38 303 171
-0.01843104 0.65700001 0.079483859 1.5773767e-38 304 171
-0.0172791 0.65700001 0.079483859 1.5958517e-38 305 171
-0.01612716 0.65700001 0.079483859 1.5867397e-38 306 171
-0.01497522 0.65700001 0.079483859 1.5867397e-38 307 171
-0.013823279 0.65700001 0.079483859 1.6234022e-38 308 171
-0.01267134 0.65700001 0.079483859 1.6234022e-38 309 171
-0.011519399 0.65700001 0.079483859 1.6326575e-38 310 171
-0.01036746 0.65700001 0.079483859 1.641877e-38 311 171
-0.0092155198 0.65700001 0.079483859 1.6143262e-38 312 171
-0.0080635799 0.65700001 0.079483859 1.6143262e-38 313 171
-0.0069116396 0.65700001 0.079483859 1.6143262e-38 314 171
-0.0057596997 0.65700001 0.079483859 1.6051065e-38 315 171
-0.0046077599 0.65700001 0.079483859 1.605106e-38 316 171
-0.0034558198 0.65700001 0.079483859 1.5958864e-38 317 171
-0.0023038799 0.65700001 0.079483859 1.6050341e-38 318 171
-0.00115194 0.65700001 0.079483859 1.586595e-38 319 171
0 0.65700001 0.079483859 1.6049262e-38 320 171
0.00115194 0.65700001 0.079483859 1.5773035e-38 321 171
0.0023038799 0.65700001 0.079483859 1.5681556e-38 322 171
0.0034558198 0.65700001 0.079483859 1.5589359e-38 323 171
0.0046077599 0.65700001 0.079483859 1.5496441e-38 324 171
0.0057596997 0.65700001 0.079483859 1.5404246e-38 325 171
0.0069221598 0.65799999 0.079604842 1.5404248e-38 326 171
0.0081126727 0.66100001 0.079967782 1.5312053e-38 327 171
0.009285653 0.662 0.080088757 1.5311334e-38 328 171
0.01044636 0.662 0.080088757 1.5311334e-38 329 171
0.0116246 0.66299999 0.080209732 1.5310608e-38 330 171
0.012806346 0.66399997 0.080330715 1.5310608e-38 331 171
0.014033679 0.667 0.080693655 1.5402081e-38 332 171
0.015271533 0.67000002 0.081056595 1.5217689e-38 333 171
-0.025574118 0.66299999 0.079047278 1.5312781e-38 298 172
-0.024374841 0.662 0.078928046 1.5589008e-38 299 172
-0.023214132 0.662 0.078928046 1.5681205e-38 300 172
-0.022020113 0.66100001 0.078808829 1.5773401e-38 301 172
-0.020798039 0.65899998 0.078570373 1.5773404e-38 302 172
-0.019642593 0.65899998 0.078570373 1.5865599e-38 303 172
-0.018459093 0.65799999 0.078451142 1.568265e-38 304 172
-0.017305398 0.65799999 0.078451142 1.5775204e-38 305 172
-0.01612716 0.65700001 0.078331918 1.577592e-38 306 172
-0.01497522 0.65700001 0.078331918 1.577592e-38 307 172
-0.013823279 0.65700001 0.078331918 1.6050709e-38 308 172
-0.01267134 0.65700001 0.078331918 1.6142906e-38 309 172
-0.011519399 0.65700001 0.078331918 1.6326577e-38 310 172
-0.01036746 0.65700001 0.078331918 1.6326577e-38 311 172
-0.0092155198 0.65700001 0.078331918 1.6326575e-38 312 172
-0.0080635799 0.65700001 0.078331918 1.6326575e-38 313 172
-0.0069116396 0.65700001 0.078331918 1.6051065e-38 314 172
-0.0057684663 0.65799999 0.078451142 1.6051065e-38 315 172
-0.0046147732 0.65799999 0.078451142 1.605106e-38 316 172
-0.0034610799 0.65799999 0.078451142 1.5958864e-38 317 172
-0.0023073866 0.65799999 0.078451142 1.6141816e-38 318 172
-0.0011536933 0.65799999 0.078451142 1.6049262e-38 319 172
0 0.65799999 0.078451142 1.5773754e-38 320 172
0.0011536933 0.65799999 0.078451142 1.5773754e-38 321 172
0.0023108933 0.65899998 0.078570373 1.5773032e-38 322 172
0.0034610799 0.65799999 0.078451142 1.5680835e-38 323 172
0.0046147732 0.65799999 0.078451142 1.5679756e-38 324 172
0.0057684663 0.65799999 0.078451142 1.5495725e-38 325 172
0.00695372 0.66100001 0.078808829 1.5403527e-38 326 172
0.0081126727 0.66100001 0.078808829 1.5403527e-38 327 172
0.0092996797 0.66299999 0.079047278 1.531205e-38 328 172
0.01046214 0.66299999 0.079047278 1.5128019e-38 329 172
0.011642133 0.66399997 0.079166502 1.5310608e-38 330 172
0.01284492 0.66600001 0.079404958 1.5218412e-38 331 172
0.014033679 0.667 0.079524182 1.5309885e-38 332 172
0.015271533 0.67000002 0.079881869 1.5217689e-38 333 172
-0.025612691 0.66399997 0.078002289 1.549681e-38 298 173
-0.024374841 0.662 0.077767342 1.549681e-38 299 173
-0.023214132 0.662 0.077767342 1.5773038e-38 300 173
-0.022020113 0.66100001 0.077649876 1.5957069e-38 301 173
-0.02086116 0.66100001 0.077649876 1.5773401e-38 302 173
-0.019702207 0.66100001 0.077649876 1.5865597e-38 303 173
-0.018543253 0.66100001 0.077649876 1.5683003e-38 304 173
-0.017331699 0.65899998 0.077414922 1.5775199e-38 305 173
-0.016151706 0.65799999 0.077297449 1.5775199e-38 306 173
-0.01497522 0.65700001 0.077179976 1.5867753e-38 307 173
-0.013823279 0.65700001 0.077179976 1.6050709e-38 308 173
-0.01267134 0.65700001 0.077179976 1.6142906e-38 309 173
-0.011519399 0.65700001 0.077179976 1.6142906e-38 310 173
-0.01036746 0.65700001 0.077179976 1.6142906e-38 311 173
-0.0092155198 0.65700001 0.077179976 1.6234378e-38 312 173
-0.0080758529 0.65799999 0.077297449 1.6234378e-38 313 173
-0.0069221598 0.65799999 0.077297449 1.6234378e-38 314 173
-0.0057684663 0.65799999 0.077297449 1.6234378e-38 315 173
-0.0046217865 0.65899998 0.077414922 1.6234375e-38 316 173
-0.0034663398 0.65899998 0.077414922 1.6050344e-38 317 173
-0.0023108933 0.65899998 0.077414922 1.5958145e-38 318 173
-0.0011554466 0.65899998 0.077414922 1.586595e-38 319 173
0 0.65899998 0.077414922 1.5773754e-38 320 173
0.0011554466 0.65899998 0.077414922 1.5681558e-38 321 173
0.0023108933 0.65899998 0.077414922 1.5680838e-38 322 173
0.0034663398 0.65899998 0.077414922 1.5588642e-38 323 173
0.0046217865 0.65899998 0.077414922 1.5679756e-38 324 173
0.0057772328 0.65899998 0.077414922 1.5495725e-38 325 173
0.0069642398 0.662 0.077767342 1.531205e-38 326 173
0.0081249457 0.662 0.077767342 1.531205e-38 327 173
0.0092996797 0.66299999 0.077884816 1.5311331e-38 328 173
0.010477919 0.66399997 0.078002289 1.5311331e-38 329 173
0.011642133 0.66399997 0.078002289 1.5218412e-38 330 173
0.01284492 0.66600001 0.078237243 1.5218412e-38 331 173
0.014033679 0.667 0.078354709 1.5309882e-38 332 173
-0.025535546 0.662 0.076606639 1.5312781e-38 298 174
-0.024374841 0.662 0.076606639 1.5496813e-38 299 174
-0.023214132 0.662 0.076606639 1.5588289e-38 300 174
-0.022020113 0.66100001 0.076490916 1.5772682e-38 301 174
-0.02086116 0.66100001 0.076490916 1.5681205e-38 302 174
-0.019702207 0.66100001 0.076490916 1.5865597e-38 303 174
-0.018543253 0.66100001 0.076490916 1.5591526e-38 304 174
-0.0173843 0.66100001 0.076490916 1.5683722e-38 305 174
-0.016176252 0.65899998 0.076259479 1.5775918e-38 306 174
-0.015020805 0.65899998 0.076259479 1.5775918e-38 307 174
-0.013823279 0.65700001 0.076028034 1.605143e-38 308 174
-0.01267134 0.65700001 0.076028034 1.605143e-38 309 174
-0.011519399 0.65700001 0.076028034 1.605143e-38 310 174
-0.01036746 0.65700001 0.076028034 1.5867397e-38 311 174
-0.0092155198 0.65700001 0.076028034 1.6051065e-38 312 174
-0.0080758529 0.65799999 0.076143757 1.6051065e-38 313 174
-0.0069221598 0.65799999 0.076143757 1.6051065e-38 314 174
-0.0057772328 0.65899998 0.076259479 1.595887e-38 315 174
-0.0046217865 0.65899998 0.076259479 1.5958867e-38 316 174
-0.00347686 0.66100001 0.076490916 1.5958867e-38 317 174
-0.0023179066 0.66100001 0.076490916 1.6141816e-38 318 174
-0.0011589533 0.66100001 0.076490916 1.6049262e-38 319 174
0 0.65899998 0.076259479 1.5773751e-38 320 174
0.0011554466 0.65899998 0.076259479 1.5773751e-38 321 174
0.0023179066 0.66100001 0.076490916 1.5589359e-38 322 174
0.00347686 0.66100001 0.076490916 1.5497163e-38 323 174
0.0046358132 0.66100001 0.076490916 1.5680112e-38 324 174
0.0057947668 0.66100001 0.076490916 1.5495722e-38 325 174
0.0069642398 0.662 0.076606639 1.5403883e-38 326 174
0.0081249457 0.662 0.076606639 1.5403883e-38 327 174
0.0092996797 0.66299999 0.076722354 1.5311328e-38 328 174
0.010477919 0.66399997 0.076838076 1.5311328e-38 329 174
0.011677199 0.66600001 0.077069521 1.5402081e-38 330 174
0.012864206 0.667 0.077185236 1.5402081e-38 331 174
0.014033679 0.667 0.077185236 1.512657e-38 332 174
-0.033137999 0.67500001 0.076927498 1.7701524e-39 292 175
-0.031812478 0.67199999 0.076585598 3.9832063e-39 293 175
-0.030634239 0.67199999 0.076585598 1.494151e-38 294 175
-0.025574118 0.66299999 0.075559892 1.5220583e-38 298 175
-0.024411658 0.66299999 0.075559892 1.549681e-38 299 175
-0.0232492 0.66299999 0.075559892 1.5589005e-38 300 175
-0.022053426 0.662 0.075445928 1.5681202e-38 301 175
-0.020892721 0.662 0.075445928 1.5681202e-38 302 175
-0.019702207 0.66100001 0.075331964 1.5865952e-38 303 175
-0.018543253 0.66100001 0.075331964 1.5774476e-38 304 175
-0.0173843 0.66100001 0.075331964 1.5958867e-38 305 175
-0.016176252 0.65899998 0.075104028 1.5775555e-38 306 175
-0.015020805 0.65899998 0.075104028 1.586775e-38 307 175
-0.01384432 0.65799999 0.074990064 1.5867753e-38 308 175
-0.012690626 0.65799999 0.074990064 1.6051786e-38 309 175
-0.011536933 0.65799999 0.074990064 1.6051786e-38 310 175
-0.01038324 0.65799999 0.074990064 1.5867753e-38 311 175
-0.0092295464 0.65799999 0.074990064 1.5867753e-38 312 175
-0.0080758529 0.65799999 0.074990064 1.5867753e-38 313 175
-0.0069221598 0.65799999 0.074990064 1.5958867e-38 314 175
-0.0057772328 0.65899998 0.075104028 1.5958867e-38 315 175
-0.0046358132 0.66100001 0.075331964 1.5958867e-38 316 175
-0.00347686 0.66100001 0.075331964 1.5958867e-38 317 175
-0.0023179066 0.66100001 0.075331964 1.6141816e-38 318 175
-0.0011589533 0.66100001 0.075331964 1.5957066e-38 319 175
0 0.66100001 0.075331964 1.5773751e-38 320 175
0.0011589533 0.66100001 0.075331964 1.5681556e-38 321 175
0.0023179066 0.66100001 0.075331964 1.5589359e-38 322 175
0.00347686 0.66100001 0.075331964 1.5497163e-38 323 175
0.0046358132 0.66100001 0.075331964 1.5679756e-38 324 175
0.0057947668 0.66100001 0.075331964 1.540353e-38 325 175
0.0069642398 0.662 0.075445928 1.540353e-38 326 175
0.0081372196 0.66299999 0.075559892 1.540353e-38 327 175
0.0092996797 0.66299999 0.075559892 1.5311331e-38 328 175
0.010477919 0.66399997 0.075673863 1.5311331e-38 329 175
0.011677199 0.66600001 0.075901799 1.5310611e-38 330 175
0.012864206 0.667 0.076015763 1.5218415e-38 331 175
-0.033137999 0.67500001 0.075743996 6.9241058e-39 292 176
-0.031812478 0.67199999 0.075407356 5.5411713e-39 293 176
-0.030588651 0.671 0.075295143 1.4666e-38 294 176
-0.029368332 0.67000002 0.07518293 1.5034782e-38 295 176
-0.028193599 0.67000002 0.07518293 1.4577011e-38 296 176
-0.027018867 0.67000002 0.07518293 1.485324e-38 297 176
-0.02568984 0.66600001 0.074734077 1.5129106e-38 298 176
-0.024411658 0.66299999 0.074397437 1.5313498e-38 299 176
-0.0232492 0.66299999 0.074397437 1.5589361e-38 300 176
-0.02208674 0.66299999 0.074397437 1.5681558e-38 301 176
-0.020924279 0.66299999 0.074397437 1.5590086e-38 302 176
-0.019702207 0.66100001 0.074173011 1.5590086e-38 303 176
-0.018543253 0.66100001 0.074173011 1.577412e-38 304 176
-0.017410601 0.662 0.074285224 1.5866315e-38 305 176
-0.016225345 0.66100001 0.074173011 1.5775199e-38 306 176
-0.015020805 0.65899998 0.073948584 1.5775199e-38 307 176
-0.01384432 0.65799999 0.073836371 1.5775199e-38 308 176
-0.012690626 0.65799999 0.073836371 1.5867753e-38 309 176
-0.011536933 0.65799999 0.073836371 1.5775918e-38 310 176
-0.01038324 0.65799999 0.073836371 1.5775918e-38 311 176
-0.0092295464 0.65799999 0.073836371 1.5775199e-38 312 176
-0.0080758529 0.65799999 0.073836371 1.5775199e-38 313 176
-0.0069221598 0.65799999 0.073836371 1.5775199e-38 314 176
-0.0057772328 0.65899998 0.073948584 1.5775199e-38 315 176
-0.0046358132 0.66100001 0.074173011 1.5775555e-38 316 176
-0.00347686 0.66100001 0.074173011 1.5683359e-38 317 176
-0.0023179066 0.66100001 0.074173011 1.6141816e-38 318 176
-0.0011589533 0.66100001 0.074173011 1.6049262e-38 319 176
0 0.66100001 0.074173011 1.5773035e-38 320 176
0.0011589533 0.66100001 0.074173011 1.5773035e-38 321 176
0.0023179066 0.66100001 0.074173011 1.5588642e-38 322 176
0.00347686 0.66100001 0.074173011 1.5496447e-38 323 176
0.0046358132 0.66100001 0.074173011 1.567904e-38 324 176
0.0058035329 0.662 0.074285224 1.5586845e-38 325 176
0.0069747595 0.66299999 0.074397437 1.540353e-38 326 176
0.0081372196 0.66299999 0.074397437 1.540353e-38 327 176
0.0092996797 0.66299999 0.074397437 1.540353e-38 328 176
0.010477919 0.66399997 0.07450965 1.5311334e-38 329 176
0.011677199 0.66600001 0.074734077 1.5218059e-38 330 176
0.012864206 0.667 0.07484629 1.5218059e-38 331 176
-0.033137999 0.67500001 0.074560501 6.9266239e-39 292 177
-0.031812478 0.67199999 0.074229114 4.5295375e-39 293 177
-0.030588651 0.671 0.074118659 1.4205747e-38 294 177
-0.029368332 0.67000002 0.074008204 1.4851117e-38 295 177
-0.028193599 0.67000002 0.074008204 1.4852524e-38 296 177
-0.027018867 0.67000002 0.074008204 1.512875e-38 297 177
-0.02568984 0.66600001 0.073566355 1.5221302e-38 298 177
-0.024448479 0.66399997 0.07334543 1.5313498e-38 299 177
-0.023284266 0.66399997 0.07334543 1.5589361e-38 300 177
-0.022120051 0.66399997 0.07334543 1.5681558e-38 301 177
-0.020955838 0.66399997 0.07334543 1.5498246e-38 302 177
-0.019761819 0.66299999 0.073234983 1.5774473e-38 303 177
-0.018599359 0.66299999 0.073234983 1.5590807e-38 304 177
-0.017436899 0.66299999 0.073234983 1.5590807e-38 305 177
-0.016249891 0.662 0.07312452 1.5683006e-38 306 177
-0.015066394 0.66100001 0.073014058 1.5683006e-38 307 177
-0.013865359 0.65899998 0.072793134 1.5683722e-38 308 177
-0.012690626 0.65799999 0.072682679 1.5775918e-38 309 177
-0.011536933 0.65799999 0.072682679 1.5776274e-38 310 177
-0.01038324 0.65799999 0.072682679 1.5776274e-38 311 177
-0.0092295464 0.65799999 0.072682679 1.586775e-38 312 177
-0.0080881258 0.65899998 0.072793134 1.5775555e-38 313 177
-0.0069326796 0.65899998 0.072793134 1.5775555e-38 314 177
-0.0057947668 0.66100001 0.073014058 1.5775555e-38 315 177
-0.0046358132 0.66100001 0.073014058 1.5958867e-38 316 177
-0.00347686 0.66100001 0.073014058 1.5866671e-38 317 177
-0.0023179066 0.66100001 0.073014058 1.586595e-38 318 177
-0.0011589533 0.66100001 0.073014058 1.5773754e-38 319 177
0 0.66100001 0.073014058 1.5773035e-38 320 177
0.0011589533 0.66100001 0.073014058 1.5680838e-38 321 177
0.0023179066 0.66100001 0.073014058 1.5771955e-38 322 177
0.00347686 0.66100001 0.073014058 1.5679759e-38 323 177
0.0046428265 0.662 0.07312452 1.5403176e-38 324 177
0.0058035329 0.662 0.07312452 1.5310981e-38 325 177
0.0069747595 0.66299999 0.073234983 1.5127669e-38 326 177
0.0081372196 0.66299999 0.073234983 1.5127669e-38 327 177
0.0092996797 0.66299999 0.073234983 1.5310978e-38 328 177
0.010477919 0.66399997 0.07334543 1.5310978e-38 329 177
-0.033137999 0.67500001 0.073376998 1.2238184e-39 292 178
-0.03190716 0.67400002 0.073268294 9.4723152e-40 293 178
-0.030634239 0.67199999 0.073050871 1.4389062e-38 294 178
-0.029412165 0.671 0.072942175 1.5034432e-38 295 178
-0.028235679 0.671 0.072942175 1.4761044e-38 296 178
-0.027059194 0.671 0.072942175 1.4945435e-38 297 178
-0.025612691 0.66399997 0.072181225 1.5221302e-38 298 178
-0.024448479 0.66399997 0.072181225 1.5221302e-38 299 178
-0.023284266 0.66399997 0.072181225 1.5313498e-38 300 178
-0.022120051 0.66399997 0.072181225 1.549789e-38 301 178
-0.020955838 0.66399997 0.072181225 1.5590442e-38 302 178
-0.019791625 0.66399997 0.072181225 1.5590442e-38 303 178
-0.018627413 0.66399997 0.072181225 1.5590086e-38 304 178
-0.0174632 0.66399997 0.072181225 1.5774476e-38 305 178
-0.016274439 0.66299999 0.072072513 1.577412e-38 306 178
-0.015089186 0.662 0.071963809 1.595887e-38 307 178
-0.01390744 0.66100001 0.071855105 1.5775918e-38 308 178
-0.012748486 0.66100001 0.071855105 1.5775918e-38 309 178
-0.011554466 0.65899998 0.07163769 1.5867753e-38 310 178
-0.010399019 0.65899998 0.07163769 1.5775199e-38 311 178
-0.0092435731 0.65899998 0.07163769 1.5867753e-38 312 178
-0.0081126727 0.66100001 0.071855105 1.5867753e-38 313 178
-0.00695372 0.66100001 0.071855105 1.5775199e-38 314 178
-0.0057947668 0.66100001 0.071855105 1.5775199e-38 315 178
-0.0046428265 0.662 0.071963809 1.5866315e-38 316 178
-0.0034821199 0.662 0.071963809 1.5866315e-38 317 178
-0.0023214133 0.662 0.071963809 1.5865952e-38 318 178
-0.0011607066 0.662 0.071963809 1.5773757e-38 319 178
0 0.662 0.071963809 1.5681558e-38 320 178
0.0011607066 0.662 0.071963809 1.5589361e-38 321 178
0.0023214133 0.662 0.071963809 1.558864e-38 322 178
0.0034821199 0.662 0.071963809 1.5496444e-38 323 178
0.0046428265 0.662 0.071963809 1.5403892e-38 324 178
0.0058122999 0.66299999 0.072072513 1.5311697e-38 325 178
0.0069747595 0.66299999 0.072072513 1.5035833e-38 326 178
0.0081372196 0.66299999 0.072072513 1.5035833e-38 327 178
0.0093137063 0.66399997 0.072181225 1.5310978e-38 328 178
0.010477919 0.66399997 0.072181225 1.5310978e-38 329 178
-0.033137999 0.67500001 0.072193496 2.1074268e-40 292 179
-0.031954501 0.67500001 0.072193496 5.7916506e-40 293 179
-0.030725412 0.67400002 0.07208655 1.4664926e-38 294 179
-0.029455997 0.67199999 0.071872637 1.5125906e-38 295 179
-0.02827776 0.67199999 0.071872637 1.4577011e-38 296 179
-0.027099518 0.67199999 0.071872637 1.4945435e-38 297 179
-0.025844134 0.67000002 0.071658738 1.4762126e-38 298 179
-0.02452212 0.66600001 0.071230918 1.5038353e-38 299 179
-0.023354398 0.66600001 0.071230918 1.53135e-38 300 179
-0.02218668 0.66600001 0.071230918 1.5497893e-38 301 179
-0.02101896 0.66600001 0.071230918 1.5406416e-38 302 179
-0.019791625 0.66399997 0.071017005 1.5498612e-38 303 179
-0.018627413 0.66399997 0.071017005 1.5590091e-38 304 179
-0.0174632 0.66399997 0.071017005 1.5590091e-38 305 179
-0.016298985 0.66399997 0.071017005 1.5683006e-38 306 179
-0.015111978 0.66299999 0.070910059 1.5775202e-38 307 179
-0.01392848 0.662 0.070803106 1.5683725e-38 308 179
-0.012767773 0.662 0.070803106 1.5683725e-38 309 179
-0.011589534 0.66100001 0.070696153 1.5958514e-38 310 179
-0.01043058 0.66100001 0.070696153 1.6050709e-38 311 179
-0.0092716264 0.66100001 0.070696153 1.5867397e-38 312 179
-0.0081126727 0.66100001 0.070696153 1.5867397e-38 313 179
-0.0069642398 0.662 0.070803106 1.5775202e-38 314 179
-0.0058035329 0.662 0.070803106 1.5775202e-38 315 179
-0.0046428265 0.662 0.070803106 1.5866671e-38 316 179
-0.0034821199 0.662 0.070803106 1.5866671e-38 317 179
-0.0023214133 0.662 0.070803106 1.586595e-38 318 179
-0.0011607066 0.662 0.070803106 1.5773754e-38 319 179
0 0.662 0.070803106 1.5681556e-38 320 179
0.0011607066 0.662 0.070803106 1.5681556e-38 321 179
0.0023214133 0.662 0.070803106 1.5589356e-38 322 179
0.0034821199 0.662 0.070803106 1.5313129e-38 323 179
0.0046498398 0.66299999 0.070910059 1.5404248e-38 324 179
0.0058210664 0.66399997 0.071017005 1.5127663e-38 325 179
0.0069852793 0.66399997 0.071017005 1.5127666e-38 326 179
0.0081494926 0.66399997 0.071017005 1.5035469e-38 327 179
0.0093137063 0.66399997 0.071017005 1.5218778e-38 328 179
-0.033137999 0.67500001 0.071010001 4.4387937e-39 292 180
-0.031954501 0.67500001 0.071010001 4.9919674e-39 293 180
-0.030771 0.67500001 0.071010001 1.4756403e-38 294 180
-0.029412165 0.671 0.0705892 1.5217022e-38 295 180
-0.028193599 0.67000002 0.070483997 1.4577014e-38 296 180
-0.027018867 0.67000002 0.070483997 1.4761047e-38 297 180
-0.025844134 0.67000002 0.070483997 1.5128387e-38 298 180
-0.02452212 0.66600001 0.070063196 1.549681e-38 299 180
-0.023354398 0.66600001 0.070063196 1.5405693e-38 300 180
-0.02218668 0.66600001 0.070063196 1.5405693e-38 301 180
-0.02101896 0.66600001 0.070063196 1.5497893e-38 302 180
-0.019791625 0.66399997 0.069852799 1.5590089e-38 303 180
-0.018627413 0.66399997 0.069852799 1.5590091e-38 304 180
-0.017515799 0.66600001 0.070063196 1.5774123e-38 305 180
-0.016298985 0.66399997 0.069852799 1.568265e-38 306 180
-0.015134773 0.66399997 0.069852799 1.568265e-38 307 180
-0.013949519 0.66299999 0.069747597 1.5775204e-38 308 180
-0.012787059 0.66299999 0.069747597 1.5775204e-38 309 180
-0.011607066 0.662 0.069642402 1.5958514e-38 310 180
-0.01044636 0.662 0.069642402 1.6050709e-38 311 180
-0.009285653 0.662 0.069642402 1.5867397e-38 312 180
-0.0081249457 0.662 0.069642402 1.5775202e-38 313 180
-0.0069642398 0.662 0.069642402 1.5775202e-38 314 180
-0.0058035329 0.662 0.069642402 1.5775202e-38 315 180
-0.0046428265 0.662 0.069642402 1.5866315e-38 316 180
-0.0034821199 0.662 0.069642402 1.577412e-38 317 180
-0.0023214133 0.662 0.069642402 1.5773757e-38 318 180
-0.0011607066 0.662 0.069642402 1.5681202e-38 319 180
0 0.662 0.069642402 1.5773032e-38 320 180
0.0011607066 0.662 0.069642402 1.5680835e-38 321 180
0.0023249199 0.66299999 0.069747597 1.558864e-38 322 180
0.0034873798 0.66299999 0.069747597 1.5496444e-38 323 180
0.0046568532 0.66399997 0.069852799 1.5128385e-38 324 180
0.0058210664 0.66399997 0.069852799 1.5128385e-38 325 180
0.0069852793 0.66399997 0.069852799 1.5310978e-38 326 180
0.0081494926 0.66399997 0.069852799 1.5310978e-38 327 180
0.0093137063 0.66399997 0.069852799 1.5218778e-38 328 180
-0.031954501 0.67500001 0.069826499 3.8885094e-39 293 181
-0.030771 0.67500001 0.069826499 1.4387988e-38 294 181
-0.029412165 0.671 0.069412716 1.5125911e-38 295 181
-0.028193599 0.67000002 0.069309272 1.4760327e-38 296 181
-0.027018867 0.67000002 0.069309272 1.4852524e-38 297 181
-0.02568984 0.66600001 0.068895474 1.4945435e-38 298 181
-0.02452212 0.66600001 0.068895474 1.5130185e-38 299 181
-0.023354398 0.66600001 0.068895474 1.5313498e-38 300 181
-0.02218668 0.66600001 0.068895474 1.5405693e-38 301 181
-0.02101896 0.66600001 0.068895474 1.540534e-38 302 181
-0.019791625 0.66399997 0.068688579 1.5590091e-38 303 181
-0.018627413 0.66399997 0.068688579 1.5589735e-38 304 181
-0.017515799 0.66600001 0.068895474 1.5773767e-38 305 181
-0.016348081 0.66600001 0.068895474 1.5682653e-38 306 181
-0.01518036 0.66600001 0.068895474 1.5682653e-38 307 181
-0.013970559 0.66399997 0.068688579 1.5866321e-38 308 181
-0.012806346 0.66399997 0.068688579 1.5958517e-38 309 181
-0.0116246 0.66299999 0.068585135 1.5958514e-38 310 181
-0.01044636 0.662 0.068481691 1.6050709e-38 311 181
-0.009285653 0.662 0.068481691 1.5775202e-38 312 181
-0.0081249457 0.662 0.068481691 1.5775202e-38 313 181
-0.0069642398 0.662 0.068481691 1.5683369e-38 314 181
-0.0058035329 0.662 0.068481691 1.5591173e-38 315 181
-0.0046428265 0.662 0.068481691 1.5865597e-38 316 181
-0.0034821199 0.662 0.068481691 1.5773401e-38 317 181
-0.0023214133 0.662 0.068481691 1.5956347e-38 318 181
-0.00116246 0.66299999 0.068585135 1.5956347e-38 319 181
0 0.66299999 0.068585135 1.5680835e-38 320 181
0.00116246 0.66299999 0.068585135 1.558864e-38 321 181
0.0023284266 0.66399997 0.068688579 1.5497163e-38 322 181
0.0034926396 0.66399997 0.068688579 1.5313132e-38 323 181
0.0046568532 0.66399997 0.068688579 1.5495725e-38 324 181
0.0058385995 0.66600001 0.068895474 1.540353e-38 325 181
0.0069852793 0.66399997 0.068688579 1.5311334e-38 326 181
0.0081494926 0.66399997 0.068688579 1.5218778e-38 327 181
0.0093137063 0.66399997 0.068688579 1.5218778e-38 328 181
-0.030588651 0.671 0.068236224 1.392845e-38 294 182
-0.029412165 0.671 0.068236224 1.4942962e-38 295 182
-0.028193599 0.67000002 0.068134531 1.4852877e-38 296 182
-0.026938211 0.66799998 0.067931145 1.4945072e-38 297 182
-0.02568984 0.66600001 0.067727759 1.5221299e-38 298 182
-0.02452212 0.66600001 0.067727759 1.5313495e-38 299 182
-0.023354398 0.66600001 0.067727759 1.5405693e-38 300 182
-0.02218668 0.66600001 0.067727759 1.5405693e-38 301 182
-0.02101896 0.66600001 0.067727759 1.5406416e-38 302 182
-0.019791625 0.66399997 0.067524366 1.5498612e-38 303 182
-0.018627413 0.66399997 0.067524366 1.5589735e-38 304 182
-0.017515799 0.66600001 0.067727759 1.5773767e-38 305 182
-0.016348081 0.66600001 0.067727759 1.5682653e-38 306 182
-0.01518036 0.66600001 0.067727759 1.5682653e-38 307 182
-0.013970559 0.66399997 0.067524366 1.5775204e-38 308 182
-0.012806346 0.66399997 0.067524366 1.58674e-38 309 182
-0.0116246 0.66299999 0.067422673 1.5867397e-38 310 182
-0.01046214 0.66299999 0.067422673 1.5867397e-38 311 182
-0.0092996797 0.66299999 0.067422673 1.5683725e-38 312 182
-0.0081372196 0.66299999 0.067422673 1.5683725e-38 313 182
-0.0069747595 0.66299999 0.067422673 1.5683006e-38 314 182
-0.0058122999 0.66299999 0.067422673 1.5683006e-38 315 182
-0.0046498398 0.66299999 0.067422673 1.5865597e-38 316 182
-0.0034873798 0.66299999 0.067422673 1.5773401e-38 317 182
-0.0023249199 0.66299999 0.067422673 1.5773757e-38 318 182
-0.00116246 0.66299999 0.067422673 1.5681202e-38 319 182
0 0.66399997 0.067524366 1.5681558e-38 320 182
0.0011642133 0.66399997 0.067524366 1.5497166e-38 321 182
0.0023354399 0.66600001 0.067727759 1.5497166e-38 322 182
0.0035031599 0.66600001 0.067727759 1.5497166e-38 323 182
0.0046708798 0.66600001 0.067727759 1.5403892e-38 324 182
0.0058385995 0.66600001 0.067727759 1.5311697e-38 325 182
0.0070063197 0.66600001 0.067727759 1.5310978e-38 326 182
0.0081740404 0.66600001 0.067727759 1.5218781e-38 327 182
0.0093417596 0.66600001 0.067727759 1.5218778e-38 328 182
0.01050948 0.66600001 0.067727759 1.5218778e-38 329 182
0.011782399 0.67199999 0.068337917 1.5035822e-38 330 182
0.012960639 0.67199999 0.068337917 1.4943267e-38 331 182
0.01413888 0.67199999 0.068337917 1.5034018e-38 332 182
0.01531712 0.67199999 0.068337917 1.4849627e-38 333 182
0.01649536 0.67199999 0.068337917 1.4664513e-38 334 182
0.017673599 0.67199999 0.068337917 1.429609e-38 335 182
