# .PCD v.7 - Point Cloud Data file format
FIELDS x y z rgb imX imY
SIZE 4 4 4 4 4 4
TYPE F F F F F F
COUNT 1 1 1 1 1 1
WIDTH 854
HEIGHT 1
VIEWPOINT 0 0 0 1 0 0 0
POINTS 854
DATA ascii
-0.029017664 0.662 0.094017237 1.042465e-38 295 159
-0.027856959 0.662 0.094017237 1.0148786e-38 296 159
-0.026655925 0.66100001 0.093875214 1.0056589e-38 297 159
-0.025496973 0.66100001 0.093875214 1.0056589e-38 298 159
-0.02433802 0.66100001 0.093875214 9.9643938e-39 299 159
-0.023108931 0.65899998 0.093591176 9.6885299e-39 300 159
-0.021920172 0.65799999 0.09344916 9.6885299e-39 301 159
-0.020734919 0.65700001 0.093307137 9.6885327e-39 302 159
-0.019523365 0.65499997 0.093023092 9.6885327e-39 303 159
-0.018374931 0.65499997 0.093023092 9.6881768e-39 304 159
-0.0172791 0.65700001 0.093307137 9.7803724e-39 305 159
-0.016078066 0.65499997 0.093023092 9.9636847e-39 306 159
-0.014929632 0.65499997 0.093023092 1.0056239e-38 307 159
-0.013781199 0.65499997 0.093023092 9.7810913e-39 308 159
-0.012632766 0.65499997 0.093023092 9.8732883e-39 309 159
-0.011484332 0.65499997 0.093023092 9.7828934e-39 310 159
-0.01036746 0.65700001 0.093307137 9.9672846e-39 311 159
-0.0092155198 0.65700001 0.093307137 9.9672874e-39 312 159
-0.0080635799 0.65700001 0.093307137 9.9672874e-39 313 159
-0.0069116396 0.65700001 0.093307137 9.9672874e-39 314 159
-0.0057421662 0.65499997 0.093023092 9.8750918e-39 315 159
-0.0045937328 0.65499997 0.093023092 1.0057682e-38 316 159
-0.0034452998 0.65499997 0.093023092 9.8732911e-39 317 159
-0.0022968664 0.65499997 0.093023092 9.7810941e-39 318 159
-0.0011484332 0.65499997 0.093023092 9.7810941e-39 319 159
0 0.65499997 0.093023092 9.7803724e-39 320 159
0.0011484332 0.65499997 0.093023092 9.6881768e-39 321 159
0.0022968664 0.65499997 0.093023092 9.6888929e-39 322 159
0.0034452998 0.65499997 0.093023092 9.5048617e-39 323 159
0.0045937328 0.65499997 0.093023092 9.6878111e-39 324 159
0.0057596997 0.65700001 0.093307137 9.8718422e-39 325 159
0.0069116396 0.65700001 0.093307137 9.6885271e-39 326 159
0.0080635799 0.65700001 0.093307137 9.6885271e-39 327 159
0.0092155198 0.65700001 0.093307137 9.6885299e-39 328 159
0.01038324 0.65799999 0.09344916 9.6885299e-39 329 159
0.011554466 0.65899998 0.093591176 9.5048617e-39 330 159
0.012709912 0.65899998 0.093591176 9.5048617e-39 331 159
0.01390744 0.66100001 0.093875214 9.7807228e-39 332 159
0.015066394 0.66100001 0.093875214 9.6885271e-39 333 159
0.016249891 0.662 0.094017237 9.7810787e-39 334 159
0.017410601 0.662 0.094017237 9.7810787e-39 335 159
0.018571306 0.662 0.094017237 9.9643938e-39 336 159
0.019732011 0.662 0.094017237 9.8718394e-39 337 159
0.020892721 0.662 0.094017237 9.6885145e-39 338 159
-0.031339079 0.662 0.092856526 1.0792707e-38 293 160
-0.030178372 0.662 0.092856526 1.0700158e-38 294 160
-0.029017664 0.662 0.092856526 1.0700158e-38 295 160
-0.027856959 0.662 0.092856526 1.0424294e-38 296 160
-0.026655925 0.66100001 0.092716269 1.0148066e-38 297 160
-0.025496973 0.66100001 0.092716269 9.7807256e-39 298 160
-0.02433802 0.66100001 0.092716269 9.6885299e-39 299 160
-0.023179067 0.66100001 0.092716269 9.6885327e-39 300 160
-0.021920172 0.65799999 0.09229546 9.5959784e-39 301 160
-0.02076648 0.65799999 0.09229546 9.4126689e-39 302 160
-0.019582979 0.65700001 0.092155196 9.4126689e-39 303 160
-0.01843104 0.65700001 0.092155196 9.6881768e-39 304 160
-0.0172791 0.65700001 0.092155196 9.6881768e-39 305 160
-0.01612716 0.65700001 0.092155196 9.7803724e-39 306 160
-0.01497522 0.65700001 0.092155196 9.7803724e-39 307 160
-0.013823279 0.65700001 0.092155196 9.597779e-39 308 160
-0.01267134 0.65700001 0.092155196 9.7821717e-39 309 160
-0.011519399 0.65700001 0.092155196 9.7828934e-39 310 160
-0.01036746 0.65700001 0.092155196 9.875089e-39 311 160
-0.0092155198 0.65700001 0.092155196 9.8750918e-39 312 160
-0.0080635799 0.65700001 0.092155196 9.9672874e-39 313 160
-0.0069116396 0.65700001 0.092155196 1.0150953e-38 314 160
-0.0057421662 0.65499997 0.091874659 1.0058757e-38 315 160
-0.0045937328 0.65499997 0.091874659 9.9665616e-39 316 160
-0.0034452998 0.65499997 0.091874659 9.7821717e-39 317 160
-0.0022968664 0.65499997 0.091874659 9.9651238e-39 318 160
-0.0011484332 0.65499997 0.091874659 9.8725681e-39 319 160
0 0.65499997 0.091874659 1.005552e-38 320 160
0.0011484332 0.65499997 0.091874659 1.005552e-38 321 160
0.0022968664 0.65499997 0.091874659 9.871845e-39 322 160
0.0034452998 0.65499997 0.091874659 9.9640406e-39 323 160
0.0045937328 0.65499997 0.091874659 9.5052177e-39 324 160
0.0057596997 0.65700001 0.092155196 9.5052177e-39 325 160
0.0069116396 0.65700001 0.092155196 9.6885299e-39 326 160
0.0080635799 0.65700001 0.092155196 9.5963343e-39 327 160
0.0092155198 0.65700001 0.092155196 9.871845e-39 328 160
0.01038324 0.65799999 0.09229546 9.9640406e-39 329 160
0.011589534 0.66100001 0.092716269 9.7807256e-39 330 160
0.012748486 0.66100001 0.092716269 9.7807256e-39 331 160
0.01390744 0.66100001 0.092716269 9.7807228e-39 332 160
0.015089186 0.662 0.092856526 9.6885271e-39 333 160
0.016249891 0.662 0.092856526 9.9643938e-39 334 160
0.017410601 0.662 0.092856526 9.9643938e-39 335 160
0.018571306 0.662 0.092856526 1.0055868e-38 336 160
0.019732011 0.662 0.092856526 9.9636721e-39 337 160
0.020892721 0.662 0.092856526 9.8725428e-39 338 160
-0.030178372 0.662 0.091695823 1.051649e-38 294 161
-0.029017664 0.662 0.091695823 1.0424294e-38 295 161
-0.027856959 0.662 0.091695823 1.0240985e-38 296 161
-0.026696252 0.662 0.091695823 1.0056233e-38 297 161
-0.025535546 0.662 0.091695823 9.7807256e-39 298 161
-0.024374841 0.662 0.091695823 9.6885299e-39 299 161
-0.023179067 0.66100001 0.091557316 9.6878139e-39 300 161
-0.021953486 0.65899998 0.091280282 9.6878139e-39 301 161
-0.02076648 0.65799999 0.091141768 9.5959812e-39 302 161
-0.019523365 0.65499997 0.090726227 9.6881768e-39 303 161
-0.018374931 0.65499997 0.090726227 9.871845e-39 304 161
-0.0172791 0.65700001 0.091003254 9.871845e-39 305 161
-0.01612716 0.65700001 0.091003254 9.6885327e-39 306 161
-0.01497522 0.65700001 0.091003254 9.7807284e-39 307 161
-0.013823279 0.65700001 0.091003254 9.7810913e-39 308 161
-0.01267134 0.65700001 0.091003254 9.8732883e-39 309 161
-0.011519399 0.65700001 0.091003254 9.9662056e-39 310 161
-0.01036746 0.65700001 0.091003254 1.0058401e-38 311 161
-0.0092155198 0.65700001 0.091003254 1.0058401e-38 312 161
-0.0080635799 0.65700001 0.091003254 1.0058401e-38 313 161
-0.0069116396 0.65700001 0.091003254 1.0058401e-38 314 161
-0.0057596997 0.65700001 0.091003254 9.9662056e-39 315 161
-0.0046077599 0.65700001 0.091003254 1.0149155e-38 316 161
-0.0034452998 0.65499997 0.090726227 9.9651238e-39 317 161
-0.0022968664 0.65499997 0.090726227 9.872924e-39 318 161
-0.0011484332 0.65499997 0.090726227 9.7807284e-39 319 161
0 0.65499997 0.090726227 9.872924e-39 320 161
0.0011484332 0.65499997 0.090726227 9.7807284e-39 321 161
0.0022968664 0.65499997 0.090726227 9.9640406e-39 322 161
0.0034452998 0.65499997 0.090726227 9.9640406e-39 323 161
0.0046077599 0.65700001 0.091003254 9.871845e-39 324 161
0.0057596997 0.65700001 0.091003254 9.871845e-39 325 161
0.0069116396 0.65700001 0.091003254 9.8718422e-39 326 161
0.0080635799 0.65700001 0.091003254 9.8718422e-39 327 161
0.0092155198 0.65700001 0.091003254 9.9633218e-39 328 161
0.010399019 0.65899998 0.091280282 9.9633218e-39 329 161
0.011589534 0.66100001 0.091557316 9.871845e-39 330 161
0.012748486 0.66100001 0.091557316 9.871845e-39 331 161
0.01390744 0.66100001 0.091557316 9.9640378e-39 332 161
0.015089186 0.662 0.091695823 9.8718422e-39 333 161
0.016274439 0.66299999 0.091834337 9.9636749e-39 334 161
0.017436899 0.66299999 0.091834337 1.0055871e-38 335 161
0.018599359 0.66299999 0.091834337 1.023918e-38 336 161
0.019761819 0.66299999 0.091834337 1.023918e-38 337 161
0.020924279 0.66299999 0.091834337 9.9640252e-39 338 161
-0.024411658 0.66299999 0.090671875 9.6878139e-39 299 162
-0.0232492 0.66299999 0.090671875 9.6878139e-39 300 162
-0.022120051 0.66399997 0.090808637 9.6878139e-39 301 162
-0.02086116 0.66100001 0.090398364 9.5959784e-39 302 162
-0.019523365 0.65499997 0.089577794 9.6885327e-39 303 162
-0.018374931 0.65499997 0.089577794 9.6878139e-39 304 162
-0.0172791 0.65700001 0.08985132 9.871845e-39 305 162
-0.01612716 0.65700001 0.08985132 9.7803724e-39 306 162
-0.01497522 0.65700001 0.08985132 9.7803724e-39 307 162
-0.013823279 0.65700001 0.08985132 9.7810941e-39 308 162
-0.01267134 0.65700001 0.08985132 9.8732911e-39 309 162
-0.011519399 0.65700001 0.08985132 9.689623e-39 310 162
-0.01036746 0.65700001 0.08985132 9.7821773e-39 311 162
-0.0092155198 0.65700001 0.08985132 9.9662084e-39 312 162
-0.0080635799 0.65700001 0.08985132 1.0058404e-38 313 162
-0.0069116396 0.65700001 0.08985132 1.0150237e-38 314 162
-0.0057596997 0.65700001 0.08985132 1.0057682e-38 315 162
-0.0046077599 0.65700001 0.08985132 1.0240632e-38 316 162
-0.0034558198 0.65700001 0.08985132 1.0148436e-38 317 162
-0.0023038799 0.65700001 0.08985132 9.872924e-39 318 162
-0.00115194 0.65700001 0.08985132 9.7807284e-39 319 162
0 0.65700001 0.08985132 9.9640406e-39 320 162
0.0011484332 0.65499997 0.089577794 1.0056236e-38 321 162
0.0022968664 0.65499997 0.089577794 1.0055517e-38 322 162
0.0034558198 0.65700001 0.08985132 1.0055517e-38 323 162
0.0046077599 0.65700001 0.08985132 9.9633218e-39 324 162
0.0057596997 0.65700001 0.08985132 9.9633218e-39 325 162
0.0069116396 0.65700001 0.08985132 9.9633218e-39 326 162
0.0080635799 0.65700001 0.08985132 9.9633218e-39 327 162
0.0092295464 0.65799999 0.089988075 9.871845e-39 328 162
0.010399019 0.65899998 0.090124831 9.871845e-39 329 162
0.011589534 0.66100001 0.090398364 9.9633218e-39 330 162
0.012748486 0.66100001 0.090398364 9.9633218e-39 331 162
0.01390744 0.66100001 0.090398364 9.963319e-39 332 162
0.015089186 0.662 0.090535119 9.963319e-39 333 162
0.016274439 0.66299999 0.090671875 9.8718422e-39 334 162
0.017436899 0.66299999 0.090671875 9.8718422e-39 335 162
0.018599359 0.66299999 0.090671875 1.0055871e-38 336 162
0.019761819 0.66299999 0.090671875 1.0055871e-38 337 162
0.020924279 0.66299999 0.090671875 1.014734e-38 338 162
-0.024411658 0.66299999 0.089509413 9.6878139e-39 299 163
-0.0232492 0.66299999 0.089509413 9.6881768e-39 300 163
-0.022120051 0.66399997 0.089644417 9.5959812e-39 301 163
-0.020955838 0.66399997 0.089644417 9.5959812e-39 302 163
-0.019791625 0.66399997 0.089644417 9.5959812e-39 303 163
-0.01843104 0.65700001 0.088699378 9.6874579e-39 304 163
-0.0172791 0.65700001 0.088699378 9.8714891e-39 305 163
-0.01612716 0.65700001 0.088699378 9.6881768e-39 306 163
-0.01497522 0.65700001 0.088699378 9.7803724e-39 307 163
-0.013823279 0.65700001 0.088699378 9.8725709e-39 308 163
-0.01267134 0.65700001 0.088699378 9.8725709e-39 309 163
-0.011519399 0.65700001 0.088699378 9.689623e-39 310 163
-0.01036746 0.65700001 0.088699378 9.9662084e-39 311 163
-0.0092295464 0.65799999 0.088834383 1.0057682e-38 312 163
-0.0080635799 0.65700001 0.088699378 1.0057682e-38 313 163
-0.0069116396 0.65700001 0.088699378 1.0241353e-38 314 163
-0.0057684663 0.65799999 0.088834383 1.0241353e-38 315 163
-0.0046147732 0.65799999 0.088834383 1.0148799e-38 316 163
-0.0034610799 0.65799999 0.088834383 9.8725709e-39 317 163
-0.0023038799 0.65700001 0.088699378 9.9636847e-39 318 163
-0.00115194 0.65700001 0.088699378 9.9636847e-39 319 163
0 0.65700001 0.088699378 9.7807284e-39 320 163
0.00115194 0.65700001 0.088699378 9.7807284e-39 321 163
0.0023038799 0.65700001 0.088699378 9.7807284e-39 322 163
0.0034558198 0.65700001 0.088699378 9.7807284e-39 323 163
0.0046077599 0.65700001 0.088699378 9.8718422e-39 324 163
0.0057596997 0.65700001 0.088699378 9.8718422e-39 325 163
0.0069116396 0.65700001 0.088699378 9.8718422e-39 326 163
0.0080758529 0.65799999 0.088834383 9.8718422e-39 327 163
0.0092295464 0.65799999 0.088834383 9.8718422e-39 328 163
0.01043058 0.66100001 0.089239404 9.8718422e-39 329 163
0.011589534 0.66100001 0.089239404 9.9633218e-39 330 163
0.012748486 0.66100001 0.089239404 9.9633218e-39 331 163
0.01392848 0.662 0.089374408 9.871845e-39 332 163
0.015111978 0.66299999 0.089509413 9.871845e-39 333 163
0.016298985 0.66399997 0.089644417 9.871845e-39 334 163
0.0174632 0.66399997 0.089644417 9.6878139e-39 335 163
0.018627413 0.66399997 0.089644417 9.8718422e-39 336 163
0.019791625 0.66399997 0.089644417 9.8718422e-39 337 163
0.020955838 0.66399997 0.089644417 1.0054789e-38 338 163
-0.022120051 0.66399997 0.088480204 9.5959812e-39 301 164
-0.020955838 0.66399997 0.088480204 9.6874579e-39 302 164
-0.019791625 0.66399997 0.088480204 9.6874579e-39 303 164
-0.018543253 0.66100001 0.088080451 9.6874579e-39 304 164
-0.0173843 0.66100001 0.088080451 9.8714891e-39 305 164
-0.016151706 0.65799999 0.08768069 9.6881768e-39 306 164
-0.014998012 0.65799999 0.08768069 9.6881768e-39 307 164
-0.013823279 0.65700001 0.087547436 9.7803752e-39 308 164
-0.01267134 0.65700001 0.087547436 9.8725709e-39 309 164
-0.011519399 0.65700001 0.087547436 9.8732911e-39 310 164
-0.01036746 0.65700001 0.087547436 9.9654868e-39 311 164
-0.0092295464 0.65799999 0.08768069 9.9665616e-39 312 164
-0.0080635799 0.65700001 0.087547436 9.9665616e-39 313 164
-0.0069116396 0.65700001 0.087547436 9.9658427e-39 314 164
-0.0057684663 0.65799999 0.08768069 9.9658427e-39 315 164
-0.0046147732 0.65799999 0.08768069 9.9647679e-39 316 164
-0.0034610799 0.65799999 0.08768069 9.8725709e-39 317 164
-0.0023038799 0.65700001 0.087547436 1.0056239e-38 318 164
-0.00115194 0.65700001 0.087547436 9.9636847e-39 319 164
0 0.65700001 0.087547436 9.872924e-39 320 164
0.00115194 0.65700001 0.087547436 9.872924e-39 321 164
0.0023038799 0.65700001 0.087547436 9.7807256e-39 322 164
0.0034558198 0.65700001 0.087547436 9.7807256e-39 323 164
0.0046077599 0.65700001 0.087547436 9.871845e-39 324 164
0.0057596997 0.65700001 0.087547436 9.871845e-39 325 164
0.0069221598 0.65799999 0.08768069 9.6885327e-39 326 164
0.0080758529 0.65799999 0.08768069 9.6885327e-39 327 164
0.0092435731 0.65899998 0.087813944 9.871845e-39 328 164
0.01043058 0.66100001 0.088080451 9.871845e-39 329 164
0.011589534 0.66100001 0.088080451 9.963319e-39 330 164
0.012748486 0.66100001 0.088080451 1.0055515e-38 331 164
0.01392848 0.662 0.088213705 9.8718422e-39 332 164
0.015111978 0.66299999 0.088346958 9.8718422e-39 333 164
0.016298985 0.66399997 0.088480204 9.8718422e-39 334 164
0.0174632 0.66399997 0.088480204 9.8718422e-39 335 164
0.018683519 0.66600001 0.088746719 9.8718422e-39 336 164
0.019881045 0.667 0.088879973 9.9640378e-39 337 164
-0.022120051 0.66399997 0.087315999 9.6874579e-39 301 165
-0.020955838 0.66399997 0.087315999 9.6874579e-39 302 165
-0.019732011 0.662 0.087053001 9.6874579e-39 303 165
-0.018571306 0.662 0.087053001 9.5959812e-39 304 165
-0.017410601 0.662 0.087053001 9.5959812e-39 305 165
-0.016225345 0.66100001 0.086921498 9.412313e-39 306 165
-0.015020805 0.65899998 0.086658493 9.5048674e-39 307 165
-0.013865359 0.65899998 0.086658493 9.780378e-39 308 165
-0.012690626 0.65799999 0.086526997 9.780378e-39 309 165
-0.011536933 0.65799999 0.086526997 9.6899789e-39 310 165
-0.01038324 0.65799999 0.086526997 9.7821745e-39 311 165
-0.0092295464 0.65799999 0.086526997 9.6899761e-39 312 165
-0.0080635799 0.65700001 0.086395502 9.7821717e-39 313 165
-0.0069116396 0.65700001 0.086395502 9.9658427e-39 314 165
-0.0057684663 0.65799999 0.086526997 9.8732883e-39 315 165
-0.0046147732 0.65799999 0.086526997 1.014808e-38 316 165
-0.0034610799 0.65799999 0.086526997 1.0055883e-38 317 165
-0.0023073866 0.65799999 0.086526997 1.0056239e-38 318 165
-0.0011536933 0.65799999 0.086526997 1.0056239e-38 319 165
0 0.65700001 0.086395502 9.7807284e-39 320 165
0.00115194 0.65700001 0.086395502 9.7807284e-39 321 165
0.0023038799 0.65700001 0.086395502 9.871845e-39 322 165
0.0034610799 0.65799999 0.086526997 9.871845e-39 323 165
0.0046147732 0.65799999 0.086526997 9.6885327e-39 324 165
0.0057684663 0.65799999 0.086526997 9.6885327e-39 325 165
0.0069221598 0.65799999 0.086526997 9.6885327e-39 326 165
0.0080881258 0.65899998 0.086658493 9.6885327e-39 327 165
0.0092716264 0.66100001 0.086921498 9.6885327e-39 328 165
0.01044636 0.662 0.087053001 9.6885327e-39 329 165
0.011607066 0.662 0.087053001 9.8718422e-39 330 165
0.012767773 0.662 0.087053001 9.8718422e-39 331 165
0.01392848 0.662 0.087053001 9.9633218e-39 332 165
0.015111978 0.66299999 0.087184496 9.9633218e-39 333 165
0.016298985 0.66399997 0.087315999 9.9633218e-39 334 165
0.0174632 0.66399997 0.087315999 9.9633218e-39 335 165
0.018683519 0.66600001 0.087578997 9.8718394e-39 336 165
0.019881045 0.667 0.0877105 9.9643938e-39 337 165
-0.020955838 0.66399997 0.086151779 9.5959812e-39 302 166
-0.019732011 0.662 0.08589229 9.5959812e-39 303 166
-0.018571306 0.662 0.08589229 9.595984e-39 304 166
-0.017436899 0.66299999 0.086022034 9.595984e-39 305 166
-0.016249891 0.662 0.08589229 9.6874607e-39 306 166
-0.015066394 0.66100001 0.085762545 9.8714919e-39 307 166
-0.013865359 0.65899998 0.085503049 9.7803752e-39 308 166
-0.012709912 0.65899998 0.085503049 9.8725709e-39 309 166
-0.011536933 0.65799999 0.085373305 9.6899761e-39 310 166
-0.01038324 0.65799999 0.085373305 9.6899761e-39 311 166
-0.0092295464 0.65799999 0.085373305 9.7825276e-39 312 166
-0.0080758529 0.65799999 0.085373305 9.7825276e-39 313 166
-0.0069221598 0.65799999 0.085373305 1.0149155e-38 314 166
-0.0057684663 0.65799999 0.085373305 1.0149155e-38 315 166
-0.0046147732 0.65799999 0.085373305 1.014808e-38 316 166
-0.0034610799 0.65799999 0.085373305 1.0055883e-38 317 166
-0.0023073866 0.65799999 0.085373305 9.8725709e-39 318 166
-0.0011536933 0.65799999 0.085373305 9.7803752e-39 319 166
0 0.65799999 0.085373305 9.8714891e-39 320 166
0.0011536933 0.65799999 0.085373305 9.8714891e-39 321 166
0.0023073866 0.65799999 0.085373305 9.8714891e-39 322 166
0.0034610799 0.65799999 0.085373305 9.8714891e-39 323 166
0.0046217865 0.65899998 0.085503049 9.8714891e-39 324 166
0.0057772328 0.65899998 0.085503049 9.8714891e-39 325 166
0.0069326796 0.65899998 0.085503049 9.6885327e-39 326 166
0.0080881258 0.65899998 0.085503049 9.6885327e-39 327 166
0.0092716264 0.66100001 0.085762545 9.6878139e-39 328 166
0.01044636 0.662 0.08589229 9.871845e-39 329 166
0.011607066 0.662 0.08589229 9.8718422e-39 330 166
0.012767773 0.662 0.08589229 9.8718422e-39 331 166
0.013949519 0.66299999 0.086022034 9.963319e-39 332 166
0.015111978 0.66299999 0.086022034 9.963319e-39 333 166
0.016298985 0.66399997 0.086151779 9.963319e-39 334 166
0.0174632 0.66399997 0.086151779 9.963319e-39 335 166
0.018711573 0.667 0.086541019 9.963319e-39 336 166
0.019881045 0.667 0.086541019 1.0055515e-38 337 166
-0.02208674 0.66299999 0.084859572 9.5037856e-39 301 167
-0.020924279 0.66299999 0.084859572 9.3201174e-39 302 167
-0.019761819 0.66299999 0.084859572 9.412313e-39 303 167
-0.018599359 0.66299999 0.084859572 9.5034296e-39 304 167
-0.017436899 0.66299999 0.084859572 9.5034296e-39 305 167
-0.016274439 0.66299999 0.084859572 9.412313e-39 306 167
-0.015089186 0.662 0.084731586 9.412313e-39 307 167
-0.01390744 0.66100001 0.084603593 9.5055862e-39 308 167
-0.012748486 0.66100001 0.084603593 9.5055862e-39 309 167
-0.011554466 0.65899998 0.084347598 9.32299e-39 310 167
-0.010399019 0.65899998 0.084347598 9.4151871e-39 311 167
-0.0092716264 0.66100001 0.084603593 9.5984965e-39 312 167
-0.0081126727 0.66100001 0.084603593 9.6910509e-39 313 167
-0.00695372 0.66100001 0.084603593 9.7825276e-39 314 167
-0.0057947668 0.66100001 0.084603593 9.7825276e-39 315 167
-0.0046358132 0.66100001 0.084603593 1.0148436e-38 316 167
-0.0034610799 0.65799999 0.084219612 1.0148436e-38 317 167
-0.0023073866 0.65799999 0.084219612 9.7810913e-39 318 167
-0.0011554466 0.65899998 0.084347598 9.7810913e-39 319 167
0 0.65899998 0.084347598 9.5048617e-39 320 167
0.0011536933 0.65799999 0.084219612 9.5048617e-39 321 167
0.0023073866 0.65799999 0.084219612 9.871845e-39 322 167
0.0034663398 0.65899998 0.084347598 9.871845e-39 323 167
0.0046217865 0.65899998 0.084347598 9.6885327e-39 324 167
0.0057772328 0.65899998 0.084347598 9.5959784e-39 325 167
0.00695372 0.66100001 0.084603593 9.5959784e-39 326 167
0.0081126727 0.66100001 0.084603593 9.6885327e-39 327 167
0.009285653 0.662 0.084731586 9.6885299e-39 328 167
0.01044636 0.662 0.084731586 9.5963343e-39 329 167
0.011607066 0.662 0.084731586 9.6878139e-39 330 167
0.012767773 0.662 0.084731586 9.6878139e-39 331 167
0.013949519 0.66299999 0.084859572 9.8711261e-39 332 167
0.015111978 0.66299999 0.084859572 9.8711261e-39 333 167
0.016348081 0.66600001 0.08524356 9.871845e-39 334 167
0.0175421 0.667 0.085371546 9.871845e-39 335 167
0.018711573 0.667 0.085371546 9.8718422e-39 336 167
0.019881045 0.667 0.085371546 9.8718422e-39 337 167
-0.02208674 0.66299999 0.083697118 9.5037856e-39 301 168
-0.020924279 0.66299999 0.083697118 9.3193985e-39 302 168
-0.019761819 0.66299999 0.083697118 9.5034296e-39 303 168
-0.018599359 0.66299999 0.083697118 9.5034324e-39 304 168
-0.0174632 0.66399997 0.083823353 9.5034324e-39 305 168
-0.016274439 0.66299999 0.083697118 9.595984e-39 306 168
-0.015111978 0.66299999 0.083697118 9.595984e-39 307 168
-0.013949519 0.66299999 0.083697118 9.5045114e-39 308 168
-0.012787059 0.66299999 0.083697118 9.6885425e-39 309 168
-0.011642133 0.66399997 0.083823353 9.4144696e-39 310 168
-0.01044636 0.662 0.083570883 9.5985021e-39 311 168
-0.0092716264 0.66100001 0.08344464 9.7821717e-39 312 168
-0.0081126727 0.66100001 0.08344464 9.7821717e-39 313 168
-0.00695372 0.66100001 0.08344464 9.8732883e-39 314 168
-0.0057947668 0.66100001 0.08344464 9.9658427e-39 315 168
-0.0046358132 0.66100001 0.08344464 1.0149155e-38 316 168
-0.00347686 0.66100001 0.08344464 9.9651238e-39 317 168
-0.0023179066 0.66100001 0.08344464 9.597779e-39 318 168
-0.0011589533 0.66100001 0.08344464 9.5055834e-39 319 168
0 0.66100001 0.08344464 9.5055806e-39 320 168
0.0011589533 0.66100001 0.08344464 9.413385e-39 321 168
0.0023179066 0.66100001 0.08344464 9.6885327e-39 322 168
0.00347686 0.66100001 0.08344464 9.6885327e-39 323 168
0.0046358132 0.66100001 0.08344464 9.6878139e-39 324 168
0.0057947668 0.66100001 0.08344464 9.6878139e-39 325 168
0.00695372 0.66100001 0.08344464 9.5959784e-39 326 168
0.0081249457 0.662 0.083570883 9.5959784e-39 327 168
0.009285653 0.662 0.083570883 9.5963343e-39 328 168
0.01044636 0.662 0.083570883 9.5963343e-39 329 168
0.011607066 0.662 0.083570883 9.8711261e-39 330 168
0.012767773 0.662 0.083570883 9.8711261e-39 331 168
0.013970559 0.66399997 0.083823353 1.0054438e-38 332 168
0.015134773 0.66399997 0.083823353 1.0054438e-38 333 168
0.016348081 0.66600001 0.084075838 9.963319e-39 334 168
0.0175421 0.667 0.084202074 9.963319e-39 335 168
0.018711573 0.667 0.084202074 9.8718422e-39 336 168
0.019881045 0.667 0.084202074 9.8718422e-39 337 168
-0.02208674 0.66299999 0.082534656 9.4105179e-39 301 169
-0.020924279 0.66299999 0.082534656 9.2272057e-39 302 169
-0.019761819 0.66299999 0.082534656 9.3194013e-39 303 169
-0.018599359 0.66299999 0.082534656 9.3194013e-39 304 169
-0.0174632 0.66399997 0.08265914 9.5034324e-39 305 169
-0.016274439 0.66299999 0.082534656 9.3197642e-39 306 169
-0.015111978 0.66299999 0.082534656 9.4123186e-39 307 169
-0.013970559 0.66399997 0.08265914 9.3204831e-39 308 169
-0.012806346 0.66399997 0.08265914 9.4130375e-39 309 169
-0.011642133 0.66399997 0.08265914 9.321918e-39 310 169
-0.01046214 0.66299999 0.082534656 9.4141137e-39 311 169
-0.009285653 0.662 0.082410172 9.5985021e-39 312 169
-0.0081249457 0.662 0.082410172 9.5985021e-39 313 169
-0.0069642398 0.662 0.082410172 9.8725737e-39 314 169
-0.0058035329 0.662 0.082410172 9.8725737e-39 315 169
-0.0046428265 0.662 0.082410172 9.8725737e-39 316 169
-0.00347686 0.66100001 0.08228568 9.8725737e-39 317 169
-0.0023179066 0.66100001 0.08228568 9.5055834e-39 318 169
-0.0011589533 0.66100001 0.08228568 9.5055834e-39 319 169
0 0.66100001 0.08228568 9.413385e-39 320 169
0.0011589533 0.66100001 0.08228568 9.413385e-39 321 169
0.0023179066 0.66100001 0.08228568 9.5959812e-39 322 169
0.0034821199 0.662 0.082410172 9.5959812e-39 323 169
0.0046358132 0.66100001 0.08228568 9.5959812e-39 324 169
0.0057947668 0.66100001 0.08228568 9.5037856e-39 325 169
0.0069642398 0.662 0.082410172 9.3204733e-39 326 169
0.0081249457 0.662 0.082410172 9.3204733e-39 327 169
0.0092996797 0.66299999 0.082534656 9.5037827e-39 328 169
0.01046214 0.66299999 0.082534656 9.5037827e-39 329 169
0.0116246 0.66299999 0.082534656 9.5952623e-39 330 169
0.012787059 0.66299999 0.082534656 9.5952623e-39 331 169
0.014012639 0.66600001 0.082908116 9.5952623e-39 332 169
0.01518036 0.66600001 0.082908116 9.6874579e-39 333 169
0.016372627 0.667 0.083032601 9.6878139e-39 334 169
0.0175421 0.667 0.083032601 9.6878139e-39 335 169
0.018711573 0.667 0.083032601 9.8718422e-39 336 169
0.019881045 0.667 0.083032601 9.8718422e-39 337 169
0.021050518 0.667 0.083032601 9.8714793e-39 338 169
-0.023284266 0.66399997 0.081494927 9.2272015e-39 300 170
-0.022120051 0.66399997 0.081494927 9.1350058e-39 301 170
-0.020924279 0.66299999 0.081372194 9.1357289e-39 302 170
-0.019761819 0.66299999 0.081372194 9.2279245e-39 303 170
-0.018599359 0.66299999 0.081372194 9.0442563e-39 304 170
-0.017436899 0.66299999 0.081372194 9.0442563e-39 305 170
-0.016274439 0.66299999 0.081372194 9.1364548e-39 306 170
-0.015111978 0.66299999 0.081372194 9.1364548e-39 307 170
-0.013949519 0.66299999 0.081372194 9.3204859e-39 308 170
-0.012787059 0.66299999 0.081372194 9.4126815e-39 309 170
-0.0116246 0.66299999 0.081372194 9.5052303e-39 310 170
-0.01044636 0.662 0.081249461 9.5974259e-39 311 170
-0.009285653 0.662 0.081249461 9.4141137e-39 312 170
-0.0081249457 0.662 0.081249461 9.4141137e-39 313 170
-0.0069642398 0.662 0.081249461 9.7807424e-39 314 170
-0.0058035329 0.662 0.081249461 9.7807424e-39 315 170
-0.0046428265 0.662 0.081249461 9.6885454e-39 316 170
-0.00347686 0.66100001 0.081126735 9.6885454e-39 317 170
-0.0023179066 0.66100001 0.081126735 9.5052303e-39 318 170
-0.0011589533 0.66100001 0.081126735 9.4130347e-39 319 170
0 0.66100001 0.081126735 9.4126689e-39 320 170
0.0011589533 0.66100001 0.081126735 9.4126689e-39 321 170
0.0023179066 0.66100001 0.081126735 9.5959812e-39 322 170
0.0034821199 0.662 0.081249461 9.5959812e-39 323 170
0.0046428265 0.662 0.081249461 9.5034296e-39 324 170
0.0058035329 0.662 0.081249461 9.3193985e-39 325 170
0.0069642398 0.662 0.081249461 9.5034296e-39 326 170
0.0081249457 0.662 0.081249461 9.3193985e-39 327 170
0.0092996797 0.66299999 0.081372194 9.3197544e-39 328 170
0.01046214 0.66299999 0.081372194 9.3197544e-39 329 170
0.0116246 0.66299999 0.081372194 9.3197544e-39 330 170
0.012787059 0.66299999 0.081372194 9.3197544e-39 331 170
0.014012639 0.66600001 0.081740394 9.5952595e-39 332 170
0.015203152 0.667 0.081863128 9.5952595e-39 333 170
0.016372627 0.667 0.081863128 9.6878111e-39 334 170
0.0175421 0.667 0.081863128 9.6878111e-39 335 170
0.018711573 0.667 0.081863128 9.6878083e-39 336 170
0.019881045 0.667 0.081863128 9.8718394e-39 337 170
0.021050518 0.667 0.081863128 9.9636721e-39 338 170
-0.024448479 0.66399997 0.080330715 9.4105137e-39 299 171
-0.023284266 0.66399997 0.080330715 9.0435291e-39 300 171
-0.022120051 0.66399997 0.080330715 9.0435291e-39 301 171
-0.020924279 0.66299999 0.080209732 8.8598609e-39 302 171
-0.019761819 0.66299999 0.080209732 8.9520579e-39 303 171
-0.018599359 0.66299999 0.080209732 8.6772689e-39 304 171
-0.017436899 0.66299999 0.080209732 8.7694645e-39 305 171
-0.016249891 0.662 0.080088757 9.0442563e-39 306 171
-0.015089186 0.662 0.080088757 9.136452e-39 307 171
-0.01392848 0.662 0.080088757 9.3204831e-39 308 171
-0.012767773 0.662 0.080088757 9.4130375e-39 309 171
-0.0116246 0.66299999 0.080209732 9.3219152e-39 310 171
-0.01044636 0.662 0.080088757 9.4144696e-39 311 171
-0.009285653 0.662 0.080088757 9.5055862e-39 312 171
-0.0081249457 0.662 0.080088757 9.5055862e-39 313 171
-0.0069642398 0.662 0.080088757 9.5052331e-39 314 171
-0.0058035329 0.662 0.080088757 9.5052331e-39 315 171
-0.0046428265 0.662 0.080088757 9.5052331e-39 316 171
-0.0034821199 0.662 0.080088757 9.4130375e-39 317 171
-0.0023214133 0.662 0.080088757 9.5045114e-39 318 171
-0.0011607066 0.662 0.080088757 9.4123158e-39 319 171
0 0.66100001 0.079967782 9.595984e-39 320 171
0.0011589533 0.66100001 0.079967782 9.595984e-39 321 171
0.0023214133 0.662 0.080088757 9.3211922e-39 322 171
0.0034821199 0.662 0.080088757 9.1368023e-39 323 171
0.0046428265 0.662 0.080088757 9.2279189e-39 324 171
0.0058035329 0.662 0.080088757 9.2279189e-39 325 171
0.0069642398 0.662 0.080088757 9.5030667e-39 326 171
0.0081372196 0.66299999 0.080209732 9.5030667e-39 327 171
0.0092996797 0.66299999 0.080209732 9.3193985e-39 328 171
0.01046214 0.66299999 0.080209732 9.3193985e-39 329 171
0.0116246 0.66299999 0.080209732 9.3197544e-39 330 171
0.012787059 0.66299999 0.080209732 9.3197544e-39 331 171
0.014012639 0.66600001 0.08057268 9.7789277e-39 332 171
0.015203152 0.667 0.080693655 9.8711233e-39 333 171
0.016372627 0.667 0.080693655 9.8714793e-39 334 171
0.0175421 0.667 0.080693655 9.8714793e-39 335 171
0.018711573 0.667 0.080693655 9.8718394e-39 336 171
0.019881045 0.667 0.080693655 9.8718394e-39 337 171
-0.027941117 0.66399997 0.079166502 9.6878139e-39 296 172
-0.026776904 0.66399997 0.079166502 9.5030639e-39 297 172
-0.02568984 0.66600001 0.079404958 9.3193985e-39 298 172
-0.024448479 0.66399997 0.079166502 9.1350058e-39 299 172
-0.023284266 0.66399997 0.079166502 9.0431731e-39 300 172
-0.022120051 0.66399997 0.079166502 9.0431731e-39 301 172
-0.020955838 0.66399997 0.079166502 8.6765486e-39 302 172
-0.019761819 0.66299999 0.079047278 8.6765486e-39 303 172
-0.018599359 0.66299999 0.079047278 8.6765486e-39 304 172
-0.017436899 0.66299999 0.079047278 8.8605811e-39 305 172
-0.016249891 0.662 0.078928046 8.9527796e-39 306 172
-0.015089186 0.662 0.078928046 8.9527796e-39 307 172
-0.01392848 0.662 0.078928046 9.0449752e-39 308 172
-0.012767773 0.662 0.078928046 9.1371708e-39 309 172
-0.0116246 0.66299999 0.079047278 9.2297224e-39 310 172
-0.01044636 0.662 0.078928046 9.2297224e-39 311 172
-0.009285653 0.662 0.078928046 9.4130375e-39 312 172
-0.0081249457 0.662 0.078928046 9.4130375e-39 313 172
-0.0069747595 0.66299999 0.079047278 9.2293665e-39 314 172
-0.0058035329 0.662 0.078928046 9.3219208e-39 315 172
-0.0046428265 0.662 0.078928046 9.5052331e-39 316 172
-0.0034821199 0.662 0.078928046 9.4130375e-39 317 172
-0.0023214133 0.662 0.078928046 9.4123158e-39 318 172
-0.0011607066 0.662 0.078928046 9.4123158e-39 319 172
0 0.662 0.078928046 9.3201174e-39 320 172
0.0011607066 0.662 0.078928046 9.3201174e-39 321 172
0.0023214133 0.662 0.078928046 9.3204733e-39 322 172
0.0034821199 0.662 0.078928046 9.3204733e-39 323 172
0.0046498398 0.66299999 0.079047278 9.2279189e-39 324 172
0.0058122999 0.66299999 0.079047278 9.2279189e-39 325 172
0.0069747595 0.66299999 0.079047278 9.5027108e-39 326 172
0.0081372196 0.66299999 0.079047278 9.4105137e-39 327 172
0.0093137063 0.66399997 0.079166502 9.2272015e-39 328 172
0.01046214 0.66299999 0.079047278 9.2272015e-39 329 172
0.0116246 0.66299999 0.079047278 9.3197544e-39 330 172
0.01284492 0.66600001 0.079404958 9.3197544e-39 331 172
0.014012639 0.66600001 0.079404958 9.7789305e-39 332 172
0.015203152 0.667 0.079524182 9.8711261e-39 333 172
0.016372627 0.667 0.079524182 9.8711233e-39 334 172
0.0175421 0.667 0.079524182 9.8711233e-39 335 172
0.018711573 0.667 0.079524182 9.8718422e-39 336 172
-0.027941117 0.66399997 0.078002289 9.6874579e-39 296 173
-0.026776904 0.66399997 0.078002289 9.5030667e-39 297 173
-0.02568984 0.66600001 0.078237243 9.2272057e-39 298 173
-0.02452212 0.66600001 0.078237243 9.1350086e-39 299 173
-0.023284266 0.66399997 0.078002289 9.0431759e-39 300 173
-0.022120051 0.66399997 0.078002289 8.8591448e-39 301 173
-0.020955838 0.66399997 0.078002289 8.7676653e-39 302 173
-0.019791625 0.66399997 0.078002289 8.8598609e-39 303 173
-0.018627413 0.66399997 0.078002289 8.6765514e-39 304 173
-0.0174632 0.66399997 0.078002289 8.6765514e-39 305 173
-0.016274439 0.66299999 0.077884816 9.0442563e-39 306 173
-0.015089186 0.662 0.077767342 9.0442563e-39 307 173
-0.01392848 0.662 0.077767342 9.2275686e-39 308 173
-0.012767773 0.662 0.077767342 9.3197642e-39 309 173
-0.0116246 0.66299999 0.077884816 9.4130375e-39 310 173
-0.01044636 0.662 0.077767342 9.4130375e-39 311 173
-0.009285653 0.662 0.077767342 9.4130375e-39 312 173
-0.0081249457 0.662 0.077767342 9.4130375e-39 313 173
-0.0069747595 0.66299999 0.077884816 9.4123186e-39 314 173
-0.0058122999 0.66299999 0.077884816 9.6885454e-39 315 173
-0.0046498398 0.66299999 0.077884816 9.5052331e-39 316 173
-0.0034873798 0.66299999 0.077884816 9.4130375e-39 317 173
-0.0023249199 0.66299999 0.077884816 9.4130347e-39 318 173
-0.00116246 0.66299999 0.077884816 9.1368079e-39 319 173
0 0.66299999 0.077884816 9.5034296e-39 320 173
0.00116246 0.66299999 0.077884816 9.5034296e-39 321 173
0.0023249199 0.66299999 0.077884816 9.2279217e-39 322 173
0.0034873798 0.66299999 0.077884816 9.2279217e-39 323 173
0.0046498398 0.66299999 0.077884816 9.3197544e-39 324 173
0.0058122999 0.66299999 0.077884816 9.3197544e-39 325 173
0.0069747595 0.66299999 0.077884816 9.5023464e-39 326 173
0.0081494926 0.66399997 0.078002289 9.5023464e-39 327 173
0.0093137063 0.66399997 0.078002289 9.4105137e-39 328 173
0.010477919 0.66399997 0.078002289 9.4105137e-39 329 173
0.011642133 0.66399997 0.078002289 9.5030667e-39 330 173
0.01284492 0.66600001 0.078237243 9.5030667e-39 331 173
0.014012639 0.66600001 0.078237243 9.7789305e-39 332 173
0.015203152 0.667 0.078354709 9.8711261e-39 333 173
0.016372627 0.667 0.078354709 9.8711233e-39 334 173
0.0175421 0.667 0.078354709 9.8711233e-39 335 173
-0.027941117 0.66399997 0.076838076 9.7785746e-39 296 174
-0.026776904 0.66399997 0.076838076 9.6863789e-39 297 174
-0.02568984 0.66600001 0.077069521 9.6860258e-39 298 174
-0.02452212 0.66600001 0.077069521 9.4097977e-39 299 174
-0.023354398 0.66600001 0.077069521 9.0431731e-39 300 174
-0.02218668 0.66600001 0.077069521 8.859142e-39 301 174
-0.02101896 0.66600001 0.077069521 8.7676653e-39 302 174
-0.019791625 0.66399997 0.076838076 8.8598609e-39 303 174
-0.018627413 0.66399997 0.076838076 8.6765514e-39 304 174
-0.0174632 0.66399997 0.076838076 8.6765514e-39 305 174
-0.016274439 0.66299999 0.076722354 8.860228e-39 306 174
-0.015089186 0.662 0.076606639 8.860228e-39 307 174
-0.01392848 0.662 0.076606639 8.9527824e-39 308 174
-0.012767773 0.662 0.076606639 9.044978e-39 309 174
-0.0116246 0.66299999 0.076722354 9.1371736e-39 310 174
-0.01044636 0.662 0.076606639 9.1371736e-39 311 174
-0.009285653 0.662 0.076606639 9.3204859e-39 312 174
-0.0081249457 0.662 0.076606639 9.4126815e-39 313 174
-0.0069747595 0.66299999 0.076722354 9.3204859e-39 314 174
-0.0058122999 0.66299999 0.076722354 9.4126815e-39 315 174
-0.0046498398 0.66299999 0.076722354 9.4130375e-39 316 174
-0.0034873798 0.66299999 0.076722354 9.4130375e-39 317 174
-0.0023249199 0.66299999 0.076722354 9.4123158e-39 318 174
-0.00116246 0.66299999 0.076722354 9.4123158e-39 319 174
0 0.66299999 0.076722354 9.3201174e-39 320 174
0.00116246 0.66299999 0.076722354 9.3201174e-39 321 174
0.0023284266 0.66399997 0.076838076 9.2279189e-39 322 174
0.0034926396 0.66399997 0.076838076 9.2279189e-39 323 174
0.0046568532 0.66399997 0.076838076 9.3197544e-39 324 174
0.0058210664 0.66399997 0.076838076 9.2271987e-39 325 174
0.0069852793 0.66399997 0.076838076 9.4105137e-39 326 174
0.0081740404 0.66600001 0.077069521 9.4105137e-39 327 174
0.0093137063 0.66399997 0.076838076 9.4105137e-39 328 174
0.010477919 0.66399997 0.076838076 9.4105137e-39 329 174
0.011642133 0.66399997 0.076838076 9.5030667e-39 330 174
0.01284492 0.66600001 0.077069521 9.5030667e-39 331 174
0.014012639 0.66600001 0.077069521 9.6878139e-39 332 174
0.015203152 0.667 0.077185236 9.5952595e-39 333 174
0.016372627 0.667 0.077185236 9.8711261e-39 334 174
0.0175421 0.667 0.077185236 9.8711261e-39 335 174
-0.028025279 0.66600001 0.075901799 9.7785746e-39 296 175
-0.026857559 0.66600001 0.075901799 9.6863789e-39 297 175
-0.02568984 0.66600001 0.075901799 9.2272057e-39 298 175
-0.02452212 0.66600001 0.075901799 9.1350086e-39 299 175
-0.023354398 0.66600001 0.075901799 9.0431759e-39 300 175
-0.02218668 0.66600001 0.075901799 8.8591448e-39 301 175
-0.020955838 0.66399997 0.075673863 8.7676681e-39 302 175
-0.019791625 0.66399997 0.075673863 8.8598637e-39 303 175
-0.018627413 0.66399997 0.075673863 8.6765514e-39 304 175
-0.017515799 0.66600001 0.075901799 8.6765514e-39 305 175
-0.016274439 0.66299999 0.075559892 8.8595078e-39 306 175
-0.015111978 0.66299999 0.075559892 8.9520635e-39 307 175
-0.01392848 0.662 0.075445928 9.2275686e-39 308 175
-0.012767773 0.662 0.075445928 9.3197642e-39 309 175
-0.0116246 0.66299999 0.075559892 9.3204831e-39 310 175
-0.01046214 0.66299999 0.075559892 9.3204831e-39 311 175
-0.0092996797 0.66299999 0.075559892 9.1371708e-39 312 175
-0.0081372196 0.66299999 0.075559892 9.1371708e-39 313 175
-0.0069852793 0.66399997 0.075673863 9.4130375e-39 314 175
-0.0058210664 0.66399997 0.075673863 9.4130375e-39 315 175
-0.0046568532 0.66399997 0.075673863 9.4130375e-39 316 175
-0.0034926396 0.66399997 0.075673863 9.3204831e-39 317 175
-0.0023284266 0.66399997 0.075673863 9.320839e-39 318 175
-0.0011642133 0.66399997 0.075673863 9.320839e-39 319 175
0 0.66399997 0.075673863 9.3204733e-39 320 175
0.0011642133 0.66399997 0.075673863 9.3204733e-39 321 175
0.0023284266 0.66399997 0.075673863 9.5037856e-39 322 175
0.0034926396 0.66399997 0.075673863 9.3197544e-39 323 175
0.0046568532 0.66399997 0.075673863 9.3193985e-39 324 175
0.0058210664 0.66399997 0.075673863 9.3193985e-39 325 175
0.0069852793 0.66399997 0.075673863 9.5019905e-39 326 175
0.0081740404 0.66600001 0.075901799 9.5019905e-39 327 175
0.0093417596 0.66600001 0.075901799 9.4105137e-39 328 175
0.010477919 0.66399997 0.075673863 9.4105137e-39 329 175
0.011642133 0.66399997 0.075673863 9.5019905e-39 330 175
0.01284492 0.66600001 0.075901799 9.6863817e-39 331 175
0.014012639 0.66600001 0.075901799 9.7789305e-39 332 175
0.015203152 0.667 0.076015763 9.8711261e-39 333 175
0.016372627 0.667 0.076015763 9.8711233e-39 334 175
0.0175421 0.667 0.076015763 9.8711233e-39 335 175
-0.028025279 0.66600001 0.074734077 9.5037856e-39 296 176
-0.026857559 0.66600001 0.074734077 9.3197544e-39 297 176
-0.025728412 0.667 0.07484629 9.2272057e-39 298 176
-0.02452212 0.66600001 0.074734077 9.1350086e-39 299 176
-0.023354398 0.66600001 0.074734077 8.859142e-39 300 176
-0.02218668 0.66600001 0.074734077 8.859142e-39 301 176
-0.020955838 0.66399997 0.07450965 8.8598609e-39 302 176
-0.019791625 0.66399997 0.07450965 8.9520579e-39 303 176
-0.018627413 0.66399997 0.07450965 8.8598637e-39 304 176
-0.017515799 0.66600001 0.074734077 8.9520607e-39 305 176
-0.016348081 0.66600001 0.074734077 8.9520607e-39 306 176
-0.01518036 0.66600001 0.074734077 9.0442563e-39 307 176
-0.01392848 0.662 0.074285224 9.2275686e-39 308 176
-0.012767773 0.662 0.074285224 9.3197642e-39 309 176
-0.0116246 0.66299999 0.074397437 9.1364548e-39 310 176
-0.01046214 0.66299999 0.074397437 9.3204859e-39 311 176
-0.0092996797 0.66299999 0.074397437 9.3204859e-39 312 176
-0.0081494926 0.66399997 0.07450965 9.3204859e-39 313 176
-0.0069852793 0.66399997 0.07450965 9.3204831e-39 314 176
-0.0058210664 0.66399997 0.07450965 9.3204831e-39 315 176
-0.0046568532 0.66399997 0.07450965 9.3204859e-39 316 176
-0.0034926396 0.66399997 0.07450965 9.3204859e-39 317 176
-0.0023284266 0.66399997 0.07450965 9.5045142e-39 318 176
-0.0011642133 0.66399997 0.07450965 9.5045142e-39 319 176
0 0.66600001 0.074734077 9.4126689e-39 320 176
0.00116772 0.66600001 0.074734077 9.4126689e-39 321 176
0.0023284266 0.66399997 0.07450965 9.5037856e-39 322 176
0.0034926396 0.66399997 0.07450965 9.5037856e-39 323 176
0.0046568532 0.66399997 0.07450965 9.5027108e-39 324 176
0.0058385995 0.66600001 0.074734077 9.5027108e-39 325 176
0.0070063197 0.66600001 0.074734077 9.2272015e-39 326 176
0.0081740404 0.66600001 0.074734077 9.3193985e-39 327 176
0.0093417596 0.66600001 0.074734077 9.2271987e-39 328 176
0.01050948 0.66600001 0.074734077 9.3197544e-39 329 176
0.011677199 0.66600001 0.074734077 9.3197544e-39 330 176
0.01284492 0.66600001 0.074734077 9.5037856e-39 331 176
0.014012639 0.66600001 0.074734077 9.7785746e-39 332 176
0.015203152 0.667 0.07484629 9.7785746e-39 333 176
0.016372627 0.667 0.07484629 9.8711261e-39 334 176
0.0175421 0.667 0.07484629 9.7789305e-39 335 176
0.018823786 0.671 0.075295143 9.8704045e-39 336 176
0.019970467 0.67000002 0.07518293 1.0054436e-38 337 176
0.0211452 0.67000002 0.07518293 9.8714765e-39 338 176
-0.028025279 0.66600001 0.073566355 9.3204733e-39 296 177
-0.026857559 0.66600001 0.073566355 9.2279189e-39 297 177
-0.025728412 0.667 0.073676817 9.1357247e-39 298 177
-0.02452212 0.66600001 0.073566355 9.0435291e-39 299 177
-0.023354398 0.66600001 0.073566355 8.8598609e-39 300 177
-0.02218668 0.66600001 0.073566355 8.7676653e-39 301 177
-0.020955838 0.66399997 0.07334543 8.7676681e-39 302 177
-0.019791625 0.66399997 0.07334543 8.8598637e-39 303 177
-0.018627413 0.66399997 0.07334543 8.8598609e-39 304 177
-0.0175421 0.667 0.073676817 8.9520579e-39 305 177
-0.016372627 0.667 0.073676817 8.860584e-39 306 177
-0.015203152 0.667 0.073676817 8.860584e-39 307 177
-0.014033679 0.667 0.073676817 9.3197642e-39 308 177
-0.012787059 0.66299999 0.073234983 9.4123186e-39 309 177
-0.0116246 0.66299999 0.073234983 9.320839e-39 310 177
-0.01046214 0.66299999 0.073234983 9.4130347e-39 311 177
-0.0093137063 0.66399997 0.07334543 9.2293665e-39 312 177
-0.0081494926 0.66399997 0.07334543 9.2293665e-39 313 177
-0.0069852793 0.66399997 0.07334543 9.3219208e-39 314 177
-0.0058385995 0.66600001 0.073566355 9.2293665e-39 315 177
-0.0046568532 0.66399997 0.07334543 9.2293665e-39 316 177
-0.0034926396 0.66399997 0.07334543 9.1371708e-39 317 177
-0.0023284266 0.66399997 0.07334543 9.4130347e-39 318 177
-0.00116772 0.66600001 0.073566355 9.4130347e-39 319 177
0 0.66600001 0.073566355 9.412313e-39 320 177
0.00116772 0.66600001 0.073566355 9.412313e-39 321 177
0.0023354399 0.66600001 0.073566355 9.3204733e-39 322 177
0.0035031599 0.66600001 0.073566355 9.3204733e-39 323 177
0.0046708798 0.66600001 0.073566355 9.5030667e-39 324 177
0.0058385995 0.66600001 0.073566355 9.5030667e-39 325 177
0.0070063197 0.66600001 0.073566355 9.3193985e-39 326 177
0.0081740404 0.66600001 0.073566355 9.2272015e-39 327 177
0.0093417596 0.66600001 0.073566355 9.4105137e-39 328 177
0.01050948 0.66600001 0.073566355 9.4105137e-39 329 177
0.011677199 0.66600001 0.073566355 9.2279217e-39 330 177
0.01284492 0.66600001 0.073566355 9.3201174e-39 331 177
0.014012639 0.66600001 0.073566355 9.5952623e-39 332 177
0.015203152 0.667 0.073676817 9.6874579e-39 333 177
0.016372627 0.667 0.073676817 9.6878139e-39 334 177
0.0175421 0.667 0.073676817 9.6878139e-39 335 177
0.018795732 0.67000002 0.074008204 9.6878111e-39 336 177
0.019970467 0.67000002 0.074008204 9.6878111e-39 337 177
0.0211452 0.67000002 0.074008204 9.6878083e-39 338 177
-0.026938211 0.66799998 0.072616048 9.3197544e-39 297 178
-0.025766984 0.66799998 0.072616048 8.9524124e-39 298 178
-0.024558939 0.667 0.072507344 8.8602168e-39 299 178
-0.023389466 0.667 0.072507344 8.859142e-39 300 178
-0.022219993 0.667 0.072507344 8.859142e-39 301 178
-0.021082079 0.66799998 0.072616048 8.8598637e-39 302 178
-0.019791625 0.66399997 0.072181225 8.8598637e-39 303 178
-0.018627413 0.66399997 0.072181225 8.8598637e-39 304 178
-0.0175421 0.667 0.072507344 8.9520607e-39 305 178
-0.016372627 0.667 0.072507344 8.9520607e-39 306 178
-0.015203152 0.667 0.072507344 9.0442563e-39 307 178
-0.014033679 0.667 0.072507344 9.3197642e-39 308 178
-0.012787059 0.66299999 0.072072513 9.4123186e-39 309 178
-0.0116246 0.66299999 0.072072513 9.3204831e-39 310 178
-0.01046214 0.66299999 0.072072513 9.4130375e-39 311 178
-0.0092996797 0.66299999 0.072072513 9.2293665e-39 312 178
-0.0081494926 0.66399997 0.072181225 9.2293665e-39 313 178
-0.0069852793 0.66399997 0.072181225 9.2293665e-39 314 178
-0.0058385995 0.66600001 0.07239864 9.2293665e-39 315 178
-0.0046708798 0.66600001 0.07239864 9.4130375e-39 316 178
-0.0035031599 0.66600001 0.07239864 9.4130375e-39 317 178
-0.0023354399 0.66600001 0.07239864 9.5045114e-39 318 178
-0.00116772 0.66600001 0.07239864 9.4123158e-39 319 178
0 0.66600001 0.07239864 9.412313e-39 320 178
0.00116772 0.66600001 0.07239864 9.412313e-39 321 178
0.0023354399 0.66600001 0.07239864 9.4123158e-39 322 178
0.0035031599 0.66600001 0.07239864 9.3201202e-39 323 178
0.0046708798 0.66600001 0.07239864 9.3194013e-39 324 178
0.0058473665 0.667 0.072507344 9.3194013e-39 325 178
0.0070168395 0.667 0.072507344 9.2272015e-39 326 178
0.0081740404 0.66600001 0.07239864 9.2272015e-39 327 178
0.0093417596 0.66600001 0.07239864 9.5023464e-39 328 178
0.01050948 0.66600001 0.07239864 9.6863789e-39 329 178
0.011694733 0.667 0.072507344 9.5034296e-39 330 178
0.012864206 0.667 0.072507344 9.5034296e-39 331 178
0.014033679 0.667 0.072507344 9.5952623e-39 332 178
0.015203152 0.667 0.072507344 9.6874579e-39 333 178
0.016372627 0.667 0.072507344 9.8711261e-39 334 178
0.017568398 0.66799998 0.072616048 9.8711261e-39 335 178
0.018795732 0.67000002 0.072833464 9.6878111e-39 336 178
0.019970467 0.67000002 0.072833464 9.6878111e-39 337 178
0.021176759 0.671 0.072942175 9.8714793e-39 338 178
0.022353247 0.671 0.072942175 9.8714793e-39 339 178
0.023529733 0.671 0.072942175 9.7792808e-39 340 178
0.024706218 0.671 0.072942175 9.5026939e-39 341 178
-0.027018867 0.67000002 0.071658738 9.3197544e-39 297 179
-0.025766984 0.66799998 0.071444817 9.2279217e-39 298 179
-0.02459576 0.66799998 0.071444817 9.0435291e-39 299 179
-0.023424532 0.66799998 0.071444817 8.7676681e-39 300 179
-0.022253305 0.66799998 0.071444817 8.7676681e-39 301 179
-0.021082079 0.66799998 0.071444817 8.5839999e-39 302 179
-0.019910853 0.66799998 0.071444817 8.6761955e-39 303 179
-0.018739626 0.66799998 0.071444817 8.8595078e-39 304 179
-0.0175421 0.667 0.071337871 8.8595078e-39 305 179
-0.016372627 0.667 0.071337871 8.9520635e-39 306 179
-0.015203152 0.667 0.071337871 8.9520635e-39 307 179
-0.014033679 0.667 0.071337871 9.0439032e-39 308 179
-0.012864206 0.667 0.071337871 9.1360988e-39 309 179
-0.011694733 0.667 0.071337871 9.044978e-39 310 179
-0.01050948 0.66600001 0.071230918 9.1371736e-39 311 179
-0.0093417596 0.66600001 0.071230918 9.2293665e-39 312 179
-0.0081740404 0.66600001 0.071230918 9.2293665e-39 313 179
-0.0070063197 0.66600001 0.071230918 9.2293693e-39 314 179
-0.0058385995 0.66600001 0.071230918 9.1371736e-39 315 179
-0.0046708798 0.66600001 0.071230918 9.4119627e-39 316 179
-0.0035031599 0.66600001 0.071230918 9.4119627e-39 317 179
-0.0023354399 0.66600001 0.071230918 9.5045142e-39 318 179
-0.00116772 0.66600001 0.071230918 9.4123186e-39 319 179
0 0.667 0.071337871 9.4123158e-39 320 179
0.0011694733 0.667 0.071337871 9.4123158e-39 321 179
0.0023389466 0.667 0.071337871 9.3201174e-39 322 179
0.0035084197 0.667 0.071337871 9.2279217e-39 323 179
0.0046778931 0.667 0.071337871 9.3193985e-39 324 179
0.0058473665 0.667 0.071337871 9.2272015e-39 325 179
0.0070168395 0.667 0.071337871 9.2272015e-39 326 179
0.0081740404 0.66600001 0.071230918 9.1350058e-39 327 179
0.0093417596 0.66600001 0.071230918 9.1350058e-39 328 179
0.01050948 0.66600001 0.071230918 9.2272015e-39 329 179
0.011677199 0.66600001 0.071230918 9.2279217e-39 330 179
0.01284492 0.66600001 0.071230918 9.2279217e-39 331 179
0.014012639 0.66600001 0.071230918 9.5034296e-39 332 179
0.015203152 0.667 0.071337871 9.5034296e-39 333 179
0.016397171 0.66799998 0.071444817 9.6874579e-39 334 179
0.017620999 0.67000002 0.071658738 9.5952623e-39 335 179
0.018795732 0.67000002 0.071658738 9.6878139e-39 336 179
0.020000271 0.671 0.071765684 9.5952595e-39 337 179
0.021176759 0.671 0.071765684 9.6878083e-39 338 179
0.022353247 0.671 0.071765684 9.6878083e-39 339 179
0.023529733 0.671 0.071765684 9.8711107e-39 340 179
0.024706218 0.671 0.071765684 9.6863593e-39 341 179
0.025882706 0.671 0.071765684 9.7774507e-39 342 179
-0.027018867 0.67000002 0.070483997 9.2272015e-39 297 180
