# .PCD v.7 - Point Cloud Data file format
FIELDS x y z rgb imX imY
SIZE 4 4 4 4 4 4
TYPE F F F F F F
COUNT 1 1 1 1 1 1
WIDTH 848
HEIGHT 1
VIEWPOINT 0 0 0 1 0 0 0
POINTS 848
DATA ascii
0.00227232 0.648 0.080667354 1.0480458e-38 322 169
0.00454464 0.648 0.080667354 1.0480458e-38 324 169
0.0056807999 0.648 0.080667354 1.0572655e-38 325 169
0.0068274797 0.64899999 0.080791838 1.0388987e-38 326 169
0.0079776663 0.64999998 0.08091633 1.0388987e-38 327 169
0.0091453865 0.65200001 0.081165306 1.038899e-38 328 169
0.01028856 0.65200001 0.081165306 1.038899e-38 329 169
0.011449266 0.653 0.081289791 1.0757049e-38 330 169
0.012594193 0.653 0.081289791 1.0849245e-38 331 169
-0.02371208 0.64399999 0.079040259 1.0848892e-38 299 170
-0.022582933 0.64399999 0.079040259 1.0574819e-38 300 170
-0.021520413 0.64600003 0.079285733 1.0574819e-38 301 170
-0.020387759 0.64600003 0.079285733 1.0667017e-38 302 170
-0.019255107 0.64600003 0.079285733 1.085141e-38 303 170
-0.018066347 0.64399999 0.079040259 1.0851057e-38 304 170
-0.0169372 0.64399999 0.079040259 1.1127642e-38 305 170
-0.015808053 0.64399999 0.079040259 1.1219838e-38 306 170
-0.014678906 0.64399999 0.079040259 1.1219838e-38 307 170
-0.013549759 0.64399999 0.079040259 1.1219116e-38 308 170
-0.012420613 0.64399999 0.079040259 1.1126921e-38 309 170
-0.011291467 0.64399999 0.079040259 1.1217319e-38 310 170
-0.01016232 0.64399999 0.079040259 1.1125122e-38 311 170
-0.0090331733 0.64399999 0.079040259 1.1125475e-38 312 170
-0.0079040267 0.64399999 0.079040259 1.1125475e-38 313 170
-0.0067748795 0.64399999 0.079040259 1.1217305e-38 314 170
-0.0056369668 0.64300001 0.078917533 1.1125109e-38 315 170
-0.0045095733 0.64300001 0.078917533 1.1032555e-38 316 170
-0.0033821799 0.64300001 0.078917533 1.0940359e-38 317 170
-0.0022582933 0.64399999 0.079040259 1.0848166e-38 318 170
-0.00113616 0.648 0.0795312 1.0848166e-38 319 170
0 0.648 0.0795312 1.0848166e-38 320 170
0.00113616 0.648 0.0795312 1.0664135e-38 321 170
0.0056895665 0.64899999 0.079653934 1.0572653e-38 325 170
0.0068274797 0.64899999 0.079653934 1.0572655e-38 326 170
0.0079776663 0.64999998 0.079776667 1.0572655e-38 327 170
0.0091453865 0.65200001 0.080022126 1.0664135e-38 328 170
0.010304339 0.653 0.08014486 1.0848166e-38 329 170
0.011449266 0.653 0.08014486 1.0664854e-38 330 170
0.012594193 0.653 0.08014486 1.0849245e-38 331 170
0.013760159 0.65399998 0.080267593 1.1125109e-38 332 170
0.01497522 0.65700001 0.080635801 1.1125109e-38 333 170
0.01612716 0.65700001 0.080635801 1.1125822e-38 334 170
-0.023785722 0.64600003 0.078153081 1.0757415e-38 299 171
-0.022653066 0.64600003 0.078153081 1.0757415e-38 300 171
-0.021520413 0.64600003 0.078153081 1.0849611e-38 301 171
-0.020387759 0.64600003 0.078153081 1.0759214e-38 302 171
-0.019255107 0.64600003 0.078153081 1.0943606e-38 303 171
-0.018122453 0.64600003 0.078153081 1.1126921e-38 304 171
-0.016989801 0.64600003 0.078153081 1.1126921e-38 305 171
-0.015808053 0.64399999 0.077911116 1.1219116e-38 306 171
-0.014678906 0.64399999 0.077911116 1.1311312e-38 307 171
-0.013549759 0.64399999 0.077911116 1.1126921e-38 308 171
-0.012420613 0.64399999 0.077911116 1.1034725e-38 309 171
-0.011291467 0.64399999 0.077911116 1.1217321e-38 310 171
-0.01016232 0.64399999 0.077911116 1.1217321e-38 311 171
-0.0090331733 0.64399999 0.077911116 1.1125119e-38 312 171
-0.0079040267 0.64399999 0.077911116 1.1125119e-38 313 171
-0.0067748795 0.64399999 0.077911116 1.1124753e-38 314 171
-0.0056369668 0.64300001 0.077790141 1.1124753e-38 315 171
-0.0045095733 0.64300001 0.077790141 1.1031838e-38 316 171
-0.0033821799 0.64300001 0.077790141 1.1031838e-38 317 171
-0.0022582933 0.64399999 0.077911116 1.0940362e-38 318 171
-0.00113616 0.648 0.078395039 1.0848166e-38 319 171
0 0.648 0.078395039 1.0848166e-38 320 171
0.00113616 0.648 0.078395039 1.0664135e-38 321 171
0.00227232 0.648 0.078395039 1.0572655e-38 322 171
0.0045726933 0.65200001 0.078878954 1.0664132e-38 324 171
0.0057158666 0.65200001 0.078878954 1.0571935e-38 325 171
0.0068590399 0.65200001 0.078878954 1.0571579e-38 326 171
0.0080022132 0.65200001 0.078878954 1.0571579e-38 327 171
0.0091453865 0.65200001 0.078878954 1.0664854e-38 328 171
0.010304339 0.653 0.078999937 1.0664854e-38 329 171
0.011466799 0.65399998 0.079120919 1.0940359e-38 330 171
0.012613479 0.65399998 0.079120919 1.0940359e-38 331 171
0.013760159 0.65399998 0.079120919 1.1216223e-38 332 171
0.01497522 0.65700001 0.079483859 1.1308418e-38 333 171
0.01612716 0.65700001 0.079483859 1.1308774e-38 334 171
-0.023785722 0.64600003 0.077020429 1.0848892e-38 299 172
-0.022653066 0.64600003 0.077020429 1.0757059e-38 300 172
-0.021520413 0.64600003 0.077020429 1.0941809e-38 301 172
-0.020387759 0.64600003 0.077020429 1.0759933e-38 302 172
-0.019255107 0.64600003 0.077020429 1.0852129e-38 303 172
-0.018122453 0.64600003 0.077020429 1.1219472e-38 304 172
-0.016989801 0.64600003 0.077020429 1.1311668e-38 305 172
-0.015857147 0.64600003 0.077020429 1.1220191e-38 306 172
-0.014724494 0.64600003 0.077020429 1.1127637e-38 307 172
-0.01359184 0.64600003 0.077020429 1.1126921e-38 308 172
-0.012420613 0.64399999 0.076781973 1.1126921e-38 309 172
-0.011291467 0.64399999 0.076781973 1.1034006e-38 310 172
-0.01016232 0.64399999 0.076781973 1.1034006e-38 311 172
-0.0090331733 0.64399999 0.076781973 1.1217674e-38 312 172
-0.0079040267 0.64399999 0.076781973 1.1032923e-38 313 172
-0.0067748795 0.64399999 0.076781973 1.121587e-38 314 172
-0.0056457333 0.64399999 0.076781973 1.121587e-38 315 172
-0.0045095733 0.64300001 0.076662742 1.1216226e-38 316 172
-0.0033821799 0.64300001 0.076662742 1.1031836e-38 317 172
-0.0022582933 0.64399999 0.076781973 1.0940359e-38 318 172
-0.0011326533 0.64600003 0.077020429 1.0940359e-38 319 172
0 0.648 0.077258877 1.0847447e-38 320 172
0.00113616 0.648 0.077258877 1.0847447e-38 321 172
0.00227232 0.648 0.077258877 1.0847444e-38 322 172
0.0034137398 0.64899999 0.077378102 1.0847444e-38 323 172
0.0057246331 0.653 0.077855013 1.0664132e-38 325 172
0.0068695596 0.653 0.077855013 1.0571579e-38 326 172
0.0080144862 0.653 0.077855013 1.0571579e-38 327 172
0.0091594132 0.653 0.077855013 1.0664851e-38 328 172
0.010304339 0.653 0.077855013 1.0757047e-38 329 172
0.011466799 0.65399998 0.077974238 1.103291e-38 330 172
0.01267134 0.65700001 0.078331918 1.103291e-38 331 172
0.013823279 0.65700001 0.078331918 1.1125106e-38 332 172
-0.022688134 0.64700001 0.07600525 1.0849614e-38 300 173
-0.021520413 0.64600003 0.075887777 1.0941809e-38 301 173
-0.020387759 0.64600003 0.075887777 1.085141e-38 302 173
-0.019255107 0.64600003 0.075887777 1.0943606e-38 303 173
-0.018122453 0.64600003 0.075887777 1.112764e-38 304 173
-0.016989801 0.64600003 0.075887777 1.1219835e-38 305 173
-0.015857147 0.64600003 0.075887777 1.1219838e-38 306 173
-0.014724494 0.64600003 0.075887777 1.1312034e-38 307 173
-0.01359184 0.64600003 0.075887777 1.112764e-38 308 173
-0.012459187 0.64600003 0.075887777 1.0943609e-38 309 173
-0.011326533 0.64600003 0.075887777 1.1126202e-38 310 173
-0.01019388 0.64600003 0.075887777 1.1034006e-38 311 173
-0.0090612266 0.64600003 0.075887777 1.1124403e-38 312 173
-0.0079040267 0.64399999 0.075652823 1.1032207e-38 313 173
-0.0067748795 0.64399999 0.075652823 1.1215872e-38 314 173
-0.0056457333 0.64399999 0.075652823 1.1215872e-38 315 173
-0.0045165867 0.64399999 0.075652823 1.121587e-38 316 173
-0.0033874398 0.64399999 0.075652823 1.121587e-38 317 173
-0.0022653067 0.64600003 0.075887777 1.0849245e-38 318 173
-0.0011326533 0.64600003 0.075887777 1.0757049e-38 319 173
0 0.648 0.076122716 1.0848163e-38 320 173
0.00113616 0.648 0.076122716 1.0664132e-38 321 173
0.0022758266 0.64899999 0.076240189 1.0664135e-38 322 173
0.008039033 0.65499997 0.076945029 1.0664851e-38 327 173
0.0091874655 0.65499997 0.076945029 1.0757047e-38 328 173
0.010335899 0.65499997 0.076945029 1.0757047e-38 329 173
0.011484332 0.65499997 0.076945029 1.0849598e-38 330 173
0.01267134 0.65700001 0.077179976 1.1033629e-38 331 173
-0.033304565 0.65499997 0.075796597 1.1218378e-38 291 174
-0.03210704 0.65399998 0.075680874 1.103471e-38 292 174
-0.030960357 0.65399998 0.075680874 1.0942513e-38 293 174
-0.029768093 0.653 0.075565159 1.1033276e-38 294 174
-0.028623167 0.653 0.075565159 1.1033276e-38 295 174
-0.027478239 0.653 0.075565159 1.0848889e-38 296 174
-0.026333313 0.653 0.075565159 1.1033279e-38 297 174
-0.023932999 0.64999998 0.075217992 1.0757415e-38 299 174
-0.022688134 0.64700001 0.07487084 1.0757059e-38 300 174
-0.021553727 0.64700001 0.07487084 1.0941809e-38 301 174
-0.02041932 0.64700001 0.07487084 1.1034728e-38 302 174
-0.019255107 0.64600003 0.074755117 1.1126924e-38 303 174
-0.018122453 0.64600003 0.074755117 1.1127642e-38 304 174
-0.016989801 0.64600003 0.074755117 1.1219838e-38 305 174
-0.015857147 0.64600003 0.074755117 1.1128721e-38 306 174
-0.014724494 0.64600003 0.074755117 1.1036526e-38 307 174
-0.01359184 0.64600003 0.074755117 1.1219835e-38 308 174
-0.012459187 0.64600003 0.074755117 1.112764e-38 309 174
-0.011326533 0.64600003 0.074755117 1.1127277e-38 310 174
-0.01019388 0.64600003 0.074755117 1.1034722e-38 311 174
-0.0090612266 0.64600003 0.074755117 1.1216951e-38 312 174
-0.0079040267 0.64399999 0.074523672 1.103256e-38 313 174
-0.0067748795 0.64399999 0.074523672 1.121587e-38 314 174
-0.0056457333 0.64399999 0.074523672 1.1031838e-38 315 174
-0.0045165867 0.64399999 0.074523672 1.1031838e-38 316 174
-0.0033874398 0.64399999 0.074523672 1.121587e-38 317 174
-0.00227232 0.648 0.074986562 1.0849242e-38 318 174
-0.0011379133 0.64899999 0.075102277 1.0849242e-38 319 174
0 0.648 0.074986562 1.0939996e-38 320 174
0.00113616 0.648 0.074986562 1.0939996e-38 321 174
0.0022758266 0.64899999 0.075102277 1.0847444e-38 322 174
0.0057421662 0.65499997 0.075796597 1.0664851e-38 325 174
0.0068905996 0.65499997 0.075796597 1.0664851e-38 326 174
0.008039033 0.65499997 0.075796597 1.0664851e-38 327 174
0.0092155198 0.65700001 0.076028034 1.0757047e-38 328 174
0.01036746 0.65700001 0.076028034 1.0849242e-38 329 174
0.011519399 0.65700001 0.076028034 1.1033627e-38 330 174
0.01267134 0.65700001 0.076028034 1.1125822e-38 331 174
0.01384432 0.65799999 0.076143757 1.1218378e-38 332 174
-0.033304565 0.65499997 0.074648157 1.1218022e-38 291 175
-0.03210704 0.65399998 0.074534193 1.1125828e-38 292 175
-0.030960357 0.65399998 0.074534193 1.1033273e-38 293 175
-0.029768093 0.653 0.074420229 1.1124756e-38 294 175
-0.028623167 0.653 0.074420229 1.103256e-38 295 175
-0.027478239 0.653 0.074420229 1.0848889e-38 296 175
-0.026292987 0.65200001 0.074306265 1.1033279e-38 297 175
-0.025149813 0.65200001 0.074306265 1.0849611e-38 298 175
-0.023932999 0.64999998 0.074078329 1.0849611e-38 299 175
-0.022758266 0.64899999 0.073964357 1.0849611e-38 300 175
-0.02158704 0.648 0.073850393 1.0941806e-38 301 175
-0.02041932 0.64700001 0.073736429 1.1034006e-38 302 175
-0.019284913 0.64700001 0.073736429 1.1126202e-38 303 175
-0.018150507 0.64700001 0.073736429 1.1126568e-38 304 175
-0.0170161 0.64700001 0.073736429 1.1311318e-38 305 175
-0.015881693 0.64700001 0.073736429 1.1219838e-38 306 175
-0.014724494 0.64600003 0.073622465 1.1312034e-38 307 175
-0.01359184 0.64600003 0.073622465 1.1219116e-38 308 175
-0.012459187 0.64600003 0.073622465 1.1126921e-38 309 175
-0.011326533 0.64600003 0.073622465 1.1126202e-38 310 175
-0.01019388 0.64600003 0.073622465 1.1034006e-38 311 175
-0.0090612266 0.64600003 0.073622465 1.1216954e-38 312 175
-0.0079285735 0.64600003 0.073622465 1.1216954e-38 313 175
-0.00679592 0.64600003 0.073622465 1.1308065e-38 314 175
-0.0056632664 0.64600003 0.073622465 1.1308065e-38 315 175
-0.0045306133 0.64600003 0.073622465 1.121587e-38 316 175
-0.00339796 0.64600003 0.073622465 1.121587e-38 317 175
-0.00227232 0.648 0.073850393 1.0940362e-38 318 175
-0.0011379133 0.64899999 0.073964357 1.0848166e-38 319 175
0 0.64899999 0.073964357 1.093964e-38 320 175
0.0011379133 0.64899999 0.073964357 1.0847444e-38 321 175
0.0022758266 0.64899999 0.073964357 1.0847447e-38 322 175
0.0034189997 0.64999998 0.074078329 1.0939643e-38 323 175
0.0045586661 0.64999998 0.074078329 1.0664135e-38 324 175
0.0057421662 0.65499997 0.074648157 1.0664135e-38 325 175
0.0068905996 0.65499997 0.074648157 1.0848166e-38 326 175
0.008039033 0.65499997 0.074648157 1.0848166e-38 327 175
0.0091874655 0.65499997 0.074648157 1.0940359e-38 328 175
0.01036746 0.65700001 0.0748761 1.0940359e-38 329 175
0.011519399 0.65700001 0.0748761 1.1125106e-38 330 175
0.01267134 0.65700001 0.0748761 1.1217302e-38 331 175
0.013823279 0.65700001 0.0748761 1.1125825e-38 332 175
0.01497522 0.65700001 0.0748761 1.1218022e-38 333 175
-0.033304565 0.65499997 0.073499724 1.1217305e-38 291 176
-0.03210704 0.65399998 0.073387519 1.1124753e-38 292 176
-0.030960357 0.65399998 0.073387519 1.1032557e-38 293 176
-0.029813679 0.65399998 0.073387519 1.1215872e-38 294 176
-0.028623167 0.653 0.073275305 1.1308068e-38 295 176
-0.027478239 0.653 0.073275305 1.0849608e-38 296 176
-0.026292987 0.65200001 0.073163092 1.0849608e-38 297 176
-0.025149813 0.65200001 0.073163092 1.1032923e-38 298 176
-0.024006641 0.65200001 0.073163092 1.1032923e-38 299 176
-0.022758266 0.64899999 0.072826453 1.1032923e-38 300 176
-0.021620352 0.64899999 0.072826453 1.1125119e-38 301 176
-0.020450879 0.648 0.072714239 1.1217319e-38 302 176
-0.019314719 0.648 0.072714239 1.140171e-38 303 176
-0.01817856 0.648 0.072714239 1.1219119e-38 304 176
-0.0170161 0.64700001 0.072602026 1.1311315e-38 305 176
-0.015881693 0.64700001 0.072602026 1.1312034e-38 306 176
-0.014747286 0.64700001 0.072602026 1.1219838e-38 307 176
-0.013612879 0.64700001 0.072602026 1.1402429e-38 308 176
-0.012478473 0.64700001 0.072602026 1.1310233e-38 309 176
-0.011344067 0.64700001 0.072602026 1.1217319e-38 310 176
-0.01019388 0.64600003 0.072489813 1.1217319e-38 311 176
-0.0090612266 0.64600003 0.072489813 1.1400266e-38 312 176
-0.0079285735 0.64600003 0.072489813 1.1308071e-38 313 176
-0.00679592 0.64600003 0.072489813 1.1399901e-38 314 176
-0.0056632664 0.64600003 0.072489813 1.1399901e-38 315 176
-0.00454464 0.648 0.072714239 1.1216226e-38 316 176
-0.00340848 0.648 0.072714239 1.1031836e-38 317 176
-0.00227232 0.648 0.072714239 1.1031838e-38 318 176
-0.0011379133 0.64899999 0.072826453 1.0847447e-38 319 176
0 0.64999998 0.072938658 1.093964e-38 320 176
0.0011396665 0.64999998 0.072938658 1.093964e-38 321 176
0.0022793331 0.64999998 0.072938658 1.0847447e-38 322 176
0.0034189997 0.64999998 0.072938658 1.0939643e-38 323 176
0.0045797066 0.653 0.073275305 1.0939643e-38 324 176
0.0057333997 0.65399998 0.073387519 1.0847447e-38 325 176
0.0068800794 0.65399998 0.073387519 1.093964e-38 326 176
0.008039033 0.65499997 0.073499724 1.093964e-38 327 176
0.0091874655 0.65499997 0.073499724 1.1032557e-38 328 176
0.01036746 0.65700001 0.073724158 1.1032557e-38 329 176
0.011519399 0.65700001 0.073724158 1.1125109e-38 330 176
0.012690626 0.65799999 0.073836371 1.1217305e-38 331 176
0.013823279 0.65700001 0.073724158 1.1309855e-38 332 176
0.01497522 0.65700001 0.073724158 1.1309855e-38 333 176
-0.033304565 0.65499997 0.072351299 1.1217669e-38 291 177
-0.03210704 0.65399998 0.072240837 1.1124753e-38 292 177
-0.030960357 0.65399998 0.072240837 1.1124753e-38 293 177
-0.029813679 0.65399998 0.072240837 1.1032557e-38 294 177
-0.028666999 0.65399998 0.072240837 1.1124753e-38 295 177
-0.027478239 0.653 0.072130375 1.0942162e-38 296 177
-0.026333313 0.653 0.072130375 1.0849608e-38 297 177
-0.025188386 0.653 0.072130375 1.1033279e-38 298 177
-0.024043459 0.653 0.072130375 1.1033279e-38 299 177
-0.022863466 0.65200001 0.07201992 1.1124756e-38 300 177
-0.021653665 0.64999998 0.071798995 1.1216951e-38 301 177
-0.020513998 0.64999998 0.071798995 1.1125122e-38 302 177
-0.019344525 0.64899999 0.07168854 1.1309514e-38 303 177
-0.018206613 0.64899999 0.07168854 1.1126568e-38 304 177
-0.017068699 0.64899999 0.07168854 1.1403513e-38 305 177
-0.015906241 0.648 0.071578078 1.1312037e-38 306 177
-0.014770079 0.648 0.071578078 1.1312037e-38 307 177
-0.01363392 0.648 0.071578078 1.1493908e-38 308 177
-0.012478473 0.64700001 0.071467623 1.1309517e-38 309 177
-0.011344067 0.64700001 0.071467623 1.1309514e-38 310 177
-0.01020966 0.64700001 0.071467623 1.1217319e-38 311 177
-0.0090752533 0.64700001 0.071467623 1.1492463e-38 312 177
-0.0079408465 0.64700001 0.071467623 1.1308071e-38 313 177
-0.0068064397 0.64700001 0.071467623 1.1399545e-38 314 177
-0.0056807999 0.648 0.071578078 1.1399545e-38 315 177
-0.00454464 0.648 0.071578078 1.1307346e-38 316 177
-0.00340848 0.648 0.071578078 1.1215151e-38 317 177
-0.00227232 0.648 0.071578078 1.1031836e-38 318 177
-0.0011379133 0.64899999 0.07168854 1.1031836e-38 319 177
0 0.64999998 0.071798995 1.093964e-38 320 177
0.0011396665 0.64999998 0.071798995 1.093964e-38 321 177
0.0022793331 0.64999998 0.071798995 1.093964e-38 322 177
0.0034295199 0.65200001 0.07201992 1.093964e-38 323 177
0.0045797066 0.653 0.072130375 1.1031836e-38 324 177
0.0057246331 0.653 0.072130375 1.093964e-38 325 177
0.0068800794 0.65399998 0.072240837 1.1031836e-38 326 177
0.008039033 0.65499997 0.072351299 1.093964e-38 327 177
0.0091874655 0.65499997 0.072351299 1.1032557e-38 328 177
0.01036746 0.65700001 0.072572216 1.1032557e-38 329 177
0.011536933 0.65799999 0.072682679 1.1125106e-38 330 177
0.012690626 0.65799999 0.072682679 1.1309499e-38 331 177
0.01384432 0.65799999 0.072682679 1.1493167e-38 332 177
0.014998012 0.65799999 0.072682679 1.1493167e-38 333 177
-0.030960357 0.65399998 0.071094155 1.0849961e-38 293 178
-0.029813679 0.65399998 0.071094155 1.1125472e-38 294 178
-0.028623167 0.653 0.070985451 1.1217669e-38 295 178
-0.027478239 0.653 0.070985451 1.1034357e-38 296 178
-0.026333313 0.653 0.070985451 1.094216e-38 297 178
-0.025188386 0.653 0.070985451 1.1125472e-38 298 178
-0.024043459 0.653 0.070985451 1.1125472e-38 299 178
-0.022863466 0.65200001 0.070876747 1.1125472e-38 300 178
-0.021720294 0.65200001 0.070876747 1.1125472e-38 301 178
-0.020513998 0.64999998 0.070659332 1.1217672e-38 302 178
-0.019374331 0.64999998 0.070659332 1.1402063e-38 303 178
-0.018234665 0.64999998 0.070659332 1.1126921e-38 304 178
-0.017068699 0.64899999 0.070550621 1.1311312e-38 305 178
-0.015930785 0.64899999 0.070550621 1.1312034e-38 306 178
-0.014770079 0.648 0.070441917 1.1219838e-38 307 178
-0.01363392 0.648 0.070441917 1.1310236e-38 308 178
-0.01249776 0.648 0.070441917 1.1126205e-38 309 178
-0.0113616 0.648 0.070441917 1.130987e-38 310 178
-0.01020966 0.64700001 0.070333213 1.1217674e-38 311 178
-0.0090752533 0.64700001 0.070333213 1.1492461e-38 312 178
-0.0079531204 0.648 0.070441917 1.1400264e-38 313 178
-0.0068064397 0.64700001 0.070333213 1.1399545e-38 314 178
-0.0056720334 0.64700001 0.070333213 1.1307349e-38 315 178
-0.00454464 0.648 0.070441917 1.1490661e-38 316 178
-0.00340848 0.648 0.070441917 1.1490661e-38 317 178
-0.0022758266 0.64899999 0.070550621 1.121587e-38 318 178
-0.0011379133 0.64899999 0.070550621 1.121587e-38 319 178
0 0.64999998 0.070659332 1.1032555e-38 320 178
0.0011396665 0.64999998 0.070659332 1.0848163e-38 321 178
0.0022793331 0.64999998 0.070659332 1.1031836e-38 322 178
0.0034295199 0.65200001 0.070876747 1.1031836e-38 323 178
0.0045797066 0.653 0.070985451 1.1216226e-38 324 178
0.0057246331 0.653 0.070985451 1.1031836e-38 325 178
0.0068800794 0.65399998 0.071094155 1.1216223e-38 326 178
0.008039033 0.65499997 0.071202859 1.1216223e-38 327 178
0.0091874655 0.65499997 0.071202859 1.1308418e-38 328 178
0.01036746 0.65700001 0.071420282 1.1308418e-38 329 178
0.011536933 0.65799999 0.071528979 1.1217302e-38 330 178
0.012709912 0.65899998 0.07163769 1.1309499e-38 331 178
0.013865359 0.65899998 0.07163769 1.1493886e-38 332 178
0.015066394 0.66100001 0.071855105 1.1493886e-38 333 178
-0.029813679 0.65399998 0.069947474 1.0849964e-38 294 179
-0.028623167 0.653 0.069840528 1.0849964e-38 295 179
-0.02743616 0.65200001 0.069733568 1.0849964e-38 296 179
-0.026292987 0.65200001 0.069733568 1.094216e-38 297 179
-0.025188386 0.653 0.069840528 1.1125472e-38 298 179
-0.024043459 0.653 0.069840528 1.1125472e-38 299 179
-0.022863466 0.65200001 0.069733568 1.0942162e-38 300 179
-0.021720294 0.65200001 0.069733568 1.1034359e-38 301 179
-0.02057712 0.65200001 0.069733568 1.1034003e-38 302 179
-0.019374331 0.64999998 0.069519661 1.1310589e-38 303 179
-0.018234665 0.64999998 0.069519661 1.1219116e-38 304 179
-0.017095 0.64999998 0.069519661 1.1311312e-38 305 179
-0.015930785 0.64899999 0.069412716 1.1311318e-38 306 179
-0.014792874 0.64899999 0.069412716 1.1311318e-38 307 179
-0.013654959 0.64899999 0.069412716 1.1494264e-38 308 179
-0.012517046 0.64899999 0.069412716 1.140171e-38 309 179
-0.011379133 0.64899999 0.069412716 1.149318e-38 310 179
-0.010225439 0.648 0.069305755 1.149318e-38 311 179
-0.0090892799 0.648 0.069305755 1.1492817e-38 312 179
-0.0079531204 0.648 0.069305755 1.1308065e-38 313 179
-0.0068064397 0.64700001 0.069198802 1.1399901e-38 314 179
-0.0056720334 0.64700001 0.069198802 1.1307346e-38 315 179
-0.00454464 0.648 0.069305755 1.1582494e-38 316 179
-0.00340848 0.648 0.069305755 1.1582494e-38 317 179
-0.0022758266 0.64899999 0.069412716 1.1491015e-38 318 179
-0.0011379133 0.64899999 0.069412716 1.1398819e-38 319 179
0 0.64999998 0.069519661 1.1214785e-38 320 179
0.0011396665 0.64999998 0.069519661 1.1491012e-38 321 179
0.0022863466 0.65200001 0.069733568 1.1215504e-38 322 179
0.0034347798 0.653 0.069840528 1.1307699e-38 323 179
0.0045797066 0.653 0.069840528 1.1307699e-38 324 179
0.0057333997 0.65399998 0.069947474 1.1307699e-38 325 179
0.0068800794 0.65399998 0.069947474 1.1216223e-38 326 179
0.008039033 0.65499997 0.070054427 1.1308418e-38 327 179
0.0092155198 0.65700001 0.07026834 1.1308418e-38 328 179
0.01036746 0.65700001 0.07026834 1.1308418e-38 329 179
0.011536933 0.65799999 0.070375293 1.1676482e-38 330 179
0.012709912 0.65899998 0.070482239 1.1676482e-38 331 179
0.013865359 0.65899998 0.070482239 1.1676476e-38 332 179
-0.028623167 0.653 0.068695597 1.0942162e-38 295 180
-0.02743616 0.65200001 0.068590395 1.1125119e-38 296 180
-0.026292987 0.65200001 0.068590395 1.0848892e-38 297 180
-0.025188386 0.653 0.068695597 1.103256e-38 298 180
-0.024043459 0.653 0.068695597 1.1124756e-38 299 180
-0.022863466 0.65200001 0.068590395 1.094216e-38 300 180
-0.021720294 0.65200001 0.068590395 1.094216e-38 301 180
-0.02057712 0.65200001 0.068590395 1.1034003e-38 302 180
-0.019433947 0.65200001 0.068590395 1.1310589e-38 303 180
-0.018290773 0.65200001 0.068590395 1.1219116e-38 304 180
-0.017095 0.64999998 0.068379998 1.1311312e-38 305 180
-0.015955333 0.64999998 0.068379998 1.1311315e-38 306 180
-0.014792874 0.64899999 0.068274796 1.1311315e-38 307 180
-0.013654959 0.64899999 0.068274796 1.1494264e-38 308 180
-0.012517046 0.64899999 0.068274796 1.140171e-38 309 180
-0.011379133 0.64899999 0.068274796 1.1402063e-38 310 180
-0.01024122 0.64899999 0.068274796 1.1402063e-38 311 180
-0.0091033066 0.64899999 0.068274796 1.1492817e-38 312 180
-0.0079653924 0.64899999 0.068274796 1.140062e-38 313 180
-0.0068274797 0.64899999 0.068274796 1.1399901e-38 314 180
-0.0056895665 0.64899999 0.068274796 1.1399901e-38 315 180
-0.00454464 0.648 0.068169601 1.158321e-38 316 180
-0.00340848 0.648 0.068169601 1.1491015e-38 317 180
-0.0022758266 0.64899999 0.068274796 1.1399895e-38 318 180
-0.0011379133 0.64899999 0.068274796 1.1307699e-38 319 180
0 0.64999998 0.068379998 1.1215504e-38 320 180
0.0011396665 0.64999998 0.068379998 1.1215504e-38 321 180
0.0022898533 0.653 0.068695597 1.1215501e-38 322 180
0.0034347798 0.653 0.068695597 1.1308055e-38 323 180
0.0045867199 0.65399998 0.068800792 1.1215504e-38 324 180
0.0057333997 0.65399998 0.068800792 1.1215504e-38 325 180
0.0068800794 0.65399998 0.068800792 1.1399895e-38 326 180
0.008039033 0.65499997 0.068905994 1.1399895e-38 327 180
0.0092155198 0.65700001 0.069116399 1.1399895e-38 328 180
0.01036746 0.65700001 0.069116399 1.1399895e-38 329 180
-0.028623167 0.653 0.067550674 1.1125472e-38 295 181
-0.02743616 0.65200001 0.06744723 1.1124756e-38 296 181
-0.026292987 0.65200001 0.06744723 1.1124756e-38 297 181
-0.025188386 0.653 0.067550674 1.1125475e-38 298 181
-0.024043459 0.653 0.067550674 1.1125475e-38 299 181
-0.022863466 0.65200001 0.06744723 1.0942162e-38 300 181
-0.021720294 0.65200001 0.06744723 1.0942162e-38 301 181
-0.02057712 0.65200001 0.06744723 1.1126558e-38 302 181
-0.019433947 0.65200001 0.06744723 1.1402785e-38 303 181
-0.018290773 0.65200001 0.06744723 1.1219119e-38 304 181
-0.017095 0.64999998 0.067240328 1.1219119e-38 305 181
-0.015955333 0.64999998 0.067240328 1.1494627e-38 306 181
-0.014815666 0.64999998 0.067240328 1.1494627e-38 307 181
-0.013675999 0.64999998 0.067240328 1.1494261e-38 308 181
-0.012536332 0.64999998 0.067240328 1.1402066e-38 309 181
-0.011396666 0.64999998 0.067240328 1.1402419e-38 310 181
-0.010256999 0.64999998 0.067240328 1.1309864e-38 311 181
-0.0091033066 0.64899999 0.067136884 1.1676126e-38 312 181
-0.0079653924 0.64899999 0.067136884 1.1492094e-38 313 181
-0.0068274797 0.64899999 0.067136884 1.1675406e-38 314 181
-0.0056895665 0.64899999 0.067136884 1.1675406e-38 315 181
-0.0045516533 0.64899999 0.067136884 1.1675759e-38 316 181
-0.0034137398 0.64899999 0.067136884 1.1583563e-38 317 181
-0.0022793331 0.64999998 0.067240328 1.1583563e-38 318 181
-0.0011396665 0.64999998 0.067240328 1.1583563e-38 319 181
0 0.64999998 0.067240328 1.1490649e-38 320 181
0.0011449266 0.653 0.067550674 1.1490649e-38 321 181
0.00229336 0.65399998 0.067654118 1.1398097e-38 322 181
0.0034400397 0.65399998 0.067654118 1.1490293e-38 323 181
0.0045797066 0.653 0.067550674 1.1491012e-38 324 181
0.0057246331 0.653 0.067550674 1.1583566e-38 325 181
0.0068695596 0.653 0.067550674 1.1400614e-38 326 181
0.008039033 0.65499997 0.067757562 1.1308418e-38 327 181
0.0091874655 0.65499997 0.067757562 1.158321e-38 328 181
0.01036746 0.65700001 0.067964457 1.1767603e-38 329 181
-0.028623167 0.653 0.066405743 1.1216949e-38 295 182
-0.027351998 0.64999998 0.066100657 1.1216949e-38 296 182
-0.026212333 0.64999998 0.066100657 1.1216949e-38 297 182
-0.025188386 0.653 0.066405743 1.1125472e-38 298 182
-0.024043459 0.653 0.066405743 1.0849245e-38 299 182
-0.022898532 0.653 0.066405743 1.1125475e-38 300 182
-0.021753605 0.653 0.066405743 1.1125475e-38 301 182
-0.020608678 0.653 0.066405743 1.1126558e-38 302 182
-0.019463753 0.653 0.066405743 1.1402785e-38 303 182
-0.018318826 0.653 0.066405743 1.140171e-38 304 182
-0.017147599 0.65200001 0.066304058 1.158646e-38 305 182
-0.016004426 0.65200001 0.066304058 1.1494983e-38 306 182
-0.014861252 0.65200001 0.066304058 1.1587179e-38 307 182
-0.01371808 0.65200001 0.066304058 1.1402785e-38 308 182
-0.012536332 0.64999998 0.066100657 1.1402785e-38 309 182
-0.011396666 0.64999998 0.066100657 1.1585375e-38 310 182
-0.010256999 0.64999998 0.066100657 1.1585375e-38 311 182
-0.0091173323 0.64999998 0.066100657 1.1492817e-38 312 182
-0.0079776663 0.64999998 0.066100657 1.1492817e-38 313 182
-0.0068274797 0.64899999 0.065998971 1.158321e-38 314 182
-0.0056895665 0.64899999 0.065998971 1.1675406e-38 315 182
-0.0045516533 0.64899999 0.065998971 1.1675762e-38 316 182
-0.0034137398 0.64899999 0.065998971 1.1675762e-38 317 182
-0.0022758266 0.64899999 0.065998971 1.1583566e-38 318 182
-0.0011379133 0.64899999 0.065998971 1.1491012e-38 319 182
0 0.65399998 0.066507436 1.1491012e-38 320 182
0.00114668 0.65399998 0.066507436 1.1398816e-38 321 182
0.00229336 0.65399998 0.066507436 1.1490649e-38 322 182
0.0034347798 0.653 0.066405743 1.1582844e-38 323 182
0.0045797066 0.653 0.066405743 1.1583566e-38 324 182
0.0057158666 0.65200001 0.066304058 1.1583566e-38 325 182
0.0068590399 0.65200001 0.066304058 1.1492449e-38 326 182
0.0080267601 0.65399998 0.066507436 1.1399895e-38 327 182
0.0091734398 0.65399998 0.066507436 1.1492449e-38 328 182
-0.027309919 0.64899999 0.064861059 1.1125472e-38 296 183
-0.026172007 0.64899999 0.064861059 1.1125472e-38 297 183
-0.025188386 0.653 0.06526082 1.1124753e-38 298 183
-0.024043459 0.653 0.06526082 1.1124753e-38 299 183
-0.022898532 0.653 0.06526082 1.1034359e-38 300 183
-0.021753605 0.653 0.06526082 1.1034359e-38 301 183
-0.020608678 0.653 0.06526082 1.130987e-38 302 183
-0.019463753 0.653 0.06526082 1.1402066e-38 303 183
-0.018318826 0.653 0.06526082 1.1402429e-38 304 183
-0.017173899 0.653 0.06526082 1.1587179e-38 305 183
-0.016028972 0.653 0.06526082 1.1587176e-38 306 183
-0.014884046 0.653 0.06526082 1.1587176e-38 307 183
-0.013739119 0.653 0.06526082 1.149498e-38 308 183
-0.012574906 0.65200001 0.065160878 1.1402785e-38 309 183
-0.011431733 0.65200001 0.065160878 1.1677211e-38 310 183
-0.010256999 0.64999998 0.064960994 1.1677211e-38 311 183
-0.0091173323 0.64999998 0.064960994 1.1768325e-38 312 183
-0.0079776663 0.64999998 0.064960994 1.1676129e-38 313 183
-0.0068379994 0.64999998 0.064960994 1.1858721e-38 314 183
-0.0056895665 0.64899999 0.064861059 1.1858721e-38 315 183
-0.0045516533 0.64899999 0.064861059 1.1858718e-38 316 183
-0.0034189997 0.64999998 0.064960994 1.1674687e-38 317 183
-0.0022793331 0.64999998 0.064960994 1.1859074e-38 318 183
-0.00114668 0.65399998 0.065360755 1.1675043e-38 319 183
0 0.65399998 0.065360755 1.1582844e-38 320 183
0.00114668 0.65399998 0.065360755 1.167504e-38 321 183
0.00229336 0.65399998 0.065360755 1.167504e-38 322 183
0.0034347798 0.653 0.06526082 1.167504e-38 323 183
0.0045797066 0.653 0.06526082 1.1583563e-38 324 183
0.0057158666 0.65200001 0.065160878 1.1675759e-38 325 183
0.0068590399 0.65200001 0.065160878 1.1675759e-38 326 183
0.0080267601 0.65399998 0.065360755 1.1675759e-38 327 183
0.0091734398 0.65399998 0.065360755 1.1767959e-38 328 183
-0.027309919 0.64899999 0.063723139 1.1125472e-38 296 184
-0.026172007 0.64899999 0.063723139 1.1033276e-38 297 184
-0.025149813 0.65200001 0.064017706 1.1124756e-38 298 184
-0.024043459 0.653 0.064115889 1.1216951e-38 299 184
-0.022898532 0.653 0.064115889 1.0942162e-38 300 184
-0.021753605 0.653 0.064115889 1.1034359e-38 301 184
-0.02057712 0.65200001 0.064017706 1.1309867e-38 302 184
-0.019433947 0.65200001 0.064017706 1.1494259e-38 303 184
-0.018318826 0.653 0.064115889 1.1311668e-38 304 184
-0.017147599 0.65200001 0.064017706 1.1403864e-38 305 184
-0.016004426 0.65200001 0.064017706 1.1587176e-38 306 184
-0.014884046 0.653 0.064115889 1.149498e-38 307 184
-0.013739119 0.653 0.064115889 1.1586813e-38 308 184
-0.012574906 0.65200001 0.064017706 1.1494259e-38 309 184
-0.011431733 0.65200001 0.064017706 1.1677927e-38 310 184
-0.01028856 0.65200001 0.064017706 1.1585731e-38 311 184
-0.0091453865 0.65200001 0.064017706 1.1768322e-38 312 184
-0.0080022132 0.65200001 0.064017706 1.1768322e-38 313 184
-0.0068379994 0.64999998 0.063821331 1.1767603e-38 314 184
-0.005698333 0.64999998 0.063821331 1.1675406e-38 315 184
-0.0045586661 0.64999998 0.063821331 1.1950554e-38 316 184
-0.0034347798 0.653 0.064115889 1.1950554e-38 317 184
-0.00229336 0.65399998 0.064214081 1.1674687e-38 318 184
-0.00114668 0.65399998 0.064214081 1.1582491e-38 319 184
0 0.65399998 0.064214081 1.167504e-38 320 184
0.00114668 0.65399998 0.064214081 1.167504e-38 321 184
0.00229336 0.65399998 0.064214081 1.1583563e-38 322 184
0.0034400397 0.65399998 0.064214081 1.1675759e-38 323 184
0.0045797066 0.653 0.064115889 1.167504e-38 324 184
0.0057158666 0.65200001 0.064017706 1.1859071e-38 325 184
0.0068590399 0.65200001 0.064017706 1.1675756e-38 326 184
0.0080267601 0.65399998 0.064214081 1.1675756e-38 327 184
0.0091734398 0.65399998 0.064214081 1.1859071e-38 328 184
-0.027351998 0.64999998 0.062681668 1.1124756e-38 296 185
-0.026212333 0.64999998 0.062681668 1.1124756e-38 297 185
-0.025149813 0.65200001 0.062874533 1.11244e-38 298 185
-0.024043459 0.653 0.062970966 1.11244e-38 299 185
-0.022898532 0.653 0.062970966 1.1125475e-38 300 185
-0.021753605 0.653 0.062970966 1.1217672e-38 301 185
-0.02057712 0.65200001 0.062874533 1.1493182e-38 302 185
-0.019433947 0.65200001 0.062874533 1.1677574e-38 303 185
-0.018318826 0.653 0.062970966 1.149498e-38 304 185
-0.017147599 0.65200001 0.062874533 1.1679373e-38 305 185
-0.016004426 0.65200001 0.062874533 1.1770488e-38 306 185
-0.014884046 0.653 0.062970966 1.1770488e-38 307 185
-0.013739119 0.653 0.062970966 1.1770844e-38 308 185
-0.012574906 0.65200001 0.062874533 1.1586813e-38 309 185
-0.011431733 0.65200001 0.062874533 1.1861239e-38 310 185
-0.01028856 0.65200001 0.062874533 1.1861239e-38 311 185
-0.0091453865 0.65200001 0.062874533 1.186052e-38 312 185
-0.0080022132 0.65200001 0.062874533 1.1768325e-38 313 185
-0.0068590399 0.65200001 0.062874533 1.2042751e-38 314 185
-0.0057158666 0.65200001 0.062874533 1.2042751e-38 315 185
-0.0045726933 0.65200001 0.062874533 1.2133866e-38 316 185
-0.0034347798 0.653 0.062970966 1.2133866e-38 317 185
-0.00229336 0.65399998 0.063067392 1.1858358e-38 318 185
-0.00114668 0.65399998 0.063067392 1.1858358e-38 319 185
0 0.65399998 0.063067392 1.1675043e-38 320 185
0.00114668 0.65399998 0.063067392 1.1859074e-38 321 185
0.00229336 0.65399998 0.063067392 1.1675759e-38 322 185
0.0034400397 0.65399998 0.063067392 1.1583563e-38 323 185
-0.027646558 0.65700001 0.06220476 1.1216951e-38 296 186
-0.02637364 0.65399998 0.061920714 1.1216951e-38 297 186
-0.025226958 0.65399998 0.061920714 1.1216954e-38 298 186
-0.024080278 0.65399998 0.061920714 1.11244e-38 299 186
-0.022898532 0.653 0.061826039 1.11244e-38 300 186
-0.021753605 0.653 0.061826039 1.1309151e-38 301 186
-0.020608678 0.653 0.061826039 1.1402066e-38 302 186
-0.019463753 0.653 0.061826039 1.1586457e-38 303 186
-0.018318826 0.653 0.061826039 1.158646e-38 304 186
-0.017173899 0.653 0.061826039 1.158646e-38 305 186
-0.016028972 0.653 0.061826039 1.1679376e-38 306 186
-0.014884046 0.653 0.061826039 1.1679376e-38 307 186
-0.013739119 0.653 0.061826039 1.1862318e-38 308 186
-0.012574906 0.65200001 0.061731357 1.1862318e-38 309 186
-0.011431733 0.65200001 0.061731357 1.1861595e-38 310 186
-0.01028856 0.65200001 0.061731357 1.1677205e-38 311 186
-0.0091453865 0.65200001 0.061731357 1.2043469e-38 312 186
-0.0080022132 0.65200001 0.061731357 1.2043469e-38 313 186
-0.0068590399 0.65200001 0.061731357 1.222606e-38 314 186
-0.0057158666 0.65200001 0.061731357 1.2133863e-38 315 186
-0.0045797066 0.653 0.061826039 1.222606e-38 316 186
-0.0034400397 0.65399998 0.061920714 1.2041667e-38 317 186
-0.0022968664 0.65499997 0.062015396 1.2041667e-38 318 186
-0.0011536933 0.65799999 0.062299434 1.2041667e-38 319 186
0 0.65899998 0.062394116 1.2041665e-38 320 186
0.0011554466 0.65899998 0.062394116 1.2041665e-38 321 186
-0.033609647 0.66100001 0.061424527 1.1218022e-38 291 187
-0.032352503 0.65899998 0.061238669 1.1218022e-38 292 187
-0.031197058 0.65899998 0.061238669 1.1218022e-38 293 187
-0.029996024 0.65799999 0.061145745 1.1216949e-38 294 187
-0.028842334 0.65799999 0.061145745 1.1124753e-38 295 187
-0.027646558 0.65700001 0.061052818 1.1216951e-38 296 187
-0.026413966 0.65499997 0.060866963 1.1216951e-38 297 187
-0.025265532 0.65499997 0.060866963 1.1216951e-38 298 187
-0.024080278 0.65399998 0.060774036 1.1216951e-38 299 187
-0.022933599 0.65399998 0.060774036 1.1400264e-38 300 187
-0.021753605 0.653 0.060681112 1.1492461e-38 301 187
-0.020608678 0.653 0.060681112 1.1402066e-38 302 187
-0.019493559 0.65399998 0.060774036 1.1494261e-38 303 187
-0.018318826 0.653 0.060681112 1.158646e-38 304 187
-0.017173899 0.653 0.060681112 1.1862688e-38 305 187
-0.016028972 0.653 0.060681112 1.1863044e-38 306 187
-0.014884046 0.653 0.060681112 1.195524e-38 307 187
-0.013739119 0.653 0.060681112 1.1863038e-38 308 187
-0.012594193 0.653 0.060681112 1.1770841e-38 309 187
-0.011449266 0.653 0.060681112 1.204527e-38 310 187
-0.010304339 0.653 0.060681112 1.1952716e-38 311 187
-0.0091594132 0.653 0.060681112 1.2135665e-38 312 187
-0.0080144862 0.653 0.060681112 1.2043469e-38 313 187
-0.0068695596 0.653 0.060681112 1.222606e-38 314 187
-0.0057246331 0.653 0.060681112 1.2318614e-38 315 187
-0.0045797066 0.653 0.060681112 1.2409731e-38 316 187
-0.0034452998 0.65499997 0.060866963 1.222534e-38 317 187
-0.0023073866 0.65799999 0.061145745 1.2133863e-38 318 187
-0.0011536933 0.65799999 0.061145745 1.2133863e-38 319 187
0 0.65899998 0.061238669 1.2133863e-38 320 187
0.0011554466 0.65899998 0.061238669 1.2041667e-38 321 187
-0.033609647 0.66100001 0.060265575 1.1493886e-38 291 188
-0.032352503 0.65899998 0.060083222 1.1309855e-38 292 188
-0.031197058 0.65899998 0.060083222 1.1309855e-38 293 188
-0.029996024 0.65799999 0.059992049 1.1308421e-38 294 188
-0.028842334 0.65799999 0.059992049 1.1400617e-38 295 188
-0.027688639 0.65799999 0.059992049 1.1124753e-38 296 188
-0.026494619 0.65700001 0.05990088 1.1216949e-38 297 188
-0.025342681 0.65700001 0.05990088 1.1125475e-38 298 188
-0.024117097 0.65499997 0.059718527 1.1033279e-38 299 188
-0.022933599 0.65399998 0.059627358 1.1400266e-38 300 188
-0.021753605 0.653 0.059536185 1.1584659e-38 301 188
-0.020608678 0.653 0.059536185 1.1585378e-38 302 188
-0.019493559 0.65399998 0.059627358 1.1677574e-38 303 188
-0.018318826 0.653 0.059536185 1.1769772e-38 304 188
-0.017173899 0.653 0.059536185 1.1769772e-38 305 188
-0.016028972 0.653 0.059536185 1.1862688e-38 306 188
-0.014906839 0.65399998 0.059627358 1.1862688e-38 307 188
-0.013739119 0.653 0.059536185 1.2045989e-38 308 188
-0.012594193 0.653 0.059536185 1.2045989e-38 309 188
-0.011449266 0.653 0.059536185 1.222858e-38 310 188
-0.01032012 0.65399998 0.059627358 1.2136384e-38 311 188
-0.0091734398 0.65399998 0.059627358 1.2135662e-38 312 188
-0.0080267601 0.65399998 0.059627358 1.2135662e-38 313 188
-0.0068800794 0.65399998 0.059627358 1.2318614e-38 314 188
-0.0057333997 0.65399998 0.059627358 1.2133863e-38 315 188
-0.0045937328 0.65499997 0.059718527 1.2225343e-38 316 188
-0.0034558198 0.65700001 0.05990088 1.2409375e-38 317 188
-0.0023108933 0.65899998 0.060083222 1.2133866e-38 318 188
-0.0011554466 0.65899998 0.060083222 1.2133866e-38 319 188
0 0.65899998 0.060083222 1.2133144e-38 320 188
0.0011554466 0.65899998 0.060083222 1.2133144e-38 321 188
-0.033609647 0.66100001 0.059106622 1.1310218e-38 291 189
-0.032450691 0.66100001 0.059106622 1.1309855e-38 292 189
-0.031197058 0.65899998 0.058927774 1.1217658e-38 293 189
-0.030041611 0.65899998 0.058927774 1.140097e-38 294 189
-0.028886165 0.65899998 0.058927774 1.140097e-38 295 189
-0.027730718 0.65899998 0.058927774 1.1125828e-38 296 189
-0.026494619 0.65700001 0.058748938 1.1218025e-38 297 189
-0.025342681 0.65700001 0.058748938 1.1125472e-38 298 189
-0.024117097 0.65499997 0.058570094 1.1125472e-38 299 189
-0.022968665 0.65499997 0.058570094 1.1216954e-38 300 189
-0.021786919 0.65399998 0.05848068 1.1309151e-38 301 189
-0.020640239 0.65399998 0.05848068 1.1493185e-38 302 189
-0.019493559 0.65399998 0.05848068 1.1585381e-38 303 189
-0.01834688 0.65399998 0.05848068 1.1677576e-38 304 189
-0.017200198 0.65399998 0.05848068 1.1861968e-38 305 189
-0.01605352 0.65399998 0.05848068 1.1862324e-38 306 189
-0.014906839 0.65399998 0.05848068 1.1954521e-38 307 189
-0.013760159 0.65399998 0.05848068 1.1954518e-38 308 189
-0.012613479 0.65399998 0.05848068 1.1862321e-38 309 189
-0.011466799 0.65399998 0.05848068 1.2320778e-38 310 189
-0.01032012 0.65399998 0.05848068 1.2228582e-38 311 189
-0.0091734398 0.65399998 0.05848068 1.2318977e-38 312 189
-0.0080267601 0.65399998 0.05848068 1.2226782e-38 313 189
-0.0068800794 0.65399998 0.05848068 1.2318614e-38 314 189
-0.0057421662 0.65499997 0.058570094 1.222606e-38 315 189
-0.0045937328 0.65499997 0.058570094 1.2409375e-38 316 189
-0.0034558198 0.65700001 0.058748938 1.2409375e-38 317 189
-0.0023108933 0.65899998 0.058927774 1.213351e-38 318 189
-0.0011554466 0.65899998 0.058927774 1.213351e-38 319 189
0 0.65899998 0.058927774 1.2225343e-38 320 189
-0.033660494 0.662 0.058035329 1.1586084e-38 291 190
-0.032450691 0.66100001 0.057947662 1.149353e-38 292 190
-0.031291738 0.66100001 0.057947662 1.1309499e-38 293 190
-0.030132787 0.66100001 0.057947662 1.1492811e-38 294 190
-0.028886165 0.65899998 0.057772331 1.1492811e-38 295 190
-0.027730718 0.65899998 0.057772331 1.1309502e-38 296 190
-0.026494619 0.65700001 0.057596996 1.1309502e-38 297 190
-0.025342681 0.65700001 0.057596996 1.1309504e-38 298 190
-0.024117097 0.65499997 0.057421666 1.1309504e-38 299 190
-0.022968665 0.65499997 0.057421666 1.1492463e-38 300 190
-0.021820232 0.65499997 0.057421666 1.1584659e-38 301 190
-0.020671798 0.65499997 0.057421666 1.1585381e-38 302 190
-0.019523365 0.65499997 0.057421666 1.1677576e-38 303 190
-0.01834688 0.65399998 0.057333998 1.1677576e-38 304 190
-0.017200198 0.65399998 0.057333998 1.1861968e-38 305 190
-0.01605352 0.65399998 0.057333998 1.1863044e-38 306 190
-0.014906839 0.65399998 0.057333998 1.195524e-38 307 190
-0.013760159 0.65399998 0.057333998 1.2138549e-38 308 190
-0.012613479 0.65399998 0.057333998 1.1954518e-38 309 190
-0.011466799 0.65399998 0.057333998 1.213711e-38 310 190
-0.01032012 0.65399998 0.057333998 1.2044914e-38 311 190
-0.0091734398 0.65399998 0.057333998 1.231898e-38 312 190
-0.008039033 0.65499997 0.057421666 1.231898e-38 313 190
-0.0068905996 0.65499997 0.057421666 1.241081e-38 314 190
-0.0057421662 0.65499997 0.057421666 1.2318614e-38 315 190
-0.0045937328 0.65499997 0.057421666 1.2318614e-38 316 190
-0.0034558198 0.65700001 0.057596996 1.2318614e-38 317 190
-0.0023108933 0.65899998 0.057772331 1.2226063e-38 318 190
-0.0011554466 0.65899998 0.057772331 1.2226063e-38 319 190
0 0.65899998 0.057772331 1.2226063e-38 320 190
0.0011554466 0.65899998 0.057772331 1.2133866e-38 321 190
-0.036036257 0.66299999 0.056960538 1.1587163e-38 289 191
-0.034873798 0.66299999 0.056960538 1.1310936e-38 290 191
-0.033660494 0.662 0.056874625 1.1310936e-38 291 191
-0.032499783 0.662 0.056874625 1.1310218e-38 292 191
-0.031291738 0.66100001 0.056788713 1.1310218e-38 293 191
-0.030132787 0.66100001 0.056788713 1.1492814e-38 294 191
-0.028973831 0.66100001 0.056788713 1.1492814e-38 295 191
-0.02781488 0.66100001 0.056788713 1.1216949e-38 296 191
-0.026534945 0.65799999 0.056530971 1.1216949e-38 297 191
-0.025342681 0.65700001 0.056445058 1.1400264e-38 298 191
-0.024117097 0.65499997 0.056273226 1.1492461e-38 299 191
-0.022968665 0.65499997 0.056273226 1.1493182e-38 300 191
-0.021820232 0.65499997 0.056273226 1.1585378e-38 301 191
-0.020671798 0.65499997 0.056273226 1.1402063e-38 302 191
-0.019523365 0.65499997 0.056273226 1.1586813e-38 303 191
-0.018374931 0.65499997 0.056273226 1.158646e-38 304 191
-0.017226499 0.65499997 0.056273226 1.1862688e-38 305 191
-0.016078066 0.65499997 0.056273226 1.1771571e-38 306 191
-0.014906839 0.65399998 0.056187313 1.1771571e-38 307 191
-0.013760159 0.65399998 0.056187313 1.2138549e-38 308 191
-0.012613479 0.65399998 0.056187313 1.1954518e-38 309 191
-0.011466799 0.65399998 0.056187313 1.2320059e-38 310 191
-0.01032012 0.65399998 0.056187313 1.2227864e-38 311 191
-0.0091734398 0.65399998 0.056187313 1.2594844e-38 312 191
-0.008039033 0.65499997 0.056273226 1.2410454e-38 313 191
-0.0068905996 0.65499997 0.056273226 1.2594122e-38 314 191
-0.0057596997 0.65700001 0.056445058 1.2594122e-38 315 191
-0.0046077599 0.65700001 0.056445058 1.2594475e-38 316 191
-0.0034610799 0.65799999 0.056530971 1.2594475e-38 317 191
-0.0023108933 0.65899998 0.056616884 1.2501924e-38 318 191
-0.0011554466 0.65899998 0.056616884 1.2409728e-38 319 191
0 0.65899998 0.056616884 1.222534e-38 320 191
0.0011554466 0.65899998 0.056616884 1.222534e-38 321 191
-0.036036257 0.66299999 0.055798076 1.1312015e-38 289 192
-0.034873798 0.66299999 0.055798076 1.1403135e-38 290 192
-0.033660494 0.662 0.055713918 1.1403135e-38 291 192
-0.032499783 0.662 0.055713918 1.1402782e-38 292 192
-0.031339079 0.662 0.055713918 1.1126555e-38 293 192
-0.030178372 0.662 0.055713918 1.149318e-38 294 192
-0.029017664 0.662 0.055713918 1.1309148e-38 295 192
-0.02781488 0.66100001 0.05562976 1.1492461e-38 296 192
-0.026575271 0.65899998 0.055461437 1.1400264e-38 297 192
-0.025342681 0.65700001 0.055293117 1.1400264e-38 298 192
-0.024117097 0.65499997 0.055124797 1.1492461e-38 299 192
-0.022968665 0.65499997 0.055124797 1.1309867e-38 300 192
-0.021820232 0.65499997 0.055124797 1.1309867e-38 301 192
-0.020671798 0.65499997 0.055124797 1.1494259e-38 302 192
-0.019582979 0.65700001 0.055293117 1.1586813e-38 303 192
-0.018374931 0.65499997 0.055124797 1.1770488e-38 304 192
-0.017226499 0.65499997 0.055124797 1.1863044e-38 305 192
-0.016078066 0.65499997 0.055124797 1.195524e-38 306 192
-0.014929632 0.65499997 0.055124797 1.195524e-38 307 192
-0.013760159 0.65399998 0.055040635 1.2138549e-38 308 192
-0.012613479 0.65399998 0.055040635 1.1954518e-38 309 192
-0.011466799 0.65399998 0.055040635 1.250409e-38 310 192
-0.01032012 0.65399998 0.055040635 1.2320059e-38 311 192
-0.0091734398 0.65399998 0.055040635 1.2594488e-38 312 192
-0.008039033 0.65499997 0.055124797 1.2410457e-38 313 192
-0.0069116396 0.65700001 0.055293117 1.2777081e-38 314 192
-0.0057596997 0.65700001 0.055293117 1.2777081e-38 315 192
-0.0046077599 0.65700001 0.055293117 1.2594841e-38 316 192
-0.0034610799 0.65799999 0.055377278 1.241081e-38 317 192
-0.0023108933 0.65899998 0.055461437 1.2318612e-38 318 192
-0.0011554466 0.65899998 0.055461437 1.2226416e-38 319 192
0 0.66100001 0.05562976 1.2409011e-38 320 192
-0.03619932 0.66600001 0.054882839 1.1587163e-38 289 193
-0.035031598 0.66600001 0.054882839 1.1494612e-38 290 193
-0.033762183 0.66399997 0.054718021 1.1402416e-38 291 193
-0.032548878 0.66299999 0.054635618 1.1402419e-38 292 193
-0.031386416 0.66299999 0.054635618 1.1309864e-38 293 193
-0.030223956 0.66299999 0.054635618 1.1309148e-38 294 193
-0.029061496 0.66299999 0.054635618 1.1309148e-38 295 193
-0.02781488 0.66100001 0.054470807 1.1309148e-38 296 193
-0.026575271 0.65899998 0.054305989 1.1216951e-38 297 193
-0.025381252 0.65799999 0.054223582 1.1309148e-38 298 193
-0.024190739 0.65700001 0.054141179 1.1309148e-38 299 193
-0.023038799 0.65700001 0.054141179 1.149318e-38 300 193
-0.021886859 0.65700001 0.054141179 1.1585375e-38 301 193
-0.020734919 0.65700001 0.054141179 1.1402066e-38 302 193
-0.019582979 0.65700001 0.054141179 1.1586457e-38 303 193
-0.01843104 0.65700001 0.054141179 1.1861968e-38 304 193
-0.017226499 0.65499997 0.053976361 1.1954165e-38 305 193
-0.016078066 0.65499997 0.053976361 1.1863044e-38 306 193
-0.014929632 0.65499997 0.053976361 1.1863044e-38 307 193
-0.013781199 0.65499997 0.053976361 1.2138186e-38 308 193
-0.012632766 0.65499997 0.053976361 1.2045989e-38 309 193
-0.011484332 0.65499997 0.053976361 1.2320059e-38 310 193
-0.010335899 0.65499997 0.053976361 1.2320059e-38 311 193
-0.0091874655 0.65499997 0.053976361 1.2503371e-38 312 193
-0.008039033 0.65499997 0.053976361 1.231898e-38 313 193
-0.0069116396 0.65700001 0.054141179 1.2777437e-38 314 193
-0.0057596997 0.65700001 0.054141179 1.2777437e-38 315 193
-0.0046077599 0.65700001 0.054141179 1.2410807e-38 316 193
-0.0034610799 0.65799999 0.054223582 1.2410807e-38 317 193
-0.0023108933 0.65899998 0.054305989 1.2502277e-38 318 193
-0.0011554466 0.65899998 0.054305989 1.2502277e-38 319 193
0 0.66100001 0.054470807 1.2501561e-38 320 193
-0.03619932 0.66600001 0.053715117 1.1677924e-38 289 194
-0.035031598 0.66600001 0.053715117 1.1494614e-38 290 194
-0.03386388 0.66600001 0.053715117 1.1402419e-38 291 194
-0.032696161 0.66600001 0.053715117 1.1493182e-38 292 194
-0.031433757 0.66399997 0.053553808 1.1309151e-38 293 194
-0.030269546 0.66399997 0.053553808 1.1309151e-38 294 194
-0.029061496 0.66299999 0.053473156 1.1216954e-38 295 194
-0.027899038 0.66299999 0.053473156 1.1400264e-38 296 194
-0.026655925 0.66100001 0.053311851 1.1400264e-38 297 194
-0.025419824 0.65899998 0.053150542 1.1309504e-38 298 194
-0.02422756 0.65799999 0.05306989 1.1309504e-38 299 194
-0.023073865 0.65799999 0.05306989 1.1492817e-38 300 194
-0.021920172 0.65799999 0.05306989 1.1585012e-38 301 194
-0.02076648 0.65799999 0.05306989 1.1494259e-38 302 194
-0.019582979 0.65700001 0.052989237 1.1586813e-38 303 194
-0.01843104 0.65700001 0.052989237 1.1862324e-38 304 194
-0.0172791 0.65700001 0.052989237 1.1954521e-38 305 194
-0.01612716 0.65700001 0.052989237 1.1954521e-38 306 194
