# .PCD v.7 - Point Cloud Data file format
FIELDS x y z rgb imX imY
SIZE 4 4 4 4 4 4
TYPE F F F F F F
COUNT 1 1 1 1 1 1
WIDTH 850
HEIGHT 1
VIEWPOINT 0 0 0 1 0 0 0
POINTS 850
DATA ascii
0.020477179 0.68699998 0.026499879 1.4104467e-38 337 218
-0.040775519 0.68400002 0.025184879 9.8681722e-39 286 219
-0.039460517 0.68199998 0.025111238 8.1164552e-39 287 219
-0.038152531 0.68000001 0.025037598 7.4707327e-39 288 219
-0.036960267 0.68000001 0.025037598 7.7476797e-39 289 219
-0.035715401 0.67900002 0.025000781 7.0137244e-39 290 219
-0.034474038 0.67799997 0.024963958 6.9215288e-39 291 219
-0.033187091 0.676 0.024890319 5.5439795e-39 292 219
-0.031954501 0.67500001 0.0248535 5.1755557e-39 293 219
-0.030725412 0.67400002 0.024816679 4.8074935e-39 294 219
-0.029455997 0.67199999 0.024743039 5.084079e-39 295 219
-0.028235679 0.671 0.024706218 5.0851748e-39 296 219
-0.027059194 0.671 0.024706218 5.2695661e-39 297 219
-0.025882706 0.671 0.024706218 5.6376269e-39 298 219
-0.024706218 0.671 0.024706218 6.0986037e-39 299 219
-0.023529733 0.671 0.024706218 7.9378289e-39 300 219
-0.022353247 0.671 0.024706218 7.3846551e-39 301 219
-0.021176759 0.671 0.024706218 4.5330576e-39 302 219
-0.019970467 0.67000002 0.024669399 2.8731761e-39 303 219
-0.018795732 0.67000002 0.024669399 2.0513314e-39 304 219
-0.017620999 0.67000002 0.024669399 2.6967008e-39 305 219
-0.016446266 0.67000002 0.024669399 1.4077641e-39 306 219
-0.015225946 0.66799998 0.02459576 2.0531335e-39 307 219
-0.014054719 0.66799998 0.02459576 7.8510213e-39 308 219
-0.012883492 0.66799998 0.02459576 8.8651732e-39 309 219
-0.011712266 0.66799998 0.02459576 8.7708168e-39 310 219
-0.01054104 0.66799998 0.02459576 4.1610353e-39 311 219
-0.0093557863 0.667 0.024558939 2.6244919e-41 312 219
-0.0081863133 0.667 0.024558939 1.0454401e-39 313 219
-0.0070168395 0.667 0.024558939 5.6397527e-39 314 219
-0.0058473665 0.667 0.024558939 6.1929251e-39 315 219
-0.0046778931 0.667 0.024558939 6.9279734e-39 316 219
-0.0035084197 0.667 0.024558939 7.3889515e-39 317 219
-0.0023389466 0.667 0.024558939 6.0989161e-39 318 219
-0.0011694733 0.667 0.024558939 4.7156216e-39 319 219
0 0.66799998 0.02459576 4.2618349e-39 320 219
0.0011747333 0.67000002 0.024669399 4.2618349e-39 321 219
0.0023529732 0.671 0.024706218 3.7104674e-39 322 219
0.00353472 0.67199999 0.024743039 3.617913e-39 323 219
0.0047269869 0.67400002 0.024816679 7.382109e-39 324 219
0.0059087332 0.67400002 0.024816679 9.7795541e-39 325 219
0.0071010003 0.67500001 0.0248535 1.2534996e-38 326 219
0.0082844999 0.67500001 0.0248535 1.2903418e-38 327 219
0.0094679995 0.67500001 0.0248535 1.3365475e-38 328 219
0.0106515 0.67500001 0.0248535 1.4195238e-38 329 219
0.011887599 0.67799997 0.024963958 1.4656214e-38 330 219
0.013095647 0.67900002 0.025000781 1.4840607e-38 331 219
0.01428616 0.67900002 0.025000781 1.4472896e-38 332 219
0.015545053 0.68199998 0.025111238 1.4104114e-38 333 219
0.016765373 0.68300003 0.02514806 1.309247e-38 334 219
0.017962901 0.68300003 0.02514806 1.1985763e-38 335 219
0.01918848 0.68400002 0.025184879 1.050597e-38 336 219
0.020477179 0.68699998 0.025295338 1.4193435e-38 337 219
-0.042158898 0.68699998 0.024090799 1.429249e-38 285 220
-0.040715907 0.68300003 0.023950534 1.0420622e-38 286 220
-0.039518382 0.68300003 0.023950534 8.5770676e-39 287 220
-0.038264744 0.68199998 0.023915464 7.3803251e-39 288 220
-0.036960267 0.68000001 0.023845334 7.2877708e-39 289 220
-0.035767999 0.68000001 0.023845334 7.108064e-39 290 220
-0.034524884 0.67900002 0.023810266 7.3850111e-39 291 220
-0.033187091 0.676 0.023705067 6.7450296e-39 292 220
-0.031954501 0.67500001 0.023669999 6.1918559e-39 293 220
-0.030725412 0.67400002 0.023634933 6.1897021e-39 294 220
-0.029455997 0.67199999 0.023564799 5.7290827e-39 295 220
-0.02827776 0.67199999 0.023564799 4.9918834e-39 296 220
-0.027059194 0.671 0.023529733 4.1621241e-39 297 220
-0.025882706 0.671 0.023529733 3.7047389e-39 298 220
-0.024706218 0.671 0.023529733 4.0735214e-39 299 220
-0.023529733 0.671 0.023529733 4.8092872e-39 300 220
-0.022353247 0.671 0.023529733 5.1780711e-39 301 220
-0.021176759 0.671 0.023529733 4.992961e-39 302 220
-0.019970467 0.67000002 0.023494666 4.8085683e-39 303 220
-0.018795732 0.67000002 0.023494666 5.3592211e-39 304 220
-0.017620999 0.67000002 0.023494666 5.5436138e-39 305 220
-0.016446266 0.67000002 0.023494666 4.9915148e-39 306 220
-0.015225946 0.66799998 0.023424532 5.1759061e-39 307 220
-0.014054719 0.66799998 0.023424532 9.4136624e-39 308 220
-0.012883492 0.66799998 0.023424532 1.0151227e-38 309 220
-0.011712266 0.66799998 0.023424532 9.22999e-39 310 220
-0.01054104 0.66799998 0.023424532 4.9889911e-39 311 220
-0.0093557863 0.667 0.023389466 2.6610658e-41 312 220
-0.0081863133 0.667 0.023389466 1.6872124e-39 313 220
-0.0070168395 0.667 0.023389466 5.4553572e-39 314 220
-0.0058473665 0.667 0.023389466 6.3776736e-39 315 220
-0.0046778931 0.667 0.023389466 7.6615755e-39 316 220
-0.0035084197 0.667 0.023389466 8.1221949e-39 317 220
-0.0023389466 0.667 0.023389466 6.1903929e-39 318 220
-0.0011712266 0.66799998 0.023424532 5.2680765e-39 319 220
0 0.66799998 0.023424532 4.169991e-39 320 220
0.0011764866 0.671 0.023529733 4.0777953e-39 321 220
0.0023564799 0.67199999 0.023564799 3.6186193e-39 322 220
0.00353472 0.67199999 0.023564799 3.5264236e-39 323 220
0.0047339997 0.67500001 0.023669999 7.1991498e-39 324 220
0.0059174998 0.67500001 0.023669999 9.6884304e-39 325 220
0.0071010003 0.67500001 0.023669999 1.2903771e-38 326 220
0.0082844999 0.67500001 0.023669999 1.3825729e-38 327 220
0.0094820261 0.676 0.023705067 1.3367991e-38 328 220
0.01066728 0.676 0.023705067 1.3644938e-38 329 220
0.011887599 0.67799997 0.023775198 1.4012997e-38 330 220
0.013114933 0.68000001 0.023845334 1.4105193e-38 331 220
0.014307199 0.68000001 0.023845334 1.4289227e-38 332 220
0.015545053 0.68199998 0.023915464 1.4104837e-38 333 220
0.016765373 0.68300003 0.023950534 1.3091761e-38 334 220
0.017962901 0.68300003 0.023950534 1.1801022e-38 335 220
0.019244585 0.68599999 0.024055731 1.0504534e-38 336 220
0.020477179 0.68699998 0.024090799 1.4192719e-38 337 220
0.021681719 0.68699998 0.024090799 1.7517896e-38 338 220
-0.042158898 0.68699998 0.022886258 1.420174e-38 285 221
-0.040715907 0.68300003 0.022753006 1.1065627e-38 286 221
-0.039518382 0.68300003 0.022753006 8.7603771e-39 287 221
-0.038264744 0.68199998 0.022719691 7.5654338e-39 288 221
-0.036960267 0.68000001 0.022653066 7.1966499e-39 289 221
-0.035767999 0.68000001 0.022653066 6.3712291e-39 290 221
-0.034524884 0.67900002 0.022619752 6.3712291e-39 291 221
-0.033285279 0.67799997 0.022586439 5.9163606e-39 292 221
-0.032001842 0.676 0.022519812 5.9163606e-39 293 221
-0.030771 0.67500001 0.022486499 6.64996e-39 294 221
-0.029543666 0.67400002 0.022453187 6.1889832e-39 295 221
-0.02827776 0.67199999 0.022386558 4.991512e-39 296 221
-0.027099518 0.67199999 0.022386558 4.3461426e-39 297 221
-0.025921278 0.67199999 0.022386558 3.6125306e-39 298 221
-0.024743039 0.67199999 0.022386558 3.980953e-39 299 221
-0.023564799 0.67199999 0.022386558 4.2557448e-39 300 221
-0.022386558 0.67199999 0.022386558 4.1635492e-39 301 221
-0.021176759 0.671 0.022353247 3.7969373e-39 302 221
-0.020000271 0.671 0.022353247 4.0731655e-39 303 221
-0.018823786 0.671 0.022353247 3.5225126e-39 304 221
-0.0176473 0.671 0.022353247 3.5225126e-39 305 221
-0.016446266 0.67000002 0.022319933 2.8792942e-39 306 221
-0.015271533 0.67000002 0.022319933 3.0636855e-39 307 221
-0.014096799 0.67000002 0.022319933 8.6789701e-39 308 221
-0.012883492 0.66799998 0.022253305 9.7849589e-39 309 221
-0.011712266 0.66799998 0.022253305 8.8622823e-39 310 221
-0.01054104 0.66799998 0.022253305 4.4368935e-39 311 221
-0.0093698129 0.66799998 0.022253305 2.4089722e-41 312 221
-0.0081985854 0.66799998 0.022253305 2.2378652e-39 313 221
-0.0070273597 0.66799998 0.022253305 5.3624399e-39 314 221
-0.0058561331 0.66799998 0.022253305 6.5609831e-39 315 221
-0.0046849065 0.66799998 0.022253305 7.8463171e-39 316 221
-0.0035136798 0.66799998 0.022253305 8.1225439e-39 317 221
-0.0023424532 0.66799998 0.022253305 6.2811424e-39 318 221
-0.0011712266 0.66799998 0.022253305 5.1747962e-39 319 221
0 0.67000002 0.022319933 4.0770765e-39 320 221
0.0011764866 0.671 0.022353247 4.0770765e-39 321 221
0.0023564799 0.67199999 0.022386558 3.6168186e-39 322 221
0.00354524 0.67400002 0.022453187 3.6168186e-39 323 221
0.0047269869 0.67400002 0.022453187 6.9236349e-39 324 221
0.0059174998 0.67500001 0.022486499 9.412917e-39 325 221
0.0071010003 0.67500001 0.022486499 1.2628258e-38 326 221
0.0082844999 0.67500001 0.022486499 1.3550574e-38 327 221
0.0094679995 0.67500001 0.022486499 1.3000287e-38 328 221
0.0106515 0.67500001 0.022486499 1.3460905e-38 329 221
0.011887599 0.67799997 0.022586439 1.3921165e-38 330 221
0.013114933 0.68000001 0.022653066 1.401336e-38 331 221
0.014307199 0.68000001 0.022653066 1.4380701e-38 332 221
0.015567848 0.68300003 0.022753006 1.419631e-38 333 221
0.016765373 0.68300003 0.022753006 1.3183234e-38 334 221
0.017962901 0.68300003 0.022753006 1.1892495e-38 335 221
0.019244585 0.68599999 0.022852944 1.087008e-38 336 221
0.020477179 0.68699998 0.022886258 1.4834492e-38 337 221
0.021681719 0.68699998 0.022886258 1.7609368e-38 338 221
-0.041974798 0.68400002 0.02158704 1.4387203e-38 285 222
-0.040775519 0.68400002 0.02158704 1.1616997e-38 286 222
-0.039518382 0.68300003 0.02155548 9.3124649e-39 287 222
-0.038264744 0.68199998 0.021523919 7.4735885e-39 288 222
-0.037068974 0.68199998 0.021523919 6.1828497e-39 289 222
-0.035767999 0.68000001 0.0214608 4.9864799e-39 290 222
-0.034524884 0.67900002 0.021429239 4.6173373e-39 291 222
-0.033285279 0.67799997 0.021397678 3.8880511e-39 292 222
-0.032001842 0.676 0.021334561 4.6259749e-39 293 222
-0.030771 0.67500001 0.021303 6.0060367e-39 294 222
-0.029543666 0.67400002 0.021271439 6.0982323e-39 295 222
-0.02836192 0.67400002 0.021271439 6.0978596e-39 296 222
-0.027180174 0.67400002 0.021271439 6.0056625e-39 297 222
-0.025921278 0.67199999 0.021208318 5.546834e-39 298 222
-0.024743039 0.67199999 0.021208318 5.546834e-39 299 222
-0.023564799 0.67199999 0.021208318 5.6365157e-39 300 222
-0.022386558 0.67199999 0.021208318 5.267373e-39 301 222
-0.021208318 0.67199999 0.021208318 4.4408564e-39 302 222
-0.020030079 0.67199999 0.021208318 4.3486607e-39 303 222
-0.018823786 0.671 0.021176759 3.5224986e-39 304 222
-0.0176473 0.671 0.021176759 3.3377486e-39 305 222
-0.016470812 0.671 0.021176759 2.6001836e-39 306 222
-0.015271533 0.67000002 0.0211452 3.1533573e-39 307 222
-0.014096799 0.67000002 0.0211452 8.2183563e-39 308 222
-0.012922067 0.67000002 0.0211452 9.1406713e-39 309 222
-0.011747333 0.67000002 0.0211452 8.5846206e-39 310 222
-0.0105726 0.67000002 0.0211452 4.4361774e-39 311 222
-0.0093978662 0.67000002 0.0211452 7.5877649e-40 312 222
-0.0081985854 0.66799998 0.021082079 2.9714702e-39 313 222
-0.0070273597 0.66799998 0.021082079 5.6383037e-39 314 222
-0.0058561331 0.66799998 0.021082079 6.5606202e-39 315 222
-0.0046849065 0.66799998 0.021082079 7.7541243e-39 316 222
-0.0035241998 0.67000002 0.0211452 8.3069393e-39 317 222
-0.0023494666 0.67000002 0.0211452 5.913799e-39 318 222
-0.0011747333 0.67000002 0.0211452 4.9922029e-39 319 222
0 0.671 0.021176759 4.2607419e-39 320 222
0.0011764866 0.671 0.021176759 4.0767107e-39 321 222
0.0023564799 0.67199999 0.021208318 3.5246216e-39 322 222
0.00354524 0.67400002 0.021271439 3.5246216e-39 323 222
0.0047269869 0.67400002 0.021271439 6.8314421e-39 324 222
0.0059087332 0.67400002 0.021271439 9.3207241e-39 325 222
0.0070904801 0.67400002 0.021271439 1.2352031e-38 326 222
0.0082844999 0.67500001 0.021303 1.3273627e-38 327 222
0.0094679995 0.67500001 0.021303 1.3367625e-38 328 222
0.0106515 0.67500001 0.021303 1.3828603e-38 329 222
0.011887599 0.67799997 0.021397678 1.4105193e-38 330 222
0.013114933 0.68000001 0.0214608 1.4289224e-38 331 222
0.014307199 0.68000001 0.0214608 1.4380701e-38 332 222
0.015567848 0.68300003 0.02155548 1.4288505e-38 333 222
0.016789921 0.68400002 0.02158704 1.3182158e-38 334 222
0.0179892 0.68400002 0.02158704 1.1430441e-38 335 222
0.019272638 0.68699998 0.021681719 1.0497704e-38 336 222
0.020506985 0.68800002 0.021713281 1.5199681e-38 337 222
0.021713281 0.68800002 0.021713281 1.7793759e-38 338 222
-0.041974798 0.68400002 0.020387759 1.5215522e-38 285 223
-0.040775519 0.68400002 0.020387759 1.1801747e-38 286 223
-0.039518382 0.68300003 0.020357953 9.8656386e-39 287 223
-0.038264744 0.68199998 0.020328145 7.6590546e-39 288 223
-0.037068974 0.68199998 0.020328145 6.3683158e-39 289 223
-0.035767999 0.68000001 0.020268533 5.2641388e-39 290 223
-0.034524884 0.67900002 0.020238725 4.8028019e-39 291 223
-0.033285279 0.67799997 0.020208918 3.5178267e-39 292 223
-0.032001842 0.676 0.020149305 3.6100223e-39 293 223
-0.030771 0.67500001 0.020119499 4.4376376e-39 294 223
-0.029543666 0.67400002 0.020089693 4.7138657e-39 295 223
-0.02836192 0.67400002 0.020089693 4.9936798e-39 296 223
-0.027180174 0.67400002 0.020089693 5.7312449e-39 297 223
-0.025998428 0.67400002 0.020089693 6.6503075e-39 298 223
-0.024816679 0.67400002 0.020089693 6.8350589e-39 299 223
-0.023564799 0.67199999 0.020030079 7.3839096e-39 300 223
-0.022386558 0.67199999 0.020030079 7.291714e-39 301 223
-0.021208318 0.67199999 0.020030079 5.9159696e-39 302 223
-0.020030079 0.67199999 0.020030079 5.9159696e-39 303 223
-0.018823786 0.671 0.020000271 5.365314e-39 304 223
-0.0176473 0.671 0.020000271 5.0890858e-39 305 223
-0.016470812 0.671 0.020000271 4.1689344e-39 306 223
-0.015294326 0.671 0.020000271 4.4458814e-39 307 223
-0.01411784 0.671 0.020000271 8.5856996e-39 308 223
-0.012922067 0.67000002 0.019970467 9.5072958e-39 309 223
-0.011747333 0.67000002 0.019970467 9.7792052e-39 310 223
-0.0105726 0.67000002 0.019970467 5.722596e-39 311 223
-0.0093978662 0.67000002 0.019970467 6.6693259e-40 312 223
-0.0082231332 0.67000002 0.019970467 2.7874335e-39 313 223
-0.0070483997 0.67000002 0.019970467 5.8223321e-39 314 223
-0.0058736666 0.67000002 0.019970467 7.0208752e-39 315 223
-0.0046989331 0.67000002 0.019970467 7.2956615e-39 316 223
-0.0035241998 0.67000002 0.019970467 7.8488352e-39 317 223
-0.0023494666 0.67000002 0.019970467 5.8226824e-39 318 223
-0.0011764866 0.671 0.020000271 4.9007261e-39 319 223
0 0.671 0.020000271 4.0763548e-39 320 223
0.0011764866 0.671 0.020000271 3.8919622e-39 321 223
0.0023564799 0.67199999 0.020030079 3.5239055e-39 322 223
0.00354524 0.67400002 0.020089693 3.6161011e-39 323 223
0.0047269869 0.67400002 0.020089693 7.0140383e-39 324 223
0.0059087332 0.67400002 0.020089693 9.5033203e-39 325 223
0.0070904801 0.67400002 0.020089693 1.2167634e-38 326 223
0.0082844999 0.67500001 0.020119499 1.2997754e-38 327 223
0.0094679995 0.67500001 0.020119499 1.3275064e-38 328 223
0.0106515 0.67500001 0.020119499 1.3828236e-38 329 223
0.011887599 0.67799997 0.020208918 1.410519e-38 330 223
0.013114933 0.68000001 0.020268533 1.4289221e-38 331 223
0.014307199 0.68000001 0.020268533 1.4381057e-38 332 223
0.015567848 0.68300003 0.020357953 1.4288502e-38 333 223
0.016789921 0.68400002 0.020387759 1.3365826e-38 334 223
0.0179892 0.68400002 0.020387759 1.1245326e-38 335 223
0.019272638 0.68699998 0.020477179 1.0587379e-38 336 223
0.020506985 0.68800002 0.020506985 1.5474107e-38 337 223
0.021713281 0.68800002 0.020506985 1.7517896e-38 338 223
-0.042097531 0.68599999 0.019244585 1.5584308e-38 285 224
-0.040775519 0.68400002 0.01918848 1.1802113e-38 286 224
-0.039518382 0.68300003 0.019160427 9.5897776e-39 287 224
-0.038320854 0.68300003 0.019160427 7.9363674e-39 288 224
-0.037068974 0.68199998 0.019132372 6.7378242e-39 289 224
-0.035767999 0.68000001 0.019076265 6.0935394e-39 290 224
-0.034524884 0.67900002 0.019048214 5.725117e-39 291 224
-0.033285279 0.67799997 0.019020159 4.6216533e-39 292 224
-0.032001842 0.676 0.018964052 3.8840883e-39 293 224
-0.030771 0.67500001 0.018935999 3.6078713e-39 294 224
-0.0295875 0.67500001 0.018935999 3.7004257e-39 295 224
-0.028404001 0.67500001 0.018935999 4.623468e-39 296 224
-0.027220501 0.67500001 0.018935999 5.545783e-39 297 224
-0.026037 0.67500001 0.018935999 7.1091444e-39 298 224
-0.0248535 0.67500001 0.018935999 7.4779256e-39 299 224
-0.023634933 0.67400002 0.018907947 7.9360142e-39 300 224
-0.022453187 0.67400002 0.018907947 7.6590672e-39 301 224
-0.021208318 0.67199999 0.018851839 6.7435793e-39 302 224
-0.020030079 0.67199999 0.018851839 6.9279706e-39 303 224
-0.018823786 0.671 0.018823786 7.0215913e-39 304 224
-0.0176473 0.671 0.018823786 7.0215913e-39 305 224
-0.016470812 0.671 0.018823786 6.2829515e-39 306 224
-0.015294326 0.671 0.018823786 6.0063632e-39 307 224
-0.01411784 0.671 0.018823786 8.768293e-39 308 224
-0.012922067 0.67000002 0.018795732 9.8746406e-39 309 224
-0.011747333 0.67000002 0.018795732 9.8728413e-39 310 224
-0.0105726 0.67000002 0.018795732 5.6318438e-39 311 224
-0.0093978662 0.67000002 0.018795732 2.0704045e-40 312 224
-0.0082231332 0.67000002 0.018795732 2.3278987e-39 313 224
-0.0070483997 0.67000002 0.018795732 5.8219761e-39 314 224
-0.0058736666 0.67000002 0.018795732 7.2052693e-39 315 224
-0.0046989331 0.67000002 0.018795732 7.571891e-39 316 224
-0.0035241998 0.67000002 0.018795732 7.8488381e-39 317 224
-0.0023529732 0.671 0.018823786 6.0056415e-39 318 224
-0.0011764866 0.671 0.018823786 5.1758808e-39 319 224
0 0.671 0.018823786 3.9838061e-39 320 224
0.0011764866 0.671 0.018823786 3.8916104e-39 321 224
0.0023564799 0.67199999 0.018851839 3.5239055e-39 322 224
0.00354524 0.67400002 0.018907947 3.6161011e-39 323 224
0.0047269869 0.67400002 0.018907947 7.1044361e-39 324 224
0.0059174998 0.67500001 0.018935999 9.5937181e-39 325 224
0.0071010003 0.67500001 0.018935999 1.2443501e-38 326 224
0.0082844999 0.67500001 0.018935999 1.2996675e-38 327 224
0.0094679995 0.67500001 0.018935999 1.3273978e-38 328 224
0.01066728 0.676 0.018964052 1.3919347e-38 329 224
0.011887599 0.67799997 0.019020159 1.401335e-38 330 224
0.013095647 0.67900002 0.019048214 1.4289577e-38 331 224
0.01428616 0.67900002 0.019048214 1.4380348e-38 332 224
0.015545053 0.68199998 0.019132372 1.4288152e-38 333 224
0.016789921 0.68400002 0.01918848 1.3180365e-38 334 224
0.0179892 0.68400002 0.01918848 1.1244257e-38 335 224
0.019272638 0.68699998 0.019272638 1.0862887e-38 336 224
0.020506985 0.68800002 0.019300694 1.565742e-38 337 224
0.021713281 0.68800002 0.019300694 1.7241303e-38 338 224
-0.042158898 0.68699998 0.018068098 1.540028e-38 285 225
-0.040775519 0.68400002 0.0179892 1.1618444e-38 286 225
-0.03957624 0.68400002 0.0179892 8.8525755e-39 287 225
-0.038320854 0.68300003 0.017962901 8.1214803e-39 288 225
-0.037068974 0.68199998 0.017936599 7.2913609e-39 289 225
-0.035767999 0.68000001 0.017883999 6.5552406e-39 290 225
-0.034524884 0.67900002 0.017857701 6.463045e-39 291 225
-0.033285279 0.67799997 0.0178314 5.3613735e-39 292 225
-0.032001842 0.676 0.017778801 5.6376003e-39 293 225
-0.030816587 0.676 0.017778801 5.4517699e-39 294 225
-0.0295875 0.67500001 0.0177525 4.9907931e-39 295 225
-0.028404001 0.67500001 0.0177525 4.9918777e-39 296 225
-0.027220501 0.67500001 0.0177525 5.0844321e-39 297 225
-0.026037 0.67500001 0.0177525 5.4532188e-39 298 225
-0.0248535 0.67500001 0.0177525 5.9138383e-39 299 225
-0.023669999 0.67500001 0.0177525 6.8329065e-39 300 225
-0.022453187 0.67400002 0.0177262 6.6485152e-39 301 225
-0.021271439 0.67400002 0.0177262 6.8321848e-39 302 225
-0.020030079 0.67199999 0.017673599 7.3853586e-39 303 225
-0.018851839 0.67199999 0.017673599 7.8463325e-39 304 225
-0.0176473 0.671 0.0176473 7.4779101e-39 305 225
-0.016470812 0.671 0.0176473 5.3581239e-39 306 225
-0.015294326 0.671 0.0176473 5.5425152e-39 307 225
-0.01411784 0.671 0.0176473 8.3073079e-39 308 225
-0.012941353 0.671 0.0176473 9.4140156e-39 309 225
-0.011764866 0.671 0.0176473 9.2292712e-39 310 225
-0.01058838 0.671 0.0176473 4.8960766e-39 311 225
-0.0094118929 0.671 0.0176473 2.0704605e-40 312 225
-0.0082354061 0.671 0.0176473 1.6821761e-39 313 225
-0.0070483997 0.67000002 0.017620999 4.9943805e-39 314 225
-0.0058736666 0.67000002 0.017620999 6.3776736e-39 315 225
-0.0046989331 0.67000002 0.017620999 7.5718938e-39 316 225
-0.0035294599 0.671 0.0176473 8.0332321e-39 317 225
-0.0023529732 0.671 0.0176473 6.1893097e-39 318 225
-0.0011764866 0.671 0.0176473 5.2677135e-39 319 225
0 0.67199999 0.017673599 3.8919622e-39 320 225
0.0011782399 0.67199999 0.017673599 3.7997665e-39 321 225
0.0023564799 0.67199999 0.017673599 3.7986917e-39 322 225
0.00354524 0.67400002 0.0177262 3.9830816e-39 323 225
0.0047269869 0.67400002 0.0177262 6.7370927e-39 324 225
0.0059174998 0.67500001 0.0177525 9.3185703e-39 325 225
0.0071010003 0.67500001 0.0177525 1.2442782e-38 326 225
0.0082844999 0.67500001 0.0177525 1.29034e-38 327 225
0.0094679995 0.67500001 0.0177525 1.3091021e-38 328 225
0.01066728 0.676 0.017778801 1.3459445e-38 329 225
0.011887599 0.67799997 0.0178314 1.3921152e-38 330 225
0.013095647 0.67900002 0.017857701 1.4474326e-38 331 225
0.01428616 0.67900002 0.017857701 1.4473622e-38 332 225
0.015545053 0.68199998 0.017936599 1.4381067e-38 333 225
0.016789921 0.68400002 0.0179892 1.2809782e-38 334 225
0.018041799 0.68599999 0.018041799 1.0966228e-38 335 225
0.019272638 0.68699998 0.018068098 1.0864323e-38 336 225
0.020506985 0.68800002 0.0180944 1.5474105e-38 337 225
0.021713281 0.68800002 0.0180944 1.6966517e-38 338 225
-0.042097531 0.68599999 0.016839013 1.5861614e-38 285 226
-0.040894743 0.68599999 0.016839013 1.2078701e-38 286 226
-0.03957624 0.68400002 0.016789921 8.6674612e-39 287 226
-0.038376961 0.68400002 0.016789921 8.3966196e-39 288 226
-0.037123326 0.68300003 0.016765373 8.2122284e-39 289 226
-0.035873197 0.68199998 0.016740825 7.4761053e-39 290 226
-0.034575731 0.68000001 0.016691733 7.0154873e-39 291 226
-0.033285279 0.67799997 0.016642639 6.2804488e-39 292 226
-0.03209652 0.67799997 0.016642639 6.3730045e-39 293 226
-0.030816587 0.676 0.016593546 6.2808047e-39 294 226
-0.029631332 0.676 0.016593546 5.9120236e-39 295 226
-0.028446076 0.676 0.016593546 5.544683e-39 296 226
-0.027220501 0.67500001 0.016569 5.3602903e-39 297 226
-0.026037 0.67500001 0.016569 4.9007611e-39 298 226
-0.0248535 0.67500001 0.016569 4.8085655e-39 299 226
-0.023669999 0.67500001 0.016569 5.1766263e-39 300 226
-0.022486499 0.67500001 0.016569 5.1766263e-39 301 226
-0.021271439 0.67400002 0.016544454 4.625256e-39 302 226
-0.020030079 0.67199999 0.01649536 5.2706254e-39 303 226
-0.018851839 0.67199999 0.01649536 6.2819033e-39 304 226
-0.017673599 0.67199999 0.01649536 6.0049577e-39 305 226
-0.01649536 0.67199999 0.01649536 5.6343605e-39 306 226
-0.01531712 0.67199999 0.01649536 5.5421649e-39 307 226
-0.01413888 0.67199999 0.01649536 8.1236271e-39 308 226
-0.012941353 0.671 0.016470812 9.3221703e-39 309 226
-0.011764866 0.671 0.016470812 9.2292684e-39 310 226
-0.01058838 0.671 0.016470812 4.8964325e-39 311 226
-0.0094118929 0.671 0.016470812 3.9071564e-40 312 226
-0.0082354061 0.671 0.016470812 2.050237e-39 313 226
-0.0070589199 0.671 0.016470812 5.5425208e-39 314 226
-0.0058824331 0.671 0.016470812 6.9254552e-39 315 226
-0.0047059464 0.671 0.016470812 6.46807e-39 316 226
-0.0035294599 0.671 0.016470812 6.560267e-39 317 226
-0.0023529732 0.671 0.016470812 5.4535467e-39 318 226
-0.0011782399 0.67199999 0.01649536 4.900373e-39 319 226
0 0.67199999 0.01649536 3.8004854e-39 320 226
0.0011782399 0.67199999 0.01649536 3.6164543e-39 321 226
0.0023564799 0.67199999 0.01649536 3.6153753e-39 322 226
0.00354524 0.67400002 0.016544454 3.4309854e-39 323 226
0.0047269869 0.67400002 0.016544454 6.4612177e-39 324 226
0.0059174998 0.67500001 0.016569 9.3189235e-39 325 226
0.0071010003 0.67500001 0.016569 1.225875e-38 326 226
0.0082844999 0.67500001 0.016569 1.2996675e-38 327 226
0.0094820261 0.676 0.016593546 1.2448523e-38 328 226
0.010698839 0.67799997 0.016642639 1.2632914e-38 329 226
0.011905133 0.67900002 0.016667187 1.3645641e-38 330 226
0.013095647 0.67900002 0.016667187 1.4383206e-38 331 226
0.014307199 0.68000001 0.016691733 1.4750212e-38 332 226
0.015545053 0.68199998 0.016740825 1.4473266e-38 333 226
0.016789921 0.68400002 0.016789921 1.2164416e-38 334 226
0.018041799 0.68599999 0.016839013 1.0504534e-38 335 226
0.019272638 0.68699998 0.01686356 1.1140906e-38 336 226
0.020506985 0.68800002 0.016888106 1.5474102e-38 337 226
-0.043363437 0.68699998 0.015659019 2.065651e-38 284 227
-0.042097531 0.68599999 0.015636226 1.6230759e-38 285 227
-0.040894743 0.68599999 0.015636226 1.2631154e-38 286 227
-0.03957624 0.68400002 0.01559064 8.6667423e-39 287 227
-0.038376961 0.68400002 0.01559064 8.2136745e-39 288 227
-0.037123326 0.68300003 0.015567848 8.0292819e-39 289 227
-0.035873197 0.68199998 0.015545053 7.0173005e-39 290 227
-0.034575731 0.68000001 0.015499466 6.7403549e-39 291 227
-0.033334374 0.67900002 0.015476674 6.2801026e-39 292 227
-0.03209652 0.67799997 0.015453878 6.0038745e-39 293 227
-0.030816587 0.676 0.015408293 5.7290827e-39 294 227
-0.029631332 0.676 0.015408293 5.6365283e-39 295 227
-0.028446076 0.676 0.015408293 5.2691779e-39 296 227
-0.027260827 0.676 0.015408293 5.0844265e-39 297 227
-0.026037 0.67500001 0.0153855 4.4390571e-39 298 227
-0.0248535 0.67500001 0.0153855 3.8862435e-39 299 227
-0.023669999 0.67500001 0.0153855 2.2324772e-39 300 227
-0.022486499 0.67500001 0.0153855 1.9562491e-39 301 227
-0.021271439 0.67400002 0.015362706 1.8637003e-39 302 227
-0.020030079 0.67199999 0.01531712 1.8637003e-39 303 227
-0.018851839 0.67199999 0.01531712 3.2455586e-39 304 227
-0.017673599 0.67199999 0.01531712 4.443743e-39 305 227
-0.01649536 0.67199999 0.01531712 6.3704962e-39 306 227
-0.01531712 0.67199999 0.01531712 7.0158656e-39 307 227
-0.01413888 0.67199999 0.01531712 7.8477787e-39 308 227
-0.012960639 0.67199999 0.01531712 8.8619292e-39 309 227
-0.011782399 0.67199999 0.01531712 9.1367182e-39 310 227
-0.010604159 0.67199999 0.01531712 5.0801105e-39 311 227
-0.0094259195 0.67199999 0.01531712 7.587793e-40 312 227
-0.00824768 0.67199999 0.01531712 2.6026905e-39 313 227
-0.0070589199 0.671 0.015294326 5.818379e-39 314 227
-0.0058824331 0.671 0.015294326 7.1091178e-39 315 227
-0.0047059464 0.671 0.015294326 5.1776815e-39 316 227
-0.0035294599 0.671 0.015294326 3.9791397e-39 317 227
-0.0023564799 0.67199999 0.01531712 2.971452e-39 318 227
-0.0011782399 0.67199999 0.01531712 3.4324287e-39 319 227
0 0.67199999 0.01531712 3.983076e-39 320 227
0.0011782399 0.67199999 0.01531712 3.7990449e-39 321 227
0.0023564799 0.67199999 0.01531712 3.8905146e-39 322 227
0.00354524 0.67400002 0.015362706 3.8905146e-39 323 227
0.0047269869 0.67400002 0.015362706 6.7367227e-39 324 227
0.0059174998 0.67500001 0.0153855 9.4107561e-39 325 227
0.0071010003 0.67500001 0.0153855 1.207544e-38 326 227
0.0082967728 0.676 0.015408293 1.2813007e-38 327 227
0.0094820261 0.676 0.015408293 1.2447802e-38 328 227
0.010698839 0.67799997 0.015453878 1.2447802e-38 329 227
0.011905133 0.67900002 0.015476674 1.3186098e-38 330 227
0.013095647 0.67900002 0.015476674 1.3924022e-38 331 227
0.014307199 0.68000001 0.015499466 1.4565462e-38 332 227
0.01559064 0.68400002 0.01559064 1.3920093e-38 333 227
0.01686356 0.68699998 0.015659019 1.2069346e-38 334 227
0.018068098 0.68699998 0.015659019 1.1239585e-38 335 227
0.019272638 0.68699998 0.015659019 1.160261e-38 336 227
0.020506985 0.68800002 0.015681813 1.5474826e-38 337 227
-0.043363437 0.68699998 0.014454478 2.0933095e-38 284 228
-0.042158898 0.68699998 0.014454478 1.6415509e-38 285 228
-0.040954359 0.68699998 0.014454478 1.2816269e-38 286 228
-0.039691959 0.68599999 0.01443344 8.482714e-39 287 228
-0.03848917 0.68599999 0.01443344 8.6728506e-39 288 228
-0.037177678 0.68400002 0.01439136 8.4888195e-39 289 228
-0.035873197 0.68199998 0.01434928 7.4757578e-39 290 228
-0.034575731 0.68000001 0.014307199 7.014781e-39 291 228
-0.033334374 0.67900002 0.01428616 6.0967834e-39 292 228
-0.032143861 0.67900002 0.01428616 6.0045877e-39 293 228
-0.030907756 0.67799997 0.014265119 5.8201937e-39 294 228
-0.029631332 0.676 0.014223038 5.8201937e-39 295 228
-0.028446076 0.676 0.014223038 5.7276351e-39 296 228
-0.027260827 0.676 0.014223038 5.3588526e-39 297 228
-0.026075572 0.676 0.014223038 4.8993136e-39 298 228
-0.024890319 0.676 0.014223038 4.3464985e-39 299 228
-0.023705067 0.676 0.014223038 3.8876854e-39 300 228
-0.022486499 0.67500001 0.014202001 3.6110985e-39 301 228
-0.021303 0.67500001 0.014202001 3.2430376e-39 302 228
-0.020089693 0.67400002 0.01418096 2.7820609e-39 303 228
-0.018907947 0.67400002 0.01418096 3.7951394e-39 304 228
-0.017673599 0.67199999 0.01413888 4.8089312e-39 305 228
-0.01649536 0.67199999 0.01413888 5.7283736e-39 306 228
-0.01531712 0.67199999 0.01413888 6.2815474e-39 307 228
-0.01418096 0.67400002 0.01418096 7.7552327e-39 308 228
-0.012960639 0.67199999 0.01413888 9.1381672e-39 309 228
-0.011782399 0.67199999 0.01413888 9.4133093e-39 310 228
-0.010604159 0.67199999 0.01413888 5.0801133e-39 311 228
-0.0094259195 0.67199999 0.01413888 8.4989453e-40 312 228
-0.00824768 0.67199999 0.01413888 2.5094173e-39 313 228
-0.0070694401 0.67199999 0.01413888 5.1766067e-39 314 228
-0.0058911997 0.67199999 0.01413888 6.8361281e-39 315 228
-0.0047129598 0.67199999 0.01413888 5.3606252e-39 316 228
-0.00353472 0.67199999 0.01413888 3.701464e-39 317 228
-0.0023564799 0.67199999 0.01413888 3.4299092e-39 318 228
-0.0011782399 0.67199999 0.01413888 3.6143005e-39 319 228
0 0.67199999 0.01413888 3.707215e-39 320 228
0.0011817467 0.67400002 0.01418096 3.6150193e-39 321 228
0.0023634934 0.67400002 0.01418096 3.6143005e-39 322 228
0.00354524 0.67400002 0.01418096 3.5221048e-39 323 228
0.0047339997 0.67500001 0.014202001 6.0928023e-39 324 228
0.0059174998 0.67500001 0.014202001 8.9508654e-39 325 228
0.0071115191 0.676 0.014223038 1.2350949e-38 326 228
0.0083213197 0.67799997 0.014265119 1.3273264e-38 327 228
0.0095100794 0.67799997 0.014265119 1.2355958e-38 328 228
0.010714619 0.67900002 0.01428616 1.2171208e-38 329 228
0.011922667 0.68000001 0.014307199 1.2542514e-38 330 228
0.013153506 0.68199998 0.01434928 1.3648861e-38 331 228
0.01434928 0.68199998 0.01434928 1.4565815e-38 332 228
0.01559064 0.68400002 0.01439136 1.3643857e-38 333 228
0.01686356 0.68699998 0.014454478 1.1883508e-38 334 228
0.018068098 0.68699998 0.014454478 1.1422532e-38 335 228
0.019272638 0.68699998 0.014454478 1.1512209e-38 336 228
0.020566599 0.69 0.014517599 1.529223e-38 337 228
-0.043426562 0.68800002 0.013269227 2.1024572e-38 284 229
-0.042220265 0.68800002 0.013269227 1.6691019e-38 285 229
-0.040954359 0.68699998 0.013249939 1.3092496e-38 286 229
-0.039749816 0.68699998 0.013249939 8.2986829e-39 287 229
-0.03848917 0.68599999 0.013230653 8.7646931e-39 288 229
-0.037123326 0.68300003 0.013172794 8.4884663e-39 289 229
-0.035925802 0.68300003 0.013172794 6.8321876e-39 290 229
-0.034575731 0.68000001 0.013114933 6.5552406e-39 291 229
-0.033383466 0.68000001 0.013114933 6.2797327e-39 292 229
-0.032143861 0.67900002 0.013095647 6.3719283e-39 293 229
-0.030907756 0.67799997 0.013076359 5.729077e-39 294 229
-0.029718997 0.67799997 0.013076359 5.5446858e-39 295 229
-0.028446076 0.676 0.013037786 5.5446858e-39 296 229
-0.027260827 0.676 0.013037786 5.3602931e-39 297 229
-0.026075572 0.676 0.013037786 4.9918651e-39 298 229
-0.024890319 0.676 0.013037786 4.7149181e-39 299 229
-0.023705067 0.676 0.013037786 4.3472118e-39 300 229
-0.022519812 0.676 0.013037786 3.9787894e-39 301 229
-0.021303 0.67500001 0.0130185 3.8869567e-39 302 229
-0.020119499 0.67500001 0.0130185 3.9791523e-39 303 229
-0.018907947 0.67400002 0.012999214 4.3479419e-39 304 229
-0.0177262 0.67400002 0.012999214 4.9933099e-39 305 229
-0.016544454 0.67400002 0.012999214 5.6365283e-39 306 229
-0.015362706 0.67400002 0.012999214 6.0053108e-39 307 229
-0.01418096 0.67400002 0.012999214 7.5708373e-39 308 229
-0.012960639 0.67199999 0.012960639 8.9537731e-39 309 229
-0.011782399 0.67199999 0.012960639 9.3218199e-39 310 229
-0.010604159 0.67199999 0.012960639 5.1726565e-39 311 229
-0.0094259195 0.67199999 0.012960639 1.1250367e-39 312 229
-0.00824768 0.67199999 0.012960639 2.5079711e-39 313 229
-0.0070694401 0.67199999 0.012960639 4.7149083e-39 314 229
-0.0058911997 0.67199999 0.012960639 6.7432122e-39 315 229
-0.0047129598 0.67199999 0.012960639 6.004194e-39 316 229
-0.00353472 0.67199999 0.012960639 4.8060095e-39 317 229
-0.0023634934 0.67400002 0.012999214 3.7968939e-39 318 229
-0.0011817467 0.67400002 0.012999214 3.8894482e-39 319 229
0 0.67400002 0.012999214 3.6150221e-39 320 229
0.0011834999 0.67500001 0.0130185 3.430991e-39 321 229
0.0023669999 0.67500001 0.0130185 3.7976127e-39 322 229
0.0035505001 0.67500001 0.0130185 3.7976127e-39 323 229
0.0047339997 0.67500001 0.0130185 6.184272e-39 324 229
0.0059262668 0.676 0.013037786 8.8579453e-39 325 229
0.0071115191 0.676 0.013037786 1.2258031e-38 326 229
0.0083213197 0.67799997 0.013076359 1.3456574e-38 327 229
0.009524107 0.67900002 0.013095647 1.2355604e-38 328 229
0.010714619 0.67900002 0.013095647 1.2078659e-38 329 229
0.011922667 0.68000001 0.013114933 1.2265927e-38 330 229
0.013153506 0.68199998 0.013153506 1.3371916e-38 331 229
0.01434928 0.68199998 0.013153506 1.4473252e-38 332 229
0.015567848 0.68300003 0.013172794 1.3643133e-38 333 229
0.01686356 0.68699998 0.013249939 1.1789875e-38 334 229
0.018068098 0.68699998 0.013249939 1.1697321e-38 335 229
0.019272638 0.68699998 0.013249939 1.1237067e-38 336 229
-0.043426562 0.68800002 0.012062933 2.1024572e-38 284 230
-0.042220265 0.68800002 0.012062933 1.6691019e-38 285 230
-0.041013971 0.68800002 0.012062933 1.3184694e-38 286 230
-0.039749816 0.68699998 0.012045399 8.2064901e-39 287 230
-0.03848917 0.68599999 0.012027865 8.2136773e-39 288 230
-0.037123326 0.68300003 0.011975267 8.4899041e-39 289 230
-0.035925802 0.68300003 0.011975267 7.476478e-39 290 230
-0.034677424 0.68199998 0.011957732 6.9233042e-39 291 230
-0.033383466 0.68000001 0.011922667 6.2797355e-39 292 230
-0.032143861 0.67900002 0.011905133 6.1875399e-39 293 230
-0.030953348 0.67900002 0.011905133 5.8194804e-39 294 230
-0.029718997 0.67799997 0.011887599 5.7269261e-39 295 230
-0.028530238 0.67799997 0.011887599 5.3599386e-39 296 230
-0.027260827 0.676 0.011852534 5.1759061e-39 297 230
-0.026075572 0.676 0.011852534 5.2673758e-39 298 230
-0.024890319 0.676 0.011852534 4.9911491e-39 299 230
-0.023705067 0.676 0.011852534 4.7138391e-39 300 230
-0.022519812 0.676 0.011852534 4.4368935e-39 301 230
-0.021334561 0.676 0.011852534 3.7936877e-39 302 230
-0.020119499 0.67500001 0.011835 3.7936877e-39 303 230
-0.018935999 0.67500001 0.011835 3.1526413e-39 304 230
-0.0177525 0.67500001 0.011835 4.0745976e-39 305 230
-0.016544454 0.67400002 0.011817466 5.5443327e-39 306 230
-0.015362706 0.67400002 0.011817466 6.0975064e-39 307 230
-0.01418096 0.67400002 0.011817466 7.7537866e-39 308 230
-0.012999214 0.67400002 0.011817466 9.2289181e-39 309 230
-0.011817466 0.67400002 0.011817466 9.5973278e-39 310 230
-0.01063572 0.67400002 0.011817466 6.5552308e-39 311 230
-0.0094539737 0.67400002 0.011817466 3.8847917e-39 312 230
-0.0082722269 0.67400002 0.011817466 3.9769873e-39 313 230
-0.0070904801 0.67400002 0.011817466 4.9904162e-39 314 230
-0.0059087332 0.67400002 0.011817466 6.373352e-39 315 230
-0.0047269869 0.67400002 0.011817466 5.9137962e-39 316 230
-0.00354524 0.67400002 0.011817466 4.9000044e-39 317 230
-0.0023669999 0.67500001 0.011835 3.7968939e-39 318 230
-0.0011834999 0.67500001 0.011835 3.7968939e-39 319 230
0 0.67500001 0.011835 3.430991e-39 320 230
0.0011834999 0.67500001 0.011835 3.3384366e-39 321 230
0.0023705065 0.676 0.011852534 3.7976155e-39 322 230
0.0035557596 0.676 0.011852534 3.6135844e-39 323 230
0.0047410131 0.676 0.011852534 6.184628e-39 324 230
0.0059437994 0.67799997 0.011887599 8.9504969e-39 325 230
0.0071325595 0.67799997 0.011887599 1.2258031e-38 326 230
0.0083213197 0.67799997 0.011887599 1.3364378e-38 327 230
0.009524107 0.67900002 0.011905133 1.2355602e-38 328 230
0.0107304 0.68000001 0.011922667 1.198646e-38 329 230
0.011922667 0.68000001 0.011922667 1.1713825e-38 330 230
0.013153506 0.68199998 0.011957732 1.291201e-38 331 230
0.01434928 0.68199998 0.011957732 1.447397e-38 332 230
0.015567848 0.68300003 0.011975267 1.3367981e-38 333 230
0.01686356 0.68699998 0.012045399 1.1789875e-38 334 230
0.018068098 0.68699998 0.012045399 1.1605125e-38 335 230
0.019300694 0.68800002 0.012062933 1.0778607e-38 336 230
-0.042342998 0.69 0.010888199 1.6874691e-38 285 231
-0.041013971 0.68800002 0.010856641 1.3276174e-38 286 231
-0.039749816 0.68699998 0.010840859 8.0210226e-39 287 231
-0.038545277 0.68699998 0.010840859 7.7534208e-39 288 231
-0.037177678 0.68400002 0.01079352 8.2140403e-39 289 231
-0.035925802 0.68300003 0.01077774 7.6601532e-39 290 231
-0.034677424 0.68199998 0.010761959 6.9225882e-39 291 231
-0.033383466 0.68000001 0.0107304 6.0038717e-39 292 231
-0.032191198 0.68000001 0.0107304 5.8194804e-39 293 231
-0.030998932 0.68000001 0.0107304 5.6358094e-39 294 231
-0.029762832 0.67900002 0.010714619 5.5436138e-39 295 231
-0.028530238 0.67799997 0.010698839 5.4521342e-39 296 231
-0.027341479 0.67799997 0.010698839 5.3599386e-39 297 231
-0.026152719 0.67799997 0.010698839 5.2673758e-39 298 231
-0.024963958 0.67799997 0.010698839 5.1751802e-39 299 231
-0.023775198 0.67799997 0.010698839 4.7141992e-39 300 231
-0.022586439 0.67799997 0.010698839 4.1613842e-39 301 231
-0.021334561 0.676 0.01066728 3.5181826e-39 302 231
-0.020149305 0.676 0.01066728 3.5181826e-39 303 231
-0.018964052 0.676 0.01066728 3.1522854e-39 304 231
-0.0177525 0.67500001 0.0106515 3.7976548e-39 305 231
-0.016569 0.67500001 0.0106515 5.2691905e-39 306 231
-0.015362706 0.67400002 0.01063572 5.7305288e-39 307 231
-0.01418096 0.67400002 0.01063572 7.4786444e-39 308 231
-0.012999214 0.67400002 0.01063572 8.9537759e-39 309 231
-0.011817466 0.67400002 0.01063572 9.4125834e-39 310 231
-0.01063572 0.67400002 0.01063572 7.1080514e-39 311 231
-0.0094539737 0.67400002 0.01063572 6.0938925e-39 312 231
-0.0082722269 0.67400002 0.01063572 5.6329157e-39 313 231
-0.0070904801 0.67400002 0.01063572 5.4531908e-39 314 231
-0.0059087332 0.67400002 0.01063572 6.0985602e-39 315 231
-0.0047269869 0.67400002 0.01063572 5.5453724e-39 316 231
-0.00354524 0.67400002 0.01063572 4.9000044e-39 317 231
-0.0023669999 0.67500001 0.0106515 3.7968939e-39 318 231
-0.0011834999 0.67500001 0.0106515 3.7968939e-39 319 231
0 0.67500001 0.0106515 3.2473158e-39 320 231
0.0011852533 0.676 0.01066728 3.2473158e-39 321 231
0.0023705065 0.676 0.01066728 3.5221048e-39 322 231
0.0035557596 0.676 0.01066728 3.4299092e-39 323 231
0.0047550397 0.67799997 0.010698839 5.9087642e-39 324 231
0.0059437994 0.67799997 0.010698839 8.7668287e-39 325 231
0.0071325595 0.67799997 0.010698839 1.2350585e-38 326 231
0.0083213197 0.67799997 0.010698839 1.3364378e-38 327 231
0.009524107 0.67900002 0.010714619 1.2355602e-38 328 231
0.0107304 0.68000001 0.0107304 1.198646e-38 329 231
0.011922667 0.68000001 0.0107304 1.1620552e-38 330 231
0.013153506 0.68199998 0.010761959 1.2819095e-38 331 231
0.01434928 0.68199998 0.010761959 1.4015145e-38 332 231
0.01559064 0.68400002 0.01079352 1.327758e-38 333 231
0.016888106 0.68800002 0.010856641 1.1423248e-38 334 231
0.0180944 0.68800002 0.010856641 1.1147021e-38 335 231
-0.037177678 0.68400002 0.0095942402 6.3722843e-39 289 232
-0.035925802 0.68300003 0.0095802136 6.3672592e-39 290 232
-0.034677424 0.68199998 0.009566186 6.0906723e-39 291 232
-0.03348165 0.68199998 0.009566186 5.634013e-39 292 232
-0.032191198 0.68000001 0.0095381327 5.8184056e-39 293 232
-0.030998932 0.68000001 0.0095381327 5.5446858e-39 294 232
-0.029762832 0.67900002 0.009524107 5.729077e-39 295 232
-0.028572321 0.67900002 0.009524107 5.4535664e-39 296 232
-0.027341479 0.67799997 0.0095100794 5.1769781e-39 297 232
-0.026152719 0.67799997 0.0095100794 5.1762592e-39 298 232
-0.024963958 0.67799997 0.0095100794 5.1762592e-39 299 232
-0.023775198 0.67799997 0.0095100794 3.980953e-39 300 232
-0.022586439 0.67799997 0.0095100794 3.4277806e-39 301 232
-0.021334561 0.676 0.0094820261 3.3337829e-39 302 232
-0.020149305 0.676 0.0094820261 3.5185329e-39 303 232
-0.018964052 0.676 0.0094820261 3.8869595e-39 304 232
-0.017778801 0.676 0.0094820261 4.6245246e-39 305 232
-0.016569 0.67500001 0.0094679995 5.4521342e-39 306 232
-0.0153855 0.67500001 0.0094679995 6.190058e-39 307 232
-0.01418096 0.67400002 0.0094539737 7.2024149e-39 308 232
-0.012999214 0.67400002 0.0094539737 8.5853493e-39 309 232
-0.011817466 0.67400002 0.0094539737 8.861932e-39 310 232
-0.01063572 0.67400002 0.0094539737 6.5570427e-39 311 232
-0.0094539737 0.67400002 0.0094539737 6.5534427e-39 312 232
-0.0082722269 0.67400002 0.0094539737 6.0928233e-39 313 232
-0.0071010003 0.67500001 0.0094679995 5.3606407e-39 314 232
-0.0059174998 0.67500001 0.0094679995 5.7297833e-39 315 232
-0.0047339997 0.67500001 0.0094679995 4.9943665e-39 316 232
-0.0035557596 0.676 0.0094820261 4.2568014e-39 317 232
-0.0023705065 0.676 0.0094820261 3.5213888e-39 318 232
-0.0011852533 0.676 0.0094820261 3.7976155e-39 319 232
0 0.676 0.0094820261 3.247313e-39 320 232
0.0011852533 0.676 0.0094820261 3.247313e-39 321 232
0.0023705065 0.676 0.0094820261 3.6139347e-39 322 232
0.0035662798 0.67799997 0.0095100794 3.4295421e-39 323 232
0.0047550397 0.67799997 0.0095100794 5.6321731e-39 324 232
0.0059437994 0.67799997 0.0095100794 8.5824346e-39 325 232
0.0071325595 0.67799997 0.0095100794 1.2441349e-38 326 232
0.0083335936 0.67900002 0.009524107 1.3548056e-38 327 232
0.0095381327 0.68000001 0.0095381327 1.2355249e-38 328 232
0.0107304 0.68000001 0.0095381327 1.1986466e-38 329 232
0.011957732 0.68199998 0.009566186 1.1620189e-38 330 232
0.013153506 0.68199998 0.009566186 1.2633981e-38 331 232
0.014370319 0.68300003 0.0095802136 1.4015145e-38 332 232
0.015659019 0.68699998 0.0096363192 1.3461612e-38 333 232
0.016888106 0.68800002 0.0096503468 1.1242452e-38 334 232
0.0180944 0.68800002 0.0096503468 1.1242452e-38 335 232
-0.037177678 0.68400002 0.0083949603 5.8151616e-39 289 233
-0.035925802 0.68300003 0.0083826864 5.5385971e-39 290 233
-0.034677424 0.68199998 0.0083704125 5.5385971e-39 291 233
-0.03348165 0.68199998 0.0083704125 5.2659563e-39 292 233
-0.032191198 0.68000001 0.0083458666 5.5421831e-39 293 233
-0.030998932 0.68000001 0.0083458666 5.8194776e-39 294 233
-0.029762832 0.67900002 0.0083335936 5.8194776e-39 295 233
-0.028572321 0.67900002 0.0083335936 6.0031458e-39 296 233
-0.027381808 0.67900002 0.0083335936 5.7265589e-39 297 233
-0.026152719 0.67799997 0.0083213197 5.3606435e-39 298 233
-0.024963958 0.67799997 0.0083213197 5.1766123e-39 299 233
-0.023775198 0.67799997 0.0083213197 4.9904134e-39 300 233
-0.022586439 0.67799997 0.0083213197 4.2528484e-39 301 233
-0.021397678 0.67799997 0.0083213197 4.0699018e-39 302 233
-0.020208918 0.67799997 0.0083213197 3.8858707e-39 303 233
-0.018964052 0.676 0.0082967728 4.0706319e-39 304 233
-0.017778801 0.676 0.0082967728 4.5316087e-39 305 233
-0.016593546 0.676 0.0082967728 6.0975092e-39 306 233
-0.0153855 0.67500001 0.0082844999 6.0049549e-39 307 233
-0.014202001 0.67500001 0.0082844999 7.2031337e-39 308 233
-0.012999214 0.67400002 0.0082722269 8.4938726e-39 309 233
-0.011817466 0.67400002 0.0082722269 9.3211137e-39 310 233
-0.0106515 0.67500001 0.0082844999 6.8321904e-39 311 233
-0.0094679995 0.67500001 0.0082844999 6.3701305e-39 312 233
-0.0082844999 0.67500001 0.0082844999 6.1857392e-39 313 233
-0.0071010003 0.67500001 0.0082844999 5.9123739e-39 314 233
-0.0059174998 0.67500001 0.0082844999 6.281155e-39 315 233
-0.0047339997 0.67500001 0.0082844999 5.7283217e-39 316 233
-0.0035557596 0.676 0.0082967728 5.0829523e-39 317 233
-0.0023705065 0.676 0.0082967728 4.1653092e-39 318 233
-0.0011852533 0.676 0.0082967728 4.0731136e-39 319 233
0 0.676 0.0082967728 3.247313e-39 320 233
0.0011852533 0.676 0.0082967728 3.247313e-39 321 233
0.0023705065 0.676 0.0082967728 3.4299064e-39 322 233
0.0035662798 0.67799997 0.0083213197 2.969287e-39 323 233
0.0047550397 0.67799997 0.0083213197 5.446707e-39 324 233
0.0059437994 0.67799997 0.0083213197 8.8579453e-39 325 233
0.0071430802 0.67900002 0.0083335936 1.2441702e-38 326 233
0.0083335936 0.67900002 0.0083335936 1.3363659e-38 327 233
0.009566186 0.68199998 0.0083704125 1.2354523e-38 328 233
0.010761959 0.68199998 0.0083704125 1.2078296e-38 329 233
0.011975267 0.68300003 0.0083826864 1.189605e-38 330 233
0.013172794 0.68300003 0.0083826864 1.2449224e-38 331 233
0.014370319 0.68300003 0.0083826864 1.3646357e-38 332 233
0.015659019 0.68699998 0.0084317802 1.3554162e-38 333 233
0.016888106 0.68800002 0.0084440531 1.142972e-38 334 233
0.018146999 0.69 0.0084686 1.1060939e-38 335 233
0.01944096 0.69300002 0.0085054198 1.0233342e-38 336 233
-0.035978399 0.68400002 0.0071956799 5.4467448e-39 290 234
-0.034728274 0.68300003 0.0071851597 5.907723e-39 291 234
-0.03348165 0.68199998 0.00717464 5.5425334e-39 292 234
-0.032285877 0.68199998 0.00717464 5.7269261e-39 293 234
-0.030998932 0.68000001 0.0071535995 5.8194804e-39 294 234
-0.029806666 0.68000001 0.0071535995 5.8194804e-39 295 234
-0.028572321 0.67900002 0.0071430802 5.727282e-39 296 234
-0.027381808 0.67900002 0.0071430802 5.6350864e-39 297 234
-0.026191294 0.67900002 0.0071430802 5.176262e-39 298 234
-0.025000781 0.67900002 0.0071430802 5.176262e-39 299 234
-0.023775198 0.67799997 0.0071325595 4.8085501e-39 300 234
-0.022586439 0.67799997 0.0071325595 4.3472118e-39 301 234
-0.021397678 0.67799997 0.0071325595 3.7039948e-39 302 234
-0.020208918 0.67799997 0.0071325595 3.7039948e-39 303 234
-0.018964052 0.676 0.0071115191 4.070985e-39 304 234
-0.017778801 0.676 0.0071115191 4.5319618e-39 305 234
-0.016593546 0.676 0.0071115191 6.0049437e-39 306 234
-0.015408293 0.676 0.0071115191 6.0049437e-39 307 234
-0.014202001 0.67500001 0.0071010003 7.3857243e-39 308 234
-0.0130185 0.67500001 0.0071010003 8.8612131e-39 309 234
-0.011835 0.67500001 0.0071010003 9.963965e-39 310 234
-0.0106515 0.67500001 0.0071010003 7.2902917e-39 311 234
-0.0094679995 0.67500001 0.0071010003 6.3676151e-39 312 234
-0.0082844999 0.67500001 0.0071010003 6.5520078e-39 313 234
-0.0071010003 0.67500001 0.0071010003 6.0045723e-39 314 234
-0.0059174998 0.67500001 0.0071010003 6.4655505e-39 315 234
-0.0047339997 0.67500001 0.0071010003 5.8216034e-39 316 234
-0.0035557596 0.676 0.0071115191 4.9922029e-39 317 234
-0.0023705065 0.676 0.0071115191 4.165675e-39 318 234
-0.0011852533 0.676 0.0071115191 3.9816439e-39 319 234
0 0.676 0.0071115191 3.3395086e-39 320 234
0.0011852533 0.676 0.0071115191 3.247313e-39 321 234
0.0023705065 0.676 0.0071115191 3.8883622e-39 322 234
0.0035662798 0.67799997 0.0071325595 3.6121355e-39 323 234
0.0047550397 0.67799997 0.0071325595 5.9069649e-39 324 234
0.0059525664 0.67900002 0.0071430802 9.0412576e-39 325 234
0.0071430802 0.67900002 0.0071430802 1.2258036e-38 326 234
0.0083458666 0.68000001 0.0071535995 1.3456221e-38 327 234
0.009566186 0.68199998 0.00717464 1.2447802e-38 328 234
0.010761959 0.68199998 0.00717464 1.1802432e-38 329 234
0.011975267 0.68300003 0.0071851597 1.1619456e-38 330 234
0.013172794 0.68300003 0.0071851597 1.2357023e-38 331 234
0.01439136 0.68400002 0.0071956799 1.3738187e-38 332 234
0.015636226 0.68599999 0.0072167199 1.364599e-38 333 234
0.016888106 0.68800002 0.0072377604 1.0971627e-38 334 234
0.0180944 0.68800002 0.0072377604 1.0695399e-38 335 234
0.01944096 0.69300002 0.0072903596 1.0232989e-38 336 234
-0.035978399 0.68400002 0.0059964 5.7247611e-39 290 235
-0.03477912 0.68400002 0.0059964 6.0935422e-39 291 235
-0.033530746 0.68300003 0.0059876335 6.0027899e-39 292 235
-0.032285877 0.68199998 0.005978866 5.8187587e-39 293 235
-0.031090107 0.68199998 0.005978866 5.7269289e-39 294 235
-0.029806666 0.68000001 0.0059613334 5.6347332e-39 295 235
-0.028614398 0.68000001 0.0059613334 5.3592211e-39 296 235
-0.027381808 0.67900002 0.0059525664 5.2670255e-39 297 235
-0.026191294 0.67900002 0.0059525664 5.0840636e-39 298 235
-0.025000781 0.67900002 0.0059525664 4.9918679e-39 299 235
-0.023775198 0.67799997 0.0059437994 4.3482936e-39 300 235
-0.022586439 0.67799997 0.0059437994 3.8869567e-39 301 235
-0.021397678 0.67799997 0.0059437994 3.1522685e-39 302 235
