# .PCD v.7 - Point Cloud Data file format
FIELDS x y z rgb imX imY
SIZE 4 4 4 4 4 4
TYPE F F F F F F
COUNT 1 1 1 1 1 1
WIDTH 833
HEIGHT 1
VIEWPOINT 0 0 0 1 0 0 0
POINTS 833
DATA ascii
0.015955333 0.69999999 -0.031910665 1.5199977e-38 333 266
0.017207211 0.70099998 -0.031956252 1.5564441e-38 334 266
0.018515198 0.704 -0.032093015 1.5195658e-38 335 266
0.019749546 0.704 -0.032093015 1.547043e-38 336 266
0.021043506 0.70599997 -0.032184184 1.5654463e-38 337 266
0.022281358 0.70599997 -0.032184184 1.5655166e-38 338 266
0.023519212 0.70599997 -0.032184184 1.5747362e-38 339 266
0.024792133 0.70700002 -0.032229774 1.5564771e-38 340 266
0.02603174 0.70700002 -0.032229774 1.5472576e-38 341 266
0.027387066 0.70999998 -0.032366529 1.7041013e-38 342 266
0.028631933 0.70999998 -0.032366529 2.0544805e-38 343 266
0.029876797 0.70999998 -0.032366529 2.0458034e-38 344 266
-0.037661601 0.71600002 -0.03389544 1.9999945e-38 290 267
-0.036304519 0.71399999 -0.033800758 1.9446773e-38 291 267
-0.035003547 0.713 -0.033753417 1.768855e-38 292 267
-0.033658739 0.71100003 -0.033658739 1.6490007e-38 293 267
-0.032366529 0.70999998 -0.033611398 1.6668267e-38 294 267
-0.031034 0.708 -0.033516716 1.7313637e-38 295 267
-0.029750559 0.70700002 -0.033469379 1.7134657e-38 296 267
-0.028470624 0.70599997 -0.033422034 1.7411243e-38 297 267
-0.027155625 0.704 -0.03332736 1.6492525e-38 298 267
-0.02592128 0.704 -0.03332736 1.5109589e-38 299 267
-0.024651866 0.70300001 -0.033280019 1.6485325e-38 300 267
-0.023352645 0.70099998 -0.03318534 1.6577521e-38 301 267
-0.022091998 0.69999999 -0.033137999 1.6210549e-38 302 267
-0.020864666 0.69999999 -0.033137999 1.6487135e-38 303 267
-0.019581227 0.69800001 -0.033043321 1.676552e-38 304 267
-0.0183574 0.69800001 -0.033043321 1.6673325e-38 305 267
-0.017133573 0.69800001 -0.033043321 1.63942e-38 306 267
-0.015886955 0.69700003 -0.03299598 1.6762984e-38 307 267
-0.01466488 0.69700003 -0.03299598 1.6215202e-38 308 267
-0.013442807 0.69700003 -0.03299598 1.6307398e-38 309 267
-0.0122032 0.69599998 -0.032948639 1.612337e-38 310 267
-0.010982879 0.69599998 -0.032948639 1.612337e-38 311 267
-0.0097625591 0.69599998 -0.032948639 1.593934e-38 312 267
-0.0085422397 0.69599998 -0.032948639 1.593934e-38 313 267
-0.0073219193 0.69599998 -0.032948639 1.5756395e-38 314 267
-0.0060840664 0.69400001 -0.032853961 1.5664199e-38 315 267
-0.0048672534 0.69400001 -0.032853961 1.5756039e-38 316 267
-0.0036504399 0.69400001 -0.032853961 1.5663843e-38 317 267
-0.0024336267 0.69400001 -0.032853961 1.5664195e-38 318 267
-0.0012168133 0.69400001 -0.032853961 1.5479804e-38 319 267
0 0.69400001 -0.032853961 1.5662394e-38 320 267
0.0012203199 0.69599998 -0.032948639 1.5570199e-38 321 267
0.0024406398 0.69599998 -0.032948639 1.556948e-38 322 267
0.0036609597 0.69599998 -0.032948639 1.5200696e-38 323 267
0.0048812795 0.69599998 -0.032948639 1.5289652e-38 324 267
0.0061103669 0.69700003 -0.03299598 1.5381847e-38 325 267
0.00733244 0.69700003 -0.03299598 1.5384012e-38 326 267
0.0085667865 0.69800001 -0.033043321 1.5384012e-38 327 267
0.0097906133 0.69800001 -0.033043321 1.5291819e-38 328 267
0.01101444 0.69800001 -0.033043321 1.5291819e-38 329 267
0.012238266 0.69800001 -0.033043321 1.5384015e-38 330 267
0.013500666 0.69999999 -0.033137999 1.5384015e-38 331 267
0.014727999 0.69999999 -0.033137999 1.556768e-38 332 267
0.015955333 0.69999999 -0.033137999 1.5014507e-38 333 267
0.017207211 0.70099998 -0.03318534 1.5656264e-38 334 267
0.018515198 0.704 -0.03332736 1.5564068e-38 335 267
0.019749546 0.704 -0.03332736 1.5564415e-38 336 267
0.021043506 0.70599997 -0.033422034 1.565697e-38 337 267
0.022281358 0.70599997 -0.033422034 1.5565122e-38 338 267
0.023552528 0.70700002 -0.033469379 1.5565122e-38 339 267
0.024792133 0.70700002 -0.033469379 1.5656245e-38 340 267
0.026068559 0.708 -0.033516716 1.5656245e-38 341 267
0.027387066 0.70999998 -0.033611398 1.7133208e-38 342 267
0.028631933 0.70999998 -0.033611398 2.0360055e-38 343 267
0.029876797 0.70999998 -0.033611398 2.0181444e-38 344 267
-0.037661601 0.71600002 -0.035150826 2.0183258e-38 290 268
-0.036304519 0.71399999 -0.035052639 1.9630444e-38 291 268
-0.035003547 0.713 -0.035003547 1.7688186e-38 292 268
-0.033658739 0.71100003 -0.034905359 1.6489644e-38 293 268
-0.032366529 0.70999998 -0.034856264 1.7314706e-38 294 268
-0.031034 0.708 -0.034758076 1.7499457e-38 295 268
-0.029750559 0.70700002 -0.034708988 1.7318328e-38 296 268
-0.028470624 0.70599997 -0.034659892 1.7410524e-38 297 268
-0.027155625 0.704 -0.034561705 1.6674751e-38 298 268
-0.02592128 0.704 -0.034561705 1.5291817e-38 299 268
-0.024651866 0.70300001 -0.034512613 1.6577144e-38 300 268
-0.023352645 0.70099998 -0.034414422 1.6669339e-38 301 268
-0.022091998 0.69999999 -0.034365334 1.6302378e-38 302 268
-0.020864666 0.69999999 -0.034365334 1.6670801e-38 303 268
-0.019581227 0.69800001 -0.034267146 1.6397095e-38 304 268
-0.0183574 0.69800001 -0.034267146 1.6212344e-38 305 268
-0.017133573 0.69800001 -0.034267146 1.6488548e-38 306 268
-0.015909746 0.69800001 -0.034267146 1.6856972e-38 307 268
-0.01466488 0.69700003 -0.034218054 1.6584334e-38 308 268
-0.013442807 0.69700003 -0.034218054 1.6307748e-38 309 268
-0.012220734 0.69700003 -0.034218054 1.6122286e-38 310 268
-0.010982879 0.69599998 -0.034168959 1.6030091e-38 311 268
-0.0097625591 0.69599998 -0.034168959 1.5938261e-38 312 268
-0.0085422397 0.69599998 -0.034168959 1.6030456e-38 313 268
-0.0073219193 0.69599998 -0.034168959 1.5938988e-38 314 268
-0.0061015999 0.69599998 -0.034168959 1.5938988e-38 315 268
-0.0048672534 0.69400001 -0.034070771 1.6122666e-38 316 268
-0.0036504399 0.69400001 -0.034070771 1.5754242e-38 317 268
-0.0024336267 0.69400001 -0.034070771 1.5844637e-38 318 268
-0.0012168133 0.69400001 -0.034070771 1.5660246e-38 319 268
0 0.69599998 -0.034168959 1.5937542e-38 320 268
0.0012203199 0.69599998 -0.034168959 1.5845346e-38 321 268
0.0024406398 0.69599998 -0.034168959 1.5750274e-38 322 268
0.00366622 0.69700003 -0.034218054 1.5381851e-38 323 268
0.0048882933 0.69700003 -0.034218054 1.5471169e-38 324 268
0.0061103669 0.69700003 -0.034218054 1.5563364e-38 325 268
0.00733244 0.69700003 -0.034218054 1.5565532e-38 326 268
0.0085667865 0.69800001 -0.034267146 1.519675e-38 327 268
0.0097906133 0.69800001 -0.034267146 1.5288948e-38 328 268
0.01101444 0.69800001 -0.034267146 1.5196753e-38 329 268
0.012238266 0.69800001 -0.034267146 1.5291822e-38 330 268
0.013500666 0.69999999 -0.034365334 1.5384018e-38 331 268
0.014727999 0.69999999 -0.034365334 1.5658078e-38 332 268
0.015955333 0.69999999 -0.034365334 1.5289654e-38 333 268
0.017207211 0.70099998 -0.034414422 1.55655e-38 334 268
0.018515198 0.704 -0.034561705 1.5841728e-38 335 268
0.019805651 0.70599997 -0.034659892 1.5658763e-38 336 268
0.021043506 0.70599997 -0.034659892 1.5751318e-38 337 268
0.022312919 0.70700002 -0.034708988 1.5750235e-38 338 268
0.023585839 0.708 -0.034758076 1.5474008e-38 339 268
0.024827199 0.708 -0.034758076 1.5749163e-38 340 268
0.026068559 0.708 -0.034758076 1.5749163e-38 341 268
0.027387066 0.70999998 -0.034856264 1.7132843e-38 342 268
0.028631933 0.70999998 -0.034856264 2.035969e-38 343 268
0.029876797 0.70999998 -0.034856264 2.0088526e-38 344 268
-0.037661601 0.71600002 -0.036406212 2.027509e-38 290 269
-0.036304519 0.71399999 -0.036304519 1.9814114e-38 291 269
-0.035052639 0.71399999 -0.036304519 1.7688903e-38 292 269
-0.033753417 0.713 -0.036253672 1.6398164e-38 293 269
-0.032412119 0.71100003 -0.036151983 1.7500529e-38 294 269
-0.031121666 0.70999998 -0.036101133 1.7407975e-38 295 269
-0.02979264 0.708 -0.03599944 1.7041015e-38 296 269
-0.028510952 0.70700002 -0.035948593 1.7133211e-38 297 269
-0.027232772 0.70599997 -0.035897743 1.6490716e-38 298 269
-0.025994917 0.70599997 -0.035897743 1.5384368e-38 299 269
-0.024757065 0.70599997 -0.035897743 1.6668971e-38 300 269
-0.023452586 0.704 -0.035796054 1.6668971e-38 301 269
-0.02218668 0.70300001 -0.035745207 1.6303079e-38 302 269
-0.020894472 0.70099998 -0.035643511 1.6395275e-38 303 269
-0.019637333 0.69999999 -0.035592664 1.6303445e-38 304 269
-0.018409999 0.69999999 -0.035592664 1.6303445e-38 305 269
-0.017133573 0.69800001 -0.035490975 1.6488545e-38 306 269
-0.015909746 0.69800001 -0.035490975 1.6949523e-38 307 269
-0.01468592 0.69800001 -0.035490975 1.6401019e-38 308 269
-0.013462093 0.69800001 -0.035490975 1.6216269e-38 309 269
-0.012238266 0.69800001 -0.035490975 1.612299e-38 310 269
-0.01099866 0.69700003 -0.035440128 1.593824e-38 311 269
-0.0097765867 0.69700003 -0.035440128 1.6120839e-38 312 269
-0.0085545136 0.69700003 -0.035440128 1.6028643e-38 313 269
-0.00733244 0.69700003 -0.035440128 1.5752425e-38 314 269
-0.0061103669 0.69700003 -0.035440128 1.5660229e-38 315 269
-0.0048812795 0.69599998 -0.035389278 1.565916e-38 316 269
-0.0036609597 0.69599998 -0.035389278 1.5474769e-38 317 269
-0.0024406398 0.69599998 -0.035389278 1.5564813e-38 318 269
-0.0012203199 0.69599998 -0.035389278 1.5657009e-38 319 269
0 0.69700003 -0.035440128 1.6119432e-38 320 269
0.0012220733 0.69700003 -0.035440128 1.6303823e-38 321 269
0.0024441467 0.69700003 -0.035440128 1.5748479e-38 322 269
0.00366622 0.69700003 -0.035440128 1.5379696e-38 323 269
0.0048882933 0.69700003 -0.035440128 1.5377882e-38 324 269
0.0061103669 0.69700003 -0.035440128 1.5377882e-38 325 269
0.00733244 0.69700003 -0.035440128 1.5286402e-38 326 269
0.0085667865 0.69800001 -0.035490975 1.491798e-38 327 269
0.0097906133 0.69800001 -0.035490975 1.5378603e-38 328 269
0.01101444 0.69800001 -0.035490975 1.5655192e-38 329 269
0.012273333 0.69999999 -0.035592664 1.5384015e-38 330 269
0.013500666 0.69999999 -0.035592664 1.5752798e-38 331 269
0.014727999 0.69999999 -0.035592664 1.5659523e-38 332 269
0.015978126 0.70099998 -0.035643511 1.5567327e-38 333 269
0.017256306 0.70300001 -0.035745207 1.5752425e-38 334 269
0.018515198 0.704 -0.035796054 1.5752425e-38 335 269
0.019805651 0.70599997 -0.035897743 1.5661654e-38 336 269
0.021073313 0.70700002 -0.035948593 1.5385069e-38 337 269
0.022344479 0.708 -0.03599944 1.5658769e-38 338 269
0.023585839 0.708 -0.03599944 1.5381822e-38 339 269
0.024897331 0.70999998 -0.036101133 1.5749163e-38 340 269
0.026142199 0.70999998 -0.036101133 1.5749163e-38 341 269
0.027387066 0.70999998 -0.036101133 1.7133561e-38 342 269
0.028631933 0.70999998 -0.036101133 2.0268213e-38 343 269
0.029876797 0.70999998 -0.036101133 2.0272197e-38 344 269
-0.036304519 0.71399999 -0.037556399 1.9629724e-38 291 270
-0.035052639 0.71399999 -0.037556399 1.7781099e-38 292 270
-0.033800758 0.71399999 -0.037556399 1.649036e-38 293 270
-0.032412119 0.71100003 -0.037398599 1.7590557e-38 294 270
-0.031121666 0.70999998 -0.037345998 1.7682753e-38 295 270
-0.029876797 0.70999998 -0.037345998 1.7131046e-38 296 270
-0.02855128 0.708 -0.0372408 1.7591666e-38 297 270
-0.027271347 0.70700002 -0.037188202 1.6582911e-38 298 270
-0.02603174 0.70700002 -0.037188202 1.5476564e-38 299 270
-0.024757065 0.70599997 -0.037135597 1.6576775e-38 300 270
-0.023452586 0.704 -0.037030395 1.6761166e-38 301 270
-0.022218239 0.704 -0.037030395 1.6579296e-38 302 270
-0.020954086 0.70300001 -0.036977798 1.6579296e-38 303 270
-0.019665385 0.70099998 -0.036872596 1.6120483e-38 304 270
-0.018409999 0.69999999 -0.036819998 1.6120483e-38 305 270
-0.017182667 0.69999999 -0.036819998 1.6305949e-38 306 270
-0.015955333 0.69999999 -0.036819998 1.6674731e-38 307 270
-0.014727999 0.69999999 -0.036819998 1.6676882e-38 308 270
-0.013462093 0.69800001 -0.0367148 1.6676882e-38 309 270
-0.012238266 0.69800001 -0.0367148 1.676728e-38 310 270
-0.01101444 0.69800001 -0.0367148 1.6214106e-38 311 270
-0.0097765867 0.69700003 -0.036662199 1.6303429e-38 312 270
-0.0085545136 0.69700003 -0.036662199 1.6211232e-38 313 270
-0.00733244 0.69700003 -0.036662199 1.5750977e-38 314 270
-0.0061103669 0.69700003 -0.036662199 1.5658782e-38 315 270
-0.0048812795 0.69599998 -0.036609598 1.5749908e-38 316 270
-0.0036609597 0.69599998 -0.036609598 1.5749908e-38 317 270
-0.0024406398 0.69599998 -0.036609598 1.5657725e-38 318 270
-0.0012203199 0.69599998 -0.036609598 1.5934671e-38 319 270
0 0.69700003 -0.036662199 1.612123e-38 320 270
0.0012220733 0.69700003 -0.036662199 1.5936839e-38 321 270
0.0024441467 0.69700003 -0.036662199 1.565556e-38 322 270
0.00366622 0.69700003 -0.036662199 1.5471169e-38 323 270
0.0048953067 0.69800001 -0.0367148 1.5470428e-38 324 270
0.006119133 0.69800001 -0.0367148 1.5378232e-38 325 270
0.0073429602 0.69800001 -0.0367148 1.5380756e-38 326 270
0.0085667865 0.69800001 -0.0367148 1.5749178e-38 327 270
0.0097906133 0.69800001 -0.0367148 1.556768e-38 328 270
0.01101444 0.69800001 -0.0367148 1.5659876e-38 329 270
0.012273333 0.69999999 -0.036819998 1.5294335e-38 330 270
0.013500666 0.69999999 -0.036819998 1.5479085e-38 331 270
0.014749039 0.70099998 -0.036872596 1.5752798e-38 332 270
0.016023712 0.70300001 -0.036977798 1.5752798e-38 333 270
0.017280852 0.704 -0.037030395 1.5754593e-38 334 270
0.018567799 0.70599997 -0.037135597 1.5570201e-38 335 270
0.019833706 0.70700002 -0.037188202 1.5570549e-38 336 270
0.021103119 0.708 -0.0372408 1.5202125e-38 337 270
0.022407599 0.70999998 -0.037345998 1.5659135e-38 338 270
0.023652466 0.70999998 -0.037345998 1.5198157e-38 339 270
0.024897331 0.70999998 -0.037345998 1.57488e-38 340 270
0.026142199 0.70999998 -0.037345998 1.556405e-38 341 270
0.027387066 0.70999998 -0.037345998 1.6766574e-38 342 270
0.02855128 0.708 -0.0372408 1.9993421e-38 343 270
0.02979264 0.708 -0.0372408 2.0180724e-38 344 270
-0.035052639 0.71399999 -0.038808275 1.7781099e-38 292 271
-0.033800758 0.71399999 -0.038808275 1.6582555e-38 293 271
-0.032412119 0.71100003 -0.038645219 1.7497993e-38 294 271
-0.031121666 0.70999998 -0.038590867 1.7497993e-38 295 271
-0.029876797 0.70999998 -0.038590867 1.6946281e-38 296 271
-0.02855128 0.708 -0.038482159 1.7868236e-38 297 271
-0.027271347 0.70700002 -0.038427804 1.7043531e-38 298 271
-0.02603174 0.70700002 -0.038427804 1.5752792e-38 299 271
-0.024757065 0.70599997 -0.038373452 1.6577497e-38 300 271
-0.023519212 0.70599997 -0.038373452 1.6669692e-38 301 271
-0.022218239 0.704 -0.038264744 1.6578574e-38 302 271
-0.020983893 0.704 -0.038264744 1.6762605e-38 303 271
-0.019721493 0.70300001 -0.038210396 1.6396703e-38 304 271
-0.018436298 0.70099998 -0.038101684 1.6488898e-38 305 271
-0.017182667 0.69999999 -0.038047329 1.6307024e-38 306 271
-0.015955333 0.69999999 -0.038047329 1.6583612e-38 307 271
-0.014727999 0.69999999 -0.038047329 1.6584331e-38 308 271
-0.013500666 0.69999999 -0.038047329 1.6676527e-38 309 271
-0.012238266 0.69800001 -0.037938625 1.6768359e-38 310 271
-0.01101444 0.69800001 -0.037938625 1.612299e-38 311 271
-0.0097906133 0.69800001 -0.037938625 1.6304138e-38 312 271
-0.0085667865 0.69800001 -0.037938625 1.6119387e-38 313 271
-0.00733244 0.69700003 -0.037884273 1.5750962e-38 314 271
-0.0061103669 0.69700003 -0.037884273 1.5566569e-38 315 271
-0.0048882933 0.69700003 -0.037884273 1.6117242e-38 316 271
-0.00366622 0.69700003 -0.037884273 1.6393829e-38 317 271
-0.0024441467 0.69700003 -0.037884273 1.6212334e-38 318 271
-0.0012220733 0.69700003 -0.037884273 1.6672953e-38 319 271
0 0.69700003 -0.037884273 1.6304176e-38 320 271
0.0012220733 0.69700003 -0.037884273 1.5842838e-38 321 271
0.0024441467 0.69700003 -0.037884273 1.5562996e-38 322 271
0.0036714801 0.69800001 -0.037938625 1.54708e-38 323 271
0.0048953067 0.69800001 -0.037938625 1.5561903e-38 324 271
0.006119133 0.69800001 -0.037938625 1.5838491e-38 325 271
0.0073429602 0.69800001 -0.037938625 1.5476541e-38 326 271
0.0085667865 0.69800001 -0.037938625 1.5845325e-38 327 271
0.0097906133 0.69800001 -0.037938625 1.5755293e-38 328 271
0.011045999 0.69999999 -0.038047329 1.5663098e-38 329 271
0.012273333 0.69999999 -0.038047329 1.5479438e-38 330 271
0.013519952 0.70099998 -0.038101684 1.5479438e-38 331 271
0.014749039 0.70099998 -0.038101684 1.5661325e-38 332 271
0.016023712 0.70300001 -0.038210396 1.5845356e-38 333 271
0.017280852 0.704 -0.038264744 1.5662047e-38 334 271
0.018594101 0.70700002 -0.038427804 1.5662047e-38 335 271
0.01986176 0.708 -0.038482159 1.5846062e-38 336 271
0.021103119 0.708 -0.038482159 1.547728e-38 337 271
0.022407599 0.70999998 -0.038590867 1.5751333e-38 338 271
0.023652466 0.70999998 -0.038590867 1.5290355e-38 339 271
0.024897331 0.70999998 -0.038590867 1.5748444e-38 340 271
0.026142199 0.70999998 -0.038590867 1.5564052e-38 341 271
0.027387066 0.70999998 -0.038590867 1.6858772e-38 342 271
0.02855128 0.708 -0.038482159 2.0085619e-38 343 271
0.02979264 0.708 -0.038482159 2.0272924e-38 344 271
0.031034 0.708 -0.038482159 2.036512e-38 345 271
-0.035052639 0.71399999 -0.040060159 1.796549e-38 292 272
-0.033800758 0.71399999 -0.040060159 1.6767305e-38 293 272
-0.032412119 0.71100003 -0.039891839 1.7499062e-38 294 272
-0.031121666 0.70999998 -0.039835732 1.7222835e-38 295 272
-0.029876797 0.70999998 -0.039835732 1.7130302e-38 296 272
-0.02855128 0.708 -0.039723519 1.7960063e-38 297 272
-0.027309919 0.708 -0.039723519 1.7135729e-38 298 272
-0.026068559 0.708 -0.039723519 1.584499e-38 299 272
-0.024792133 0.70700002 -0.039667413 1.6576425e-38 300 272
-0.023519212 0.70599997 -0.039611302 1.6760816e-38 301 272
-0.022218239 0.704 -0.039499093 1.666969e-38 302 272
-0.020983893 0.704 -0.039499093 1.6761887e-38 303 272
-0.019721493 0.70300001 -0.039442986 1.6395984e-38 304 272
-0.018436298 0.70099998 -0.039330769 1.6672211e-38 305 272
-0.017207211 0.70099998 -0.039330769 1.7136435e-38 306 272
-0.015955333 0.69999999 -0.039274666 1.6767653e-38 307 272
-0.014727999 0.69999999 -0.039274666 1.6307401e-38 308 272
-0.013500666 0.69999999 -0.039274666 1.6307401e-38 309 272
-0.012238266 0.69800001 -0.039162453 1.6491066e-38 310 272
-0.01101444 0.69800001 -0.039162453 1.6030088e-38 311 272
-0.0097906133 0.69800001 -0.039162453 1.6121205e-38 312 272
-0.0085667865 0.69800001 -0.039162453 1.6305596e-38 313 272
-0.00733244 0.69700003 -0.039106347 1.6582911e-38 314 272
-0.0061103669 0.69700003 -0.039106347 1.6582911e-38 315 272
-0.0048882933 0.69700003 -0.039106347 1.6304179e-38 316 272
-0.00366622 0.69700003 -0.039106347 1.6211983e-38 317 272
-0.0024441467 0.69700003 -0.039106347 1.6304542e-38 318 272
-0.0012220733 0.69700003 -0.039106347 1.6212346e-38 319 272
0 0.69800001 -0.039162453 1.6120138e-38 320 272
0.0012238267 0.69800001 -0.039162453 1.5474769e-38 321 272
0.0024476533 0.69800001 -0.039162453 1.5745942e-38 322 272
0.0036714801 0.69800001 -0.039162453 1.556155e-38 323 272
0.0048953067 0.69800001 -0.039162453 1.5560828e-38 324 272
0.006119133 0.69800001 -0.039162453 1.6021806e-38 325 272
0.0073429602 0.69800001 -0.039162453 1.5477636e-38 326 272
0.0085913334 0.69999999 -0.039274666 1.603081e-38 327 272
0.0098186666 0.69999999 -0.039274666 1.5571999e-38 328 272
0.011045999 0.69999999 -0.039274666 1.5571999e-38 329 272
0.012273333 0.69999999 -0.039274666 1.5479448e-38 330 272
0.013519952 0.70099998 -0.039330769 1.5387252e-38 331 272
0.014749039 0.70099998 -0.039330769 1.5845359e-38 332 272
0.016046507 0.704 -0.039499093 1.5845359e-38 333 272
0.017329946 0.70599997 -0.039611302 1.5845359e-38 334 272
0.018594101 0.70700002 -0.039667413 1.5661328e-38 335 272
0.01986176 0.708 -0.039723519 1.5661675e-38 336 272
0.021103119 0.708 -0.039723519 1.5385087e-38 337 272
0.022407599 0.70999998 -0.039835732 1.5841731e-38 338 272
0.023652466 0.70999998 -0.039835732 1.5472948e-38 339 272
0.024897331 0.70999998 -0.039835732 1.6024305e-38 340 272
0.026142199 0.70999998 -0.039835732 1.5839914e-38 341 272
0.027387066 0.70999998 -0.039835732 1.6950602e-38 342 272
0.02855128 0.708 -0.039723519 2.036148e-38 343 272
0.02979264 0.708 -0.039723519 2.0456589e-38 344 272
0.031034 0.708 -0.039723519 2.0548785e-38 345 272
-0.035150826 0.71600002 -0.041427758 1.7966565e-38 292 273
-0.03389544 0.71600002 -0.041427758 1.658363e-38 293 273
-0.032503292 0.713 -0.041254178 1.7406501e-38 294 273
-0.031165501 0.71100003 -0.041138459 1.7406501e-38 295 273
-0.029876797 0.70999998 -0.041080594 1.7129933e-38 296 273
-0.028631933 0.70999998 -0.041080594 1.805153e-38 297 273
-0.027309919 0.708 -0.040964879 1.7227925e-38 298 273
-0.026068559 0.708 -0.040964879 1.6305967e-38 299 273
-0.024792133 0.70700002 -0.040907022 1.6761539e-38 300 273
-0.023552528 0.70700002 -0.040907022 1.6577146e-38 301 273
-0.022281358 0.70599997 -0.040849157 1.6669692e-38 302 273
-0.020983893 0.704 -0.040733438 1.6854085e-38 303 273
-0.019749546 0.704 -0.040733438 1.6762611e-38 304 273
-0.018488899 0.70300001 -0.040675577 1.6947002e-38 305 273
-0.017207211 0.70099998 -0.040559858 1.6858419e-38 306 273
-0.015978126 0.70099998 -0.040559858 1.6858419e-38 307 273
-0.014727999 0.69999999 -0.040502001 1.6490007e-38 308 273
-0.013500666 0.69999999 -0.040502001 1.6397811e-38 309 273
-0.012273333 0.69999999 -0.040502001 1.6488558e-38 310 273
-0.01101444 0.69800001 -0.040386278 1.6488558e-38 311 273
-0.0097906133 0.69800001 -0.040386278 1.6121227e-38 312 273
-0.0085667865 0.69800001 -0.040386278 1.6674401e-38 313 273
-0.0073429602 0.69800001 -0.040386278 1.6952079e-38 314 273
-0.006119133 0.69800001 -0.040386278 1.7044275e-38 315 273
-0.0048953067 0.69800001 -0.040386278 1.6673697e-38 316 273
-0.0036714801 0.69800001 -0.040386278 1.6120882e-38 317 273
-0.0024476533 0.69800001 -0.040386278 1.6211993e-38 318 273
-0.0012238267 0.69800001 -0.040386278 1.6119798e-38 319 273
0 0.69800001 -0.040386278 1.6027584e-38 320 273
0.0012238267 0.69800001 -0.040386278 1.5474769e-38 321 273
0.0024476533 0.69800001 -0.040386278 1.5471153e-38 322 273
0.0036714801 0.69800001 -0.040386278 1.5102371e-38 323 273
0.0048953067 0.69800001 -0.040386278 1.5471153e-38 324 273
0.006119133 0.69800001 -0.040386278 1.6116523e-38 325 273
0.0073429602 0.69800001 -0.040386278 1.5662031e-38 326 273
0.0085913334 0.69999999 -0.040502001 1.6122649e-38 327 273
0.0098186666 0.69999999 -0.040502001 1.5664195e-38 328 273
0.011045999 0.69999999 -0.040502001 1.5664195e-38 329 273
0.012290866 0.70099998 -0.040559858 1.5754595e-38 330 273
0.013519952 0.70099998 -0.040559858 1.5754595e-38 331 273
0.014791119 0.70300001 -0.040675577 1.5845356e-38 332 273
0.016046507 0.704 -0.040733438 1.5845356e-38 333 273
0.017329946 0.70599997 -0.040849157 1.5661325e-38 334 273
0.018594101 0.70700002 -0.040907022 1.5569129e-38 335 273
0.01986176 0.708 -0.040964879 1.5752072e-38 336 273
0.021162732 0.70999998 -0.041080594 1.5475485e-38 337 273
0.022407599 0.70999998 -0.041080594 1.5841011e-38 338 273
0.023685781 0.71100003 -0.041138459 1.5471869e-38 339 273
0.024932399 0.71100003 -0.041138459 1.5748809e-38 340 273
0.026142199 0.70999998 -0.041080594 1.5841005e-38 341 273
0.027387066 0.70999998 -0.041080594 1.68577e-38 342 273
0.02855128 0.708 -0.040964879 2.0084547e-38 343 273
0.02979264 0.708 -0.040964879 2.0181447e-38 344 273
0.031034 0.708 -0.040964879 1.9997416e-38 345 273
-0.035150826 0.71600002 -0.042683143 1.8150607e-38 292 274
-0.03389544 0.71600002 -0.042683143 1.6859868e-38 293 274
-0.032640055 0.71600002 -0.042683143 1.7221402e-38 294 274
-0.031165501 0.71100003 -0.042385083 1.7405794e-38 295 274
-0.029918881 0.71100003 -0.042385083 1.713065e-38 296 274
-0.028631933 0.70999998 -0.042325463 1.7683823e-38 297 274
-0.027309919 0.708 -0.042206239 1.7041366e-38 298 274
-0.026068559 0.708 -0.042206239 1.6672942e-38 299 274
-0.024827199 0.708 -0.042206239 1.6761539e-38 300 274
-0.023552528 0.70700002 -0.042146627 1.6669342e-38 301 274
-0.022281358 0.70599997 -0.042087011 1.6668971e-38 302 274
-0.021043506 0.70599997 -0.042087011 1.6945558e-38 303 274
-0.019749546 0.704 -0.041967787 1.6762961e-38 304 274
-0.018488899 0.70300001 -0.041908171 1.6762961e-38 305 274
-0.017256306 0.70300001 -0.041908171 1.6303079e-38 306 274
-0.015978126 0.70099998 -0.041788943 1.6487829e-38 307 274
-0.014749039 0.70099998 -0.041788943 1.6488195e-38 308 274
-0.013500666 0.69999999 -0.041729331 1.6488195e-38 309 274
-0.012273333 0.69999999 -0.041729331 1.6487839e-38 310 274
-0.01101444 0.69800001 -0.041610107 1.6672589e-38 311 274
-0.0097906133 0.69800001 -0.041610107 1.6306694e-38 312 274
-0.0085667865 0.69800001 -0.041610107 1.639889e-38 313 274
-0.0073429602 0.69800001 -0.041610107 1.6675122e-38 314 274
-0.006119133 0.69800001 -0.041610107 1.6675122e-38 315 274
-0.0048953067 0.69800001 -0.041610107 1.6396739e-38 316 274
-0.0036714801 0.69800001 -0.041610107 1.6120151e-38 317 274
-0.0024476533 0.69800001 -0.041610107 1.6212346e-38 318 274
-0.0012238267 0.69800001 -0.041610107 1.6212346e-38 319 274
0 0.69800001 -0.041610107 1.6212346e-38 320 274
0.0012238267 0.69800001 -0.041610107 1.6212346e-38 321 274
0.0024476533 0.69800001 -0.041610107 1.6029387e-38 322 274
0.0036819996 0.69999999 -0.041729331 1.6121583e-38 323 274
0.0049093333 0.69999999 -0.041729331 1.5754595e-38 324 274
0.0061366665 0.69999999 -0.041729331 1.5754595e-38 325 274
0.0073639993 0.69999999 -0.041729331 1.5754593e-38 326 274
0.0085913334 0.69999999 -0.041729331 1.5754593e-38 327 274
0.0098186666 0.69999999 -0.041729331 1.5846435e-38 328 274
0.011045999 0.69999999 -0.041729331 1.5846435e-38 329 274
0.012290866 0.70099998 -0.041788943 1.5754958e-38 330 274
0.013558527 0.70300001 -0.041908171 1.5570927e-38 331 274
0.014791119 0.70300001 -0.041908171 1.5662397e-38 332 274
0.016046507 0.704 -0.041967787 1.5478006e-38 333 274
0.017329946 0.70599997 -0.042087011 1.5752775e-38 334 274
0.018594101 0.70700002 -0.042146627 1.501521e-38 335 274
0.01986176 0.708 -0.042206239 1.5656251e-38 336 274
0.021162732 0.70999998 -0.042325463 1.5563697e-38 337 274
0.022439159 0.71100003 -0.042385083 1.5839197e-38 338 274
0.023685781 0.71100003 -0.042385083 1.5839197e-38 339 274
0.024932399 0.71100003 -0.042385083 1.574915e-38 340 274
0.026179021 0.71100003 -0.042385083 1.5380007e-38 341 274
0.027387066 0.70999998 -0.042325463 1.6489264e-38 342 274
0.02855128 0.708 -0.042206239 1.9808307e-38 343 274
0.02979264 0.708 -0.042206239 1.9630074e-38 344 274
0.031034 0.708 -0.042206239 1.9076902e-38 345 274
-0.035347197 0.72000003 -0.044183999 1.7965858e-38 292 275
-0.033942781 0.71700001 -0.043999899 1.6859871e-38 293 275
-0.032685637 0.71700001 -0.043999899 1.7313599e-38 294 275
-0.031384666 0.71600002 -0.043938532 1.749799e-38 295 275
-0.029918881 0.71100003 -0.043631699 1.7223186e-38 296 275
-0.028631933 0.70999998 -0.043570329 1.7499412e-38 297 275
-0.027309919 0.708 -0.043447599 1.713282e-38 298 275
-0.026068559 0.708 -0.043447599 1.713282e-38 299 275
-0.024827199 0.708 -0.043447599 1.6671489e-38 300 275
-0.023552528 0.70700002 -0.043386232 1.6118674e-38 301 275
-0.022281358 0.70599997 -0.043324865 1.6669327e-38 302 275
-0.021043506 0.70599997 -0.043324865 1.6761522e-38 303 275
-0.019749546 0.704 -0.043202132 1.6578927e-38 304 275
-0.018515198 0.704 -0.043202132 1.6578927e-38 305 275
-0.017256306 0.70300001 -0.043140765 1.6577491e-38 306 275
-0.016023712 0.70300001 -0.043140765 1.639346e-38 307 275
-0.014749039 0.70099998 -0.043018032 1.648638e-38 308 275
-0.013519952 0.70099998 -0.043018032 1.648638e-38 309 275
-0.012273333 0.69999999 -0.042956665 1.6027219e-38 310 275
-0.011045999 0.69999999 -0.042956665 1.6856621e-38 311 275
-0.0098186666 0.69999999 -0.042956665 1.6399259e-38 312 275
-0.0085913334 0.69999999 -0.042956665 1.6491454e-38 313 275
-0.0073429602 0.69800001 -0.042833932 1.649181e-38 314 275
-0.006119133 0.69800001 -0.042833932 1.6584007e-38 315 275
-0.0048953067 0.69800001 -0.042833932 1.6857713e-38 316 275
-0.0036714801 0.69800001 -0.042833932 1.6397095e-38 317 275
-0.0024476533 0.69800001 -0.042833932 1.6396742e-38 318 275
-0.0012238267 0.69800001 -0.042833932 1.6396742e-38 319 275
0 0.69800001 -0.042833932 1.6397108e-38 320 275
0.0012238267 0.69800001 -0.042833932 1.6489303e-38 321 275
0.0024546667 0.69999999 -0.042956665 1.6397464e-38 322 275
0.0036819996 0.69999999 -0.042956665 1.6397464e-38 323 275
0.0049093333 0.69999999 -0.042956665 1.6122666e-38 324 275
0.0061366665 0.69999999 -0.042956665 1.5846438e-38 325 275
0.0073639993 0.69999999 -0.042956665 1.5754595e-38 326 275
0.0085913334 0.69999999 -0.042956665 1.5754595e-38 327 275
0.0098326923 0.70099998 -0.043018032 1.602975e-38 328 275
0.011061779 0.70099998 -0.043018032 1.5937555e-38 329 275
0.012325933 0.70300001 -0.043140765 1.5845356e-38 330 275
0.013577812 0.704 -0.043202132 1.5661325e-38 331 275
0.014812159 0.704 -0.043202132 1.5659879e-38 332 275
0.016046507 0.704 -0.043202132 1.5475488e-38 333 275
0.017329946 0.70599997 -0.043324865 1.5105239e-38 334 275
0.018594101 0.70700002 -0.043386232 1.4828651e-38 335 275
0.01986176 0.708 -0.043447599 1.5103778e-38 336 275
0.021162732 0.70999998 -0.043570329 1.5287809e-38 337 275
0.022439159 0.71100003 -0.043631699 1.5655515e-38 338 275
0.023685781 0.71100003 -0.043631699 1.5748071e-38 339 275
0.025002534 0.713 -0.043754432 1.574915e-38 340 275
0.026252659 0.713 -0.043754432 1.5472203e-38 341 275
0.027425639 0.71100003 -0.043631699 1.6856251e-38 342 275
0.028631933 0.70999998 -0.043570329 1.9990903e-38 343 275
0.029876797 0.70999998 -0.043570329 1.9628276e-38 344 275
0.031121666 0.70999998 -0.043570329 1.9259494e-38 345 275
-0.035347197 0.72000003 -0.045446403 1.7782546e-38 292 276
-0.03403746 0.71899998 -0.045383278 1.6584004e-38 293 276
-0.032685637 0.71700001 -0.045257039 1.7222482e-38 294 276
-0.031428497 0.71700001 -0.045257039 1.7406513e-38 295 276
-0.030045118 0.71399999 -0.045067675 1.7406851e-38 296 276
-0.028672259 0.71100003 -0.044878319 1.7314654e-38 297 276
-0.027387066 0.70999998 -0.044815198 1.6856589e-38 298 276
-0.026142199 0.70999998 -0.044815198 1.7501959e-38 299 276
-0.024827199 0.708 -0.044688959 1.6856958e-38 300 276
-0.023552528 0.70700002 -0.044625837 1.6119393e-38 301 276
-0.022281358 0.70599997 -0.044562716 1.6852989e-38 302 276
-0.021043506 0.70599997 -0.044562716 1.6945185e-38 303 276
-0.019805651 0.70599997 -0.044562716 1.667004e-38 304 276
-0.018515198 0.704 -0.044436477 1.667004e-38 305 276
-0.017280852 0.704 -0.044436477 1.6577847e-38 306 276
-0.016023712 0.70300001 -0.04437336 1.6393816e-38 307 276
-0.014749039 0.70099998 -0.044247117 1.6393463e-38 308 276
-0.013519952 0.70099998 -0.044247117 1.6209072e-38 309 276
-0.012290866 0.70099998 -0.044247117 1.5657712e-38 310 276
-0.011045999 0.69999999 -0.044183996 1.6487473e-38 311 276
-0.0098186666 0.69999999 -0.044183996 1.6675476e-38 312 276
-0.0085913334 0.69999999 -0.044183996 1.6767673e-38 313 276
-0.0073429602 0.69800001 -0.04405776 1.6583654e-38 314 276
-0.006119133 0.69800001 -0.04405776 1.6952435e-38 315 276
-0.0049093333 0.69999999 -0.044183996 1.7319786e-38 316 276
-0.0036819996 0.69999999 -0.044183996 1.722759e-38 317 276
-0.0024546667 0.69999999 -0.044183996 1.6949914e-38 318 276
-0.0012273333 0.69999999 -0.044183996 1.6672969e-38 319 276
0 0.69999999 -0.044183996 1.6397461e-38 320 276
0.0012273333 0.69999999 -0.044183996 1.6305265e-38 321 276
0.0024546667 0.69999999 -0.044183996 1.6304909e-38 322 276
0.0036819996 0.69999999 -0.044183996 1.6397464e-38 323 276
0.0049093333 0.69999999 -0.044183996 1.6214146e-38 324 276
0.0061366665 0.69999999 -0.044183996 1.612195e-38 325 276
0.0073639993 0.69999999 -0.044183996 1.6029384e-38 326 276
0.0086036054 0.70099998 -0.044247117 1.612158e-38 327 276
0.0098326923 0.70099998 -0.044247117 1.6121583e-38 328 276
0.01109334 0.70300001 -0.04437336 1.6029387e-38 329 276
0.012325933 0.70300001 -0.04437336 1.5752444e-38 330 276
0.013577812 0.704 -0.044436477 1.5383662e-38 331 276
0.014812159 0.704 -0.044436477 1.5658078e-38 332 276
0.016092092 0.70599997 -0.044562716 1.5289654e-38 333 276
0.017329946 0.70599997 -0.044562716 1.4181837e-38 334 276
0.018594101 0.70700002 -0.044625837 1.390525e-38 335 276
0.01986176 0.708 -0.044688959 1.4919384e-38 336 276
0.021162732 0.70999998 -0.044815198 1.5288165e-38 337 276
0.022439159 0.71100003 -0.044878319 1.5471484e-38 338 276
0.023752406 0.713 -0.045004558 1.5748071e-38 339 276
0.025002534 0.713 -0.045004558 1.5748797e-38 340 276
0.026252659 0.713 -0.045004558 1.5471851e-38 341 276
0.027502786 0.713 -0.045004558 1.6856251e-38 342 276
0.028752912 0.713 -0.045004558 1.9898707e-38 343 276
0.030045118 0.71399999 -0.045067675 1.9536078e-38 344 276
0.031296998 0.71399999 -0.045067675 1.9720469e-38 345 276
-0.035347197 0.72000003 -0.0467088 1.7875818e-38 292 277
-0.03403746 0.71899998 -0.046643924 1.6400328e-38 293 277
-0.032685637 0.71700001 -0.046514176 1.7223554e-38 294 277
-0.031384666 0.71600002 -0.046449307 1.731575e-38 295 277
-0.03012928 0.71600002 -0.046449307 1.7223889e-38 296 277
-0.028672259 0.71100003 -0.046124939 1.7039138e-38 297 277
-0.027387066 0.70999998 -0.046060063 1.6946984e-38 298 277
-0.026142199 0.70999998 -0.046060063 1.7961135e-38 299 277
-0.024827199 0.708 -0.045930319 1.6766574e-38 300 277
-0.023552528 0.70700002 -0.045865446 1.6029009e-38 301 277
-0.022281358 0.70599997 -0.04580057 1.6393816e-38 302 277
-0.021043506 0.70599997 -0.04580057 1.6577847e-38 303 277
-0.019805651 0.70599997 -0.04580057 1.6486728e-38 304 277
-0.018515198 0.704 -0.045670826 1.6486728e-38 305 277
-0.017280852 0.704 -0.045670826 1.6577481e-38 306 277
-0.016023712 0.70300001 -0.04560595 1.6485286e-38 307 277
-0.014749039 0.70099998 -0.045476202 1.6301618e-38 308 277
-0.013519952 0.70099998 -0.045476202 1.6117226e-38 309 277
-0.012290866 0.70099998 -0.045476202 1.5933208e-38 310 277
-0.011045999 0.69999999 -0.04541133 1.5933208e-38 311 277
-0.0098186666 0.69999999 -0.04541133 1.6301283e-38 312 277
-0.0085913334 0.69999999 -0.04541133 1.6485674e-38 313 277
-0.0073429602 0.69800001 -0.045281585 1.6123395e-38 314 277
-0.006119133 0.69800001 -0.045281585 1.6768764e-38 315 277
-0.0049093333 0.69999999 -0.04541133 1.713612e-38 316 277
-0.0036819996 0.69999999 -0.04541133 1.713612e-38 317 277
-0.0024546667 0.69999999 -0.04541133 1.6950635e-38 318 277
-0.0012273333 0.69999999 -0.04541133 1.6489656e-38 319 277
0 0.69999999 -0.04541133 1.6304545e-38 320 277
0.0012273333 0.69999999 -0.04541133 1.6396742e-38 321 277
0.0024546667 0.69999999 -0.04541133 1.6765523e-38 322 277
0.0036819996 0.69999999 -0.04541133 1.6949914e-38 323 277
0.0049093333 0.69999999 -0.04541133 1.6674401e-38 324 277
0.0061454331 0.70099998 -0.045476202 1.6582205e-38 325 277
0.0073745195 0.70099998 -0.045476202 1.6397811e-38 326 277
0.0086036054 0.70099998 -0.045476202 1.6582561e-38 327 277
0.0098326923 0.70099998 -0.045476202 1.6674406e-38 328 277
0.01109334 0.70300001 -0.04560595 1.5936483e-38 329 277
0.012325933 0.70300001 -0.04560595 1.5106e-38 330 277
0.013577812 0.704 -0.045670826 1.4553185e-38 331 277
0.014854239 0.70599997 -0.04580057 1.4736132e-38 332 277
0.016092092 0.70599997 -0.04580057 1.4366989e-38 333 277
0.017354494 0.70700002 -0.045865446 1.2430863e-38 334 277
0.0186204 0.708 -0.045930319 1.3076232e-38 335 277
0.019917866 0.70999998 -0.046060063 1.4645686e-38 336 277
0.021192541 0.71100003 -0.046124939 1.4922273e-38 337 277
0.022439159 0.71100003 -0.046124939 1.5472203e-38 338 277
0.023752406 0.713 -0.046254687 1.55644e-38 339 277
0.025002534 0.713 -0.046254687 1.5747715e-38 340 277
0.026252659 0.713 -0.046254687 1.5655518e-38 341 277
0.02754136 0.71399999 -0.046319555 1.6949167e-38 342 277
0.028793238 0.71399999 -0.046319555 1.9807591e-38 343 277
0.030045118 0.71399999 -0.046319555 1.9259847e-38 344 277
-0.035347197 0.72000003 -0.0479712 1.7783968e-38 292 278
-0.03403746 0.71899998 -0.04790457 1.6032253e-38 293 278
-0.032685637 0.71700001 -0.04777132 1.7223539e-38 294 278
-0.031384666 0.71600002 -0.047704693 1.740757e-38 295 278
-0.03012928 0.71600002 -0.047704693 1.7407199e-38 296 278
-0.028672259 0.71100003 -0.047371563 1.7222806e-38 297 278
-0.027387066 0.70999998 -0.047304932 1.6945904e-38 298 278
-0.026142199 0.70999998 -0.047304932 1.7591273e-38 299 278
-0.024897331 0.70999998 -0.047304932 1.7136082e-38 300 278
-0.023585839 0.708 -0.047171678 1.6490713e-38 301 278
-0.022312919 0.70700002 -0.047105055 1.6579293e-38 302 278
-0.021043506 0.70599997 -0.047038425 1.6487098e-38 303 278
-0.019805651 0.70599997 -0.047038425 1.6487084e-38 304 278
-0.018515198 0.704 -0.046905171 1.6394529e-38 305 278
-0.017280852 0.704 -0.046905171 1.639381e-38 306 278
-0.016046507 0.704 -0.046905171 1.6301615e-38 307 278
-0.014791119 0.70300001 -0.046838548 1.6209772e-38 308 278
-0.013558527 0.70300001 -0.046838548 1.6117575e-38 309 278
-0.012290866 0.70099998 -0.046705291 1.6117226e-38 310 278
-0.011061779 0.70099998 -0.046705291 1.5656248e-38 311 278
-0.0098326923 0.70099998 -0.046705291 1.5838491e-38 312 278
-0.0085913334 0.69999999 -0.046638668 1.6022522e-38 313 278
-0.0073639993 0.69999999 -0.046638668 1.5844274e-38 314 278
-0.0061366665 0.69999999 -0.046638668 1.6397448e-38 315 278
-0.0049093333 0.69999999 -0.046638668 1.6305638e-38 316 278
-0.0036819996 0.69999999 -0.046638668 1.6582223e-38 317 278
-0.0024546667 0.69999999 -0.046638668 1.6491457e-38 318 278
-0.0012273333 0.69999999 -0.046638668 1.6307066e-38 319 278
0 0.69999999 -0.046638668 1.6212346e-38 320 278
0.0012273333 0.69999999 -0.046638668 1.6489293e-38 321 278
0.0024581731 0.70099998 -0.046705291 1.7042108e-38 322 278
0.0036872597 0.70099998 -0.046705291 1.7134663e-38 323 278
0.0049163462 0.70099998 -0.046705291 1.6950632e-38 324 278
0.0061454331 0.70099998 -0.046705291 1.7042827e-38 325 278
0.0073955595 0.70300001 -0.046838548 1.7134663e-38 326 278
0.0086281532 0.70300001 -0.046838548 1.741089e-38 327 278
0.0098607466 0.70300001 -0.046838548 1.6767322e-38 328 278
0.011109119 0.704 -0.046905171 1.4646463e-38 329 278
0.012343466 0.704 -0.046905171 1.3629797e-38 330 278
0.013616386 0.70599997 -0.047038425 1.3168817e-38 331 278
0.014854239 0.70599997 -0.047038425 1.3814187e-38 332 278
0.016092092 0.70599997 -0.047038425 1.335321e-38 333 278
0.017354494 0.70700002 -0.047105055 1.1970622e-38 334 278
0.0186204 0.708 -0.047171678 1.3169165e-38 335 278
0.019917866 0.70999998 -0.047304932 1.5015563e-38 336 278
0.021192541 0.71100003 -0.047371563 1.5015563e-38 337 278
0.022502279 0.713 -0.047504812 1.5565124e-38 338 278
0.023752406 0.713 -0.047504812 1.547257e-38 339 278
0.025002534 0.713 -0.047504812 1.5656601e-38 340 278
0.026252659 0.713 -0.047504812 1.5471851e-38 341 278
0.02754136 0.71399999 -0.047571439 1.6673662e-38 342 278
0.028793238 0.71399999 -0.047571439 1.9531727e-38 343 278
0.030045118 0.71399999 -0.047571439 1.9075102e-38 344 278
-0.035347197 0.72000003 -0.0492336 1.7966565e-38 292 279
-0.03403746 0.71899998 -0.049165215 1.6768022e-38 293 279
-0.032685637 0.71700001 -0.04902846 1.7500861e-38 294 279
-0.031384666 0.71600002 -0.048960082 1.7316469e-38 295 279
-0.03012928 0.71600002 -0.048960082 1.7314654e-38 296 279
-0.028793238 0.71399999 -0.048823316 1.72221e-38 297 279
-0.027425639 0.71100003 -0.048618179 1.7220683e-38 298 279
-0.026179021 0.71100003 -0.048618179 1.7220683e-38 299 279
-0.024897331 0.70999998 -0.048549797 1.6858416e-38 300 279
-0.023585839 0.708 -0.048413038 1.759634e-38 301 279
-0.022312919 0.70700002 -0.048344657 1.7043536e-38 302 279
-0.021073313 0.70700002 -0.048344657 1.6490363e-38 303 279
-0.019805651 0.70599997 -0.048276275 1.64871e-38 304 279
-0.018567799 0.70599997 -0.048276275 1.6118318e-38 305 279
-0.017280852 0.704 -0.048139516 1.6394529e-38 306 279
-0.016046507 0.704 -0.048139516 1.6210138e-38 307 279
-0.014812159 0.704 -0.048139516 1.630089e-38 308 279
-0.013558527 0.70300001 -0.048071139 1.630089e-38 309 279
-0.012325933 0.70300001 -0.048071139 1.6207623e-38 310 279
-0.01109334 0.70300001 -0.048071139 1.6207623e-38 311 279
-0.0098607466 0.70300001 -0.048071139 1.6115071e-38 312 279
-0.0086281532 0.70300001 -0.048071139 1.6207267e-38 313 279
-0.0073745195 0.70099998 -0.047934376 1.5656266e-38 314 279
-0.0061454331 0.70099998 -0.047934376 1.5656266e-38 315 279
-0.0049163462 0.70099998 -0.047934376 1.5288948e-38 316 279
-0.0036872597 0.70099998 -0.047934376 1.6026515e-38 317 279
-0.0024581731 0.70099998 -0.047934376 1.6215949e-38 318 279
-0.0012290865 0.70099998 -0.047934376 1.6215949e-38 319 279
0 0.70099998 -0.047934376 1.6121233e-38 320 279
0.0012290865 0.70099998 -0.047934376 1.6029037e-38 321 279
0.0024651866 0.70300001 -0.048071139 1.6765523e-38 322 279
0.0036872597 0.70099998 -0.047934376 1.7134307e-38 323 279
0.0049163462 0.70099998 -0.047934376 1.7134307e-38 324 279
0.0061629666 0.70300001 -0.048071139 1.6304545e-38 325 279
0.0073955595 0.70300001 -0.048071139 1.6393495e-38 326 279
0.0086404262 0.704 -0.048139516 1.5840321e-38 327 279
0.0098747732 0.704 -0.048139516 1.4179708e-38 328 279
0.011109119 0.704 -0.048139516 1.2612381e-38 329 279
0.012343466 0.704 -0.048139516 1.2429435e-38 330 279
0.013616386 0.70599997 -0.048276275 1.3351392e-38 331 279
0.014854239 0.70599997 -0.048276275 1.3084532e-38 332 279
0.016114887 0.70700002 -0.048344657 1.2439163e-38 333 279
0.017379038 0.708 -0.048413038 1.1416733e-38 334 279
0.0186204 0.708 -0.048413038 1.3445037e-38 335 279
0.019917866 0.70999998 -0.048549797 1.5109927e-38 336 279
0.021192541 0.71100003 -0.048618179 1.4925535e-38 337 279
0.022502279 0.713 -0.048754938 1.5656245e-38 338 279
0.02378572 0.71399999 -0.048823316 1.556405e-38 339 279
0.025037598 0.71399999 -0.048823316 1.5747348e-38 340 279
0.026289478 0.71399999 -0.048823316 1.5470402e-38 341 279
0.02754136 0.71399999 -0.048823316 1.6122639e-38 342 279
0.028793238 0.71399999 -0.048823316 1.9256932e-38 343 279
-0.035347197 0.72000003 -0.050496001 1.8427913e-38 292 280
-0.03403746 0.71899998 -0.050425861 1.7044978e-38 293 280
-0.032685637 0.71700001 -0.0502856 1.7779987e-38 294 280
-0.031428497 0.71700001 -0.0502856 1.750304e-38 295 280
-0.03012928 0.71600002 -0.050215468 1.7222479e-38 296 280
-0.028793238 0.71399999 -0.050075196 1.6945891e-38 297 280
-0.027425639 0.71100003 -0.049864799 1.7313226e-38 298 280
-0.026179021 0.71100003 -0.049864799 1.7036639e-38 299 280
-0.024897331 0.70999998 -0.049794663 1.6763337e-38 300 280
-0.023652466 0.70999998 -0.049794663 1.796188e-38 301 280
-0.022344479 0.708 -0.049654398 1.7505253e-38 302 280
-0.021073313 0.70700002 -0.049584266 1.6859884e-38 303 280
-0.019833706 0.70700002 -0.049584266 1.6672213e-38 304 280
-0.018567799 0.70599997 -0.04951413 1.593429e-38 305 280
-0.017329946 0.70599997 -0.04951413 1.6485636e-38 306 280
-0.016046507 0.704 -0.049373865 1.639344e-38 307 280
-0.014812159 0.704 -0.049373865 1.6300887e-38 308 280
-0.013577812 0.704 -0.049373865 1.6300887e-38 309 280
-0.012325933 0.70300001 -0.049303733 1.620762e-38 310 280
-0.01109334 0.70300001 -0.049303733 1.6115424e-38 311 280
-0.0098607466 0.70300001 -0.049303733 1.6023952e-38 312 280
-0.0086281532 0.70300001 -0.049303733 1.583956e-38 313 280
-0.0073745195 0.70099998 -0.049163464 1.5196356e-38 314 280
-0.0061454331 0.70099998 -0.049163464 1.4920128e-38 315 280
-0.0049303733 0.70300001 -0.049303733 1.5289652e-38 316 280
-0.0036977797 0.70300001 -0.049303733 1.6211249e-38 317 280
-0.0024651866 0.70300001 -0.049303733 1.6214511e-38 318 280
-0.0012290865 0.70099998 -0.049163464 1.6122316e-38 319 280
0 0.70099998 -0.049163464 1.6486422e-38 320 280
0.0012290865 0.70099998 -0.049163464 1.6670453e-38 321 280
0.0024651866 0.70300001 -0.049303733 1.6857e-38 322 280
0.0036977797 0.70300001 -0.049303733 1.6949195e-38 323 280
0.0049303733 0.70300001 -0.049303733 1.6397108e-38 324 280
0.0061629666 0.70300001 -0.049303733 1.5383314e-38 325 280
0.0074060797 0.704 -0.049373865 1.4736495e-38 326 280
0.0086404262 0.704 -0.049373865 1.4552102e-38 327 280
0.0098747732 0.704 -0.049373865 1.3629053e-38 328 280
0.011109119 0.704 -0.049373865 1.3721607e-38 329 280
0.012378532 0.70599997 -0.04951413 1.3999633e-38 330 280
0.013616386 0.70599997 -0.04951413 1.4737198e-38 331 280
0.01487528 0.70700002 -0.049584266 1.5200343e-38 332 280
0.016114887 0.70700002 -0.049584266 1.5016312e-38 333 280
0.017379038 0.708 -0.049654398 1.3629777e-38 334 280
0.018672999 0.70999998 -0.049794663 1.3629777e-38 335 280
0.01994592 0.71100003 -0.049864799 1.4464557e-38 336 280
0.021192541 0.71100003 -0.049864799 1.4648949e-38 337 280
0.022502279 0.713 -0.050005067 1.5748093e-38 338 280
0.02378572 0.71399999 -0.050075196 1.5378951e-38 339 280
0.025037598 0.71399999 -0.050075196 1.5379654e-38 340 280
0.026289478 0.71399999 -0.050075196 1.5379654e-38 341 280
0.02754136 0.71399999 -0.050075196 1.6674022e-38 342 280
-0.035347197 0.72000003 -0.051758397 1.9074004e-38 292 281
-0.03403746 0.71899998 -0.05168651 1.7322288e-38 293 281
-0.032685637 0.71700001 -0.051542737 1.7597044e-38 294 281
-0.031428497 0.71700001 -0.051542737 1.7320098e-38 295 281
-0.03012928 0.71600002 -0.051470853 1.7315394e-38 296 281
-0.028793238 0.71399999 -0.05132708 1.7038807e-38 297 281
-0.02754136 0.71399999 -0.05132708 1.7129538e-38 298 281
-0.026252659 0.713 -0.051255193 1.7037343e-38 299 281
-0.024932399 0.71100003 -0.051111419 1.6853342e-38 300 281
-0.023652466 0.70999998 -0.051039528 1.7406516e-38 301 281
-0.022344479 0.708 -0.050895758 1.6950632e-38 302 281
-0.021073313 0.70700002 -0.050823875 1.7411969e-38 303 281
-0.019833706 0.70700002 -0.050823875 1.7042108e-38 304 281
-0.018567799 0.70599997 -0.050751984 1.6489293e-38 305 281
-0.017329946 0.70599997 -0.050751984 1.630163e-38 306 281
-0.016046507 0.704 -0.050608214 1.5933208e-38 307 281
-0.014812159 0.704 -0.050608214 1.6024308e-38 308 281
-0.013577812 0.704 -0.050608214 1.6024308e-38 309 281
-0.012343466 0.704 -0.050608214 1.5931762e-38 310 281
-0.011109119 0.704 -0.050608214 1.6116153e-38 311 281
-0.0098607466 0.70300001 -0.050536323 1.6025772e-38 312 281
-0.0086281532 0.70300001 -0.050536323 1.5933576e-38 313 281
-0.0073955595 0.70300001 -0.050536323 1.5844637e-38 314 281
-0.0061629666 0.70300001 -0.050536323 1.6490007e-38 315 281
-0.0049303733 0.70300001 -0.050536323 1.6305265e-38 316 281
-0.0036977797 0.70300001 -0.050536323 1.6029037e-38 317 281
-0.0024651866 0.70300001 -0.050536323 1.6305262e-38 318 281
-0.0012325933 0.70300001 -0.050536323 1.6490012e-38 319 281
0 0.70300001 -0.050536323 1.6487857e-38 320 281
0.0012325933 0.70300001 -0.050536323 1.6487857e-38 321 281
0.0024651866 0.70300001 -0.050536323 1.6397814e-38 322 281
0.0036977797 0.70300001 -0.050536323 1.5199271e-38 323 281
0.0049303733 0.70300001 -0.050536323 1.4275147e-38 324 281
0.0061717331 0.704 -0.050608214 1.4459538e-38 325 281
0.0074060797 0.704 -0.050608214 1.4095794e-38 326 281
0.0086404262 0.704 -0.050608214 1.4648968e-38 327 281
0.0099028256 0.70599997 -0.050751984 1.5476567e-38 328 281
0.011140679 0.70599997 -0.050751984 1.5752795e-38 329 281
0.012378532 0.70599997 -0.050751984 1.6028656e-38 330 281
0.013635674 0.70700002 -0.050823875 1.6028656e-38 331 281
0.01487528 0.70700002 -0.050823875 1.5845344e-38 332 281
0.01613768 0.708 -0.050895758 1.5384365e-38 333 281
0.017428132 0.70999998 -0.051039528 1.4642832e-38 334 281
0.018672999 0.70999998 -0.051039528 1.381307e-38 335 281
0.01994592 0.71100003 -0.051111419 1.4000332e-38 336 281
0.021252153 0.713 -0.051255193 1.4738257e-38 337 281
0.022502279 0.713 -0.051255193 1.5564771e-38 338 281
0.02378572 0.71399999 -0.05132708 1.5195989e-38 339 281
0.025107734 0.71600002 -0.051470853 1.5101993e-38 340 281
0.026363119 0.71600002 -0.051470853 1.6116503e-38 341 281
-0.035347197 0.72000003 -0.053020801 1.9167646e-38 292 282
-0.03403746 0.71899998 -0.05294716 1.760032e-38 293 282
-0.032685637 0.71700001 -0.052799881 1.695204e-38 294 282
-0.031428497 0.71700001 -0.052799881 1.695204e-38 295 282
-0.03012928 0.71600002 -0.052726239 1.7316822e-38 296 282
-0.028873893 0.71600002 -0.052726239 1.6763648e-38 297 282
-0.02754136 0.71399999 -0.052578956 1.7129891e-38 298 282
-0.026252659 0.713 -0.052505318 1.7037696e-38 299 282
-0.024932399 0.71100003 -0.052358042 1.7036992e-38 300 282
-0.023652466 0.70999998 -0.052284397 1.7221384e-38 301 282
-0.022407599 0.70999998 -0.052284397 1.6672939e-38 302 282
-0.021103119 0.708 -0.052137118 1.7686732e-38 303 282
-0.019833706 0.70700002 -0.05206348 1.7319423e-38 304 282
-0.018567799 0.70599997 -0.051989835 1.6950281e-38 305 282
-0.017329946 0.70599997 -0.051989835 1.6582911e-38 306 282
-0.016092092 0.70599997 -0.051989835 1.5937542e-38 307 282
-0.014812159 0.704 -0.051842559 1.602864e-38 308 282
-0.013577812 0.704 -0.051842559 1.5567662e-38 309 282
-0.012343466 0.704 -0.051842559 1.538364e-38 310 282
