# .PCD v.7 - Point Cloud Data file format
FIELDS x y z rgb imX imY
SIZE 4 4 4 4 4 4
TYPE F F F F F F
COUNT 1 1 1 1 1 1
WIDTH 844
HEIGHT 1
VIEWPOINT 0 0 0 1 0 0 0
POINTS 844
DATA ascii
-0.011764866 0.671 0.023529733 1.28134e-38 310 220
-0.01058838 0.671 0.023529733 1.2168031e-38 311 220
-0.0094118929 0.671 0.023529733 1.1882805e-38 312 220
-0.0082354061 0.671 0.023529733 7.3652205e-39 313 220
-0.0070483997 0.67000002 0.023494666 5.4255194e-39 314 220
-0.0058736666 0.67000002 0.023494666 4.9645398e-39 315 220
-0.0046849065 0.66799998 0.023424532 6.249885e-39 316 220
-0.0035136798 0.66799998 0.023424532 8.0937962e-39 317 220
-0.0023424532 0.66799998 0.023424532 9.4814012e-39 318 220
-0.0011747333 0.67000002 0.023494666 1.1141281e-38 319 220
0 0.67000002 0.023494666 1.3159506e-38 320 220
0.0011747333 0.67000002 0.023494666 1.2329385e-38 321 220
0.0023494666 0.67000002 0.023494666 1.3242694e-38 322 220
0.0035294599 0.671 0.023529733 1.2505129e-38 323 220
0.0047059464 0.671 0.023529733 1.2960715e-38 324 220
0.0058824331 0.671 0.023529733 1.2130954e-38 325 220
0.0070694401 0.67199999 0.023564799 1.1299049e-38 326 220
0.00824768 0.67199999 0.023564799 1.1852222e-38 327 220
0.0094539737 0.67400002 0.023634933 1.1781256e-38 328 220
0.01063572 0.67400002 0.023634933 1.5100298e-38 329 220
0.011835 0.67500001 0.023669999 1.400942e-38 330 220
0.0130185 0.67500001 0.023669999 1.4470398e-38 331 220
0.014202001 0.67500001 0.023669999 1.4103042e-38 332 220
0.015476674 0.67900002 0.023810266 1.2535715e-38 333 220
0.016691733 0.68000001 0.023845334 1.2065014e-38 334 220
-0.035925802 0.68300003 0.022753006 6.8033797e-39 290 221
-0.034728274 0.68300003 0.022753006 8.3703453e-39 291 221
-0.03348165 0.68199998 0.022719691 1.0043576e-38 292 221
-0.032191198 0.68000001 0.022653066 1.2071879e-38 293 221
-0.030953348 0.67900002 0.022619752 1.2908127e-38 294 221
-0.029762832 0.67900002 0.022619752 1.1709942e-38 295 221
-0.028530238 0.67799997 0.022586439 7.9256012e-39 296 221
-0.027260827 0.676 0.022519812 3.0392314e-39 297 221
-0.026037 0.67500001 0.022486499 2.3877551e-39 298 221
-0.0248535 0.67500001 0.022486499 8.5645022e-39 299 221
-0.023669999 0.67500001 0.022486499 1.0329523e-38 300 221
-0.022486499 0.67500001 0.022486499 1.2542218e-38 301 221
-0.021303 0.67500001 0.022486499 1.2909555e-38 302 221
-0.020089693 0.67400002 0.022453187 1.2632969e-38 303 221
-0.018907947 0.67400002 0.022453187 1.2541492e-38 304 221
-0.017673599 0.67199999 0.022386558 1.2633688e-38 305 221
-0.01649536 0.67199999 0.022386558 1.3276176e-38 306 221
-0.01531712 0.67199999 0.022386558 1.2907035e-38 307 221
-0.01413888 0.67199999 0.022386558 1.2626841e-38 308 221
-0.012941353 0.671 0.022353247 1.1336102e-38 309 221
-0.011764866 0.671 0.022353247 1.0320869e-38 310 221
-0.01058838 0.671 0.022353247 9.5833036e-39 311 221
-0.0094118929 0.671 0.022353247 9.9431052e-39 312 221
-0.0082354061 0.671 0.022353247 5.7021049e-39 313 221
-0.0070589199 0.671 0.022353247 5.4233838e-39 314 221
-0.0058736666 0.67000002 0.022319933 6.9910682e-39 315 221
-0.0046849065 0.66799998 0.022253305 8.1896086e-39 316 221
-0.0035136798 0.66799998 0.022253305 9.8494887e-39 317 221
-0.0023494666 0.67000002 0.022319933 1.1597953e-38 318 221
-0.0011747333 0.67000002 0.022319933 1.2427714e-38 319 221
0 0.67000002 0.022319933 1.2879324e-38 320 221
0.0011747333 0.67000002 0.022319933 1.2049205e-38 321 221
0.0023529732 0.671 0.022353247 1.2872472e-38 322 221
0.0035294599 0.671 0.022353247 1.2503331e-38 323 221
0.0047059464 0.671 0.022353247 1.3051463e-38 324 221
0.0058824331 0.671 0.022353247 1.2590843e-38 325 221
0.0070694401 0.67199999 0.022386558 9.7486162e-39 326 221
0.0083213197 0.67799997 0.022586439 1.3067659e-38 327 221
0.0095100794 0.67799997 0.022586439 1.2249791e-38 328 221
0.0106515 0.67500001 0.022486499 1.3632725e-38 329 221
0.011835 0.67500001 0.022486499 1.28116e-38 330 221
0.0130185 0.67500001 0.022486499 1.364136e-38 331 221
0.01428616 0.67900002 0.022619752 1.4470029e-38 332 221
0.015476674 0.67900002 0.022619752 1.4193441e-38 333 221
0.016691733 0.68000001 0.022653066 1.2438481e-38 334 221
0.017936599 0.68199998 0.022719691 1.2807264e-38 335 221
0.019132372 0.68199998 0.022719691 1.2533547e-38 336 221
-0.035925802 0.68300003 0.02155548 8.7463221e-39 290 222
-0.034728274 0.68300003 0.02155548 8.7463221e-39 291 222
-0.03348165 0.68199998 0.021523919 9.675872e-39 292 222
-0.032285877 0.68199998 0.021523919 1.1243198e-38 293 222
-0.030998932 0.68000001 0.0214608 1.2263113e-38 294 222
-0.029762832 0.67900002 0.021429239 1.1986168e-38 295 222
-0.028530238 0.67799997 0.021397678 8.8472001e-39 296 222
-0.027341479 0.67799997 0.021397678 3.6846036e-39 297 222
-0.026075572 0.676 0.021334561 3.1235209e-39 298 222
-0.024890319 0.676 0.021334561 7.4567155e-39 299 222
-0.023669999 0.67500001 0.021303 9.8667499e-39 300 222
-0.022486499 0.67500001 0.021303 1.3185793e-38 301 222
-0.021334561 0.676 0.021334561 1.3369455e-38 302 222
-0.020119499 0.67500001 0.021303 1.3001031e-38 303 222
-0.018935999 0.67500001 0.021303 1.3093582e-38 304 222
-0.0177262 0.67400002 0.021271439 1.290883e-38 305 222
-0.01649536 0.67199999 0.021208318 1.2352059e-38 306 222
-0.01531712 0.67199999 0.021208318 1.0139724e-38 307 222
-0.01413888 0.67199999 0.021208318 8.3793725e-39 308 222
-0.012941353 0.671 0.021176759 6.1666773e-39 309 222
-0.011764866 0.671 0.021176759 5.3343985e-39 310 222
-0.01058838 0.671 0.021176759 6.2563548e-39 311 222
-0.0094118929 0.671 0.021176759 8.093799e-39 312 222
-0.0082354061 0.671 0.021176759 6.8030602e-39 313 222
-0.0070589199 0.671 0.021176759 8.10028e-39 314 222
-0.0058736666 0.67000002 0.0211452 1.1143096e-38 315 222
-0.0046989331 0.67000002 0.0211452 1.2160115e-38 316 222
-0.0035241998 0.67000002 0.0211452 1.1699137e-38 317 222
-0.0023529732 0.671 0.021176759 1.2055673e-38 318 222
-0.0011764866 0.671 0.021176759 1.0672738e-38 319 222
0 0.671 0.021176759 1.1949794e-38 320 222
0.0011764866 0.671 0.021176759 1.2226021e-38 321 222
0.0023564799 0.67199999 0.021208318 1.2869225e-38 322 222
0.0035662798 0.67799997 0.021397678 1.2684475e-38 323 222
0.0047550397 0.67799997 0.021397678 1.2776323e-38 324 222
0.0059437994 0.67799997 0.021397678 1.4804627e-38 325 222
0.0071325595 0.67799997 0.021397678 1.1886755e-38 326 222
0.0083213197 0.67799997 0.021397678 1.4375679e-38 327 222
0.0095100794 0.67799997 0.021397678 1.3176788e-38 328 222
0.010698839 0.67799997 0.021397678 1.0226528e-38 329 222
0.011887599 0.67799997 0.021397678 8.8446694e-39 330 222
0.013076359 0.67799997 0.021397678 1.11492e-38 331 222
0.01428616 0.67900002 0.021429239 1.3824663e-38 332 222
0.015476674 0.67900002 0.021429239 1.4193085e-38 333 222
0.016691733 0.68000001 0.0214608 1.1796353e-38 334 222
0.017936599 0.68199998 0.021523919 1.2072939e-38 335 222
0.019132372 0.68199998 0.021523919 1.2164769e-38 336 222
-0.035978399 0.68400002 0.020387759 1.1702712e-38 290 223
-0.034728274 0.68300003 0.020357953 1.0319777e-38 291 223
-0.03348165 0.68199998 0.020328145 9.5829561e-39 292 223
-0.032285877 0.68199998 0.020328145 1.0965891e-38 293 223
-0.030998932 0.68000001 0.020268533 1.1986168e-38 294 223
-0.029806666 0.68000001 0.020268533 1.1802136e-38 295 223
-0.028572321 0.67900002 0.020238725 9.1241486e-39 296 223
-0.027341479 0.67799997 0.020208918 3.9611947e-39 297 223
-0.026075572 0.676 0.020149305 3.3990288e-39 298 223
-0.024890319 0.676 0.020149305 7.086854e-39 299 223
-0.023669999 0.67500001 0.020119499 9.9546267e-39 300 223
-0.022486499 0.67500001 0.020119499 1.4103789e-38 301 223
-0.021334561 0.676 0.020149305 1.3920114e-38 302 223
-0.020119499 0.67500001 0.020119499 1.272157e-38 303 223
-0.018935999 0.67500001 0.020119499 1.2071516e-38 304 223
-0.0177262 0.67400002 0.020089693 1.0503831e-38 305 223
-0.016544454 0.67400002 0.020089693 9.1172962e-39 306 223
-0.01531712 0.67199999 0.020030079 7.6418074e-39 307 223
-0.01413888 0.67199999 0.020030079 6.1634558e-39 308 223
-0.012941353 0.671 0.020000271 5.0571096e-39 309 223
-0.011764866 0.671 0.020000271 6.5243265e-39 310 223
-0.01058838 0.671 0.020000271 9.3827498e-39 311 223
-0.0094118929 0.671 0.020000271 1.0678874e-38 312 223
-0.0082354061 0.671 0.020000271 1.1785221e-38 313 223
-0.0070589199 0.671 0.020000271 1.1328562e-38 314 223
-0.0058824331 0.671 0.020000271 1.1973931e-38 315 223
-0.0046989331 0.67000002 0.019970467 1.1692654e-38 316 223
-0.0035241998 0.67000002 0.019970467 9.8487418e-39 317 223
-0.0023529732 0.671 0.020000271 1.112616e-38 318 223
-0.0011764866 0.671 0.020000271 1.0296399e-38 319 223
0 0.671 0.020000271 1.1762173e-38 320 223
0.0011782399 0.67199999 0.020030079 1.2315345e-38 321 223
0.0059437994 0.67799997 0.020208918 1.5540394e-38 325 223
0.0071325595 0.67799997 0.020208918 1.262252e-38 326 223
0.0083213197 0.67799997 0.020208918 1.5296193e-38 327 223
0.0095100794 0.67799997 0.020208918 1.2442447e-38 328 223
0.010698839 0.67799997 0.020208918 7.4638831e-39 329 223
0.011905133 0.67900002 0.020238725 8.6494727e-39 330 223
0.013095647 0.67900002 0.020238725 1.1323146e-38 331 223
0.01428616 0.67900002 0.020238725 1.4282037e-38 332 223
0.015499466 0.68000001 0.020268533 1.5019603e-38 333 223
0.016740825 0.68199998 0.020328145 1.1613407e-38 334 223
0.017936599 0.68199998 0.020328145 1.1705961e-38 335 223
0.019132372 0.68199998 0.020328145 1.2163687e-38 336 223
-0.036136195 0.68699998 0.019272638 1.2536092e-38 290 224
-0.03477912 0.68400002 0.01918848 1.152158e-38 291 224
-0.033530746 0.68300003 0.019160427 9.402162e-39 292 224
-0.032285877 0.68199998 0.019132372 1.0047531e-38 293 224
-0.030998932 0.68000001 0.019076265 1.1710293e-38 294 224
-0.029806666 0.68000001 0.019076265 1.1525901e-38 295 224
-0.028572321 0.67900002 0.019048214 9.2170645e-39 296 224
-0.027341479 0.67799997 0.019020159 4.1463048e-39 297 224
-0.026075572 0.676 0.018964052 3.7678085e-39 298 224
-0.024890319 0.676 0.018964052 6.8106244e-39 299 224
-0.023669999 0.67500001 0.018935999 9.4925696e-39 300 224
-0.022486499 0.67500001 0.018935999 1.391832e-38 301 224
-0.021334561 0.676 0.018964052 1.3642085e-38 302 224
-0.020119499 0.67500001 0.018935999 1.1429031e-38 303 224
-0.018935999 0.67500001 0.018935999 9.4864417e-39 304 224
-0.0177262 0.67400002 0.018907947 5.9830091e-39 305 224
-0.016544454 0.67400002 0.018907947 5.5162857e-39 306 224
-0.015362706 0.67400002 0.018907947 5.0556663e-39 307 224
-0.01413888 0.67199999 0.018851839 5.1457235e-39 308 224
-0.012960639 0.67199999 0.018851839 5.2379191e-39 309 224
-0.011782399 0.67199999 0.018851839 7.4491723e-39 310 224
-0.01058838 0.671 0.018823786 1.1874563e-38 311 224
-0.0094118929 0.671 0.018823786 1.3360103e-38 312 224
-0.0082354061 0.671 0.018823786 1.3913277e-38 313 224
-0.0070694401 0.67199999 0.018851839 1.188892e-38 314 224
-0.0058911997 0.67199999 0.018851839 9.1230514e-39 315 224
-0.0047129598 0.67199999 0.018851839 8.7409523e-39 316 224
-0.00353472 0.67199999 0.018851839 7.4502135e-39 317 224
-0.0023564799 0.67199999 0.018851839 9.2844179e-39 318 224
-0.0011782399 0.67199999 0.018851839 9.6528417e-39 319 224
0 0.67199999 0.018851839 1.0665908e-38 320 224
0.0011782399 0.67199999 0.018851839 1.103433e-38 321 224
0.0023669999 0.67500001 0.018935999 1.2318567e-38 322 224
0.0035505001 0.67500001 0.018935999 1.1581002e-38 323 224
0.0047339997 0.67500001 0.018935999 1.2128783e-38 324 224
0.0059262668 0.676 0.018964052 1.535563e-38 325 224
0.0071325595 0.67799997 0.019020159 1.2344844e-38 326 224
0.0083213197 0.67799997 0.019020159 1.5479495e-38 327 224
0.0095100794 0.67799997 0.019020159 1.225733e-38 328 224
0.010698839 0.67799997 0.019020159 7.0021791e-39 329 224
0.011905133 0.67900002 0.019048214 9.2876395e-39 330 224
0.013095647 0.67900002 0.019048214 1.1223748e-38 331 224
0.01428616 0.67900002 0.019048214 1.4464264e-38 332 224
0.015499466 0.68000001 0.019076265 1.5570612e-38 333 224
0.016740825 0.68199998 0.019132372 1.1429013e-38 334 224
0.017936599 0.68199998 0.019132372 1.1521567e-38 335 224
0.019132372 0.68199998 0.019132372 1.2256589e-38 336 224
-0.037395094 0.68800002 0.0180944 1.0972009e-38 289 225
-0.036136195 0.68699998 0.018068098 9.4061277e-39 290 225
-0.03477912 0.68400002 0.0179892 7.7462476e-39 291 225
-0.033530746 0.68300003 0.017962901 7.0072406e-39 292 225
-0.032285877 0.68199998 0.017936599 9.3121314e-39 293 225
-0.030998932 0.68000001 0.017883999 1.1525545e-38 294 225
-0.029806666 0.68000001 0.017883999 1.1157123e-38 295 225
-0.028572321 0.67900002 0.017857701 8.9404776e-39 296 225
-0.027381808 0.67900002 0.017857701 4.2385005e-39 297 225
-0.026075572 0.676 0.017778801 4.2280664e-39 298 225
-0.024890319 0.676 0.017778801 7.4549134e-39 299 225
-0.023705067 0.676 0.017778801 9.2141904e-39 300 225
-0.022519812 0.676 0.017778801 1.1980059e-38 301 225
-0.021334561 0.676 0.017778801 9.0297963e-39 302 225
-0.020149305 0.676 0.017778801 5.1575799e-39 303 225
-0.018935999 0.67500001 0.0177525 5.2432973e-39 304 225
-0.0177525 0.67500001 0.0177525 4.7823206e-39 305 225
-0.016544454 0.67400002 0.0177262 5.604894e-39 306 225
-0.015362706 0.67400002 0.0177262 6.0658721e-39 307 225
-0.01418096 0.67400002 0.0177262 6.808828e-39 308 225
-0.012960639 0.67199999 0.017673599 9.5746969e-39 309 225
-0.011782399 0.67199999 0.017673599 1.1516913e-38 310 225
-0.010604159 0.67199999 0.017673599 1.3268632e-38 311 225
-0.0094259195 0.67199999 0.017673599 1.3179293e-38 312 225
-0.00824768 0.67199999 0.017673599 9.768055e-39 313 225
-0.0070694401 0.67199999 0.017673599 8.0174101e-39 314 225
-0.0058911997 0.67199999 0.017673599 5.8043562e-39 315 225
-0.0047129598 0.67199999 0.017673599 9.2084072e-39 316 225
-0.00353472 0.67199999 0.017673599 1.105232e-38 317 225
-0.0023564799 0.67199999 0.017673599 1.1333227e-38 318 225
-0.0011782399 0.67199999 0.017673599 1.1978596e-38 319 225
0 0.67199999 0.017673599 1.2532122e-38 320 225
0.0011817467 0.67400002 0.0177262 1.2255535e-38 321 225
0.0023669999 0.67500001 0.0177525 1.2891881e-38 322 225
0.0035505001 0.67500001 0.0177525 1.0218208e-38 323 225
0.0047339997 0.67500001 0.0177525 1.1306566e-38 324 225
0.0059262668 0.676 0.017778801 1.333487e-38 325 225
0.0071115191 0.676 0.017778801 1.1885661e-38 326 225
0.0083213197 0.67799997 0.0178314 1.5204704e-38 327 225
0.0095100794 0.67799997 0.0178314 1.2350602e-38 328 225
0.010714619 0.67900002 0.017857701 7.2798422e-39 329 225
0.011905133 0.67900002 0.017857701 9.5627816e-39 330 225
0.013095647 0.67900002 0.017857701 1.1406693e-38 331 225
0.01428616 0.67900002 0.017857701 1.4647933e-38 332 225
0.015499466 0.68000001 0.017883999 1.556989e-38 333 225
0.016740825 0.68199998 0.017936599 1.0966958e-38 334 225
0.017936599 0.68199998 0.017936599 1.1428295e-38 335 225
0.019132372 0.68199998 0.017936599 1.216404e-38 336 225
-0.037395094 0.68800002 0.016888106 9.7774241e-39 289 226
-0.0361888 0.68800002 0.016888106 8.2965473e-39 290 226
-0.034931656 0.68699998 0.01686356 5.0697003e-39 291 226
-0.033530746 0.68300003 0.016765373 6.6330687e-39 292 226
-0.032285877 0.68199998 0.016740825 9.9521114e-39 293 226
-0.030998932 0.68000001 0.016691733 1.1801059e-38 294 226
-0.029806666 0.68000001 0.016691733 1.0694713e-38 295 226
-0.028572321 0.67900002 0.016667187 8.2029125e-39 296 226
-0.027381808 0.67900002 0.016667187 4.2385005e-39 297 226
-0.026152719 0.67799997 0.016642639 4.2291468e-39 298 226
-0.024890319 0.676 0.016593546 6.7184274e-39 299 226
-0.023705067 0.676 0.016593546 8.7488991e-39 300 226
-0.022519812 0.676 0.016593546 9.1173228e-39 301 226
-0.021334561 0.676 0.016593546 6.7202393e-39 302 226
-0.020149305 0.676 0.016593546 3.4011966e-39 303 226
-0.018964052 0.676 0.016593546 3.9511362e-39 304 226
-0.0177525 0.67500001 0.016569 4.5039512e-39 305 226
-0.016569 0.67500001 0.016569 5.3322854e-39 306 226
-0.0153855 0.67500001 0.016569 6.3467974e-39 307 226
-0.01418096 0.67400002 0.016544454 9.0262118e-39 308 226
-0.012999214 0.67400002 0.016544454 1.1792081e-38 309 226
-0.011782399 0.67199999 0.01649536 1.3917227e-38 310 226
-0.010604159 0.67199999 0.01649536 1.3917227e-38 311 226
-0.0094259195 0.67199999 0.01649536 1.2715772e-38 312 226
-0.00824768 0.67199999 0.01649536 9.2123379e-39 313 226
-0.0070904801 0.67400002 0.016544454 6.2599267e-39 314 226
-0.0059087332 0.67400002 0.016544454 8.9336e-39 315 226
-0.0047269869 0.67400002 0.016544454 1.069038e-38 316 226
-0.00354524 0.67400002 0.016544454 1.2902716e-38 317 226
-0.0023634934 0.67400002 0.016544454 1.3550237e-38 318 226
-0.0011817467 0.67400002 0.016544454 1.410341e-38 319 226
0 0.67400002 0.016544454 1.4103761e-38 320 226
0.0011817467 0.67400002 0.016544454 1.3734978e-38 321 226
0.0023669999 0.67500001 0.016569 1.45604e-38 322 226
0.0035505001 0.67500001 0.016569 1.2624292e-38 323 226
0.0047339997 0.67500001 0.016569 1.0859978e-38 324 226
0.0059262668 0.676 0.016593546 1.0306804e-38 325 226
0.0071115191 0.676 0.016593546 1.1149891e-38 326 226
0.0083213197 0.67799997 0.016642639 1.4929912e-38 327 226
0.0095100794 0.67799997 0.016642639 1.2627186e-38 328 226
0.010714619 0.67900002 0.016667187 7.556785e-39 329 226
0.011905133 0.67900002 0.016667187 9.9315599e-39 330 226
0.013114933 0.68000001 0.016691733 1.1867668e-38 331 226
0.014307199 0.68000001 0.016691733 1.4556816e-38 332 226
0.015545053 0.68199998 0.016740825 1.5202185e-38 333 226
0.016740825 0.68199998 0.016740825 1.0505267e-38 334 226
0.017936599 0.68199998 0.016740825 1.1519059e-38 335 226
0.019132372 0.68199998 0.016740825 1.1887106e-38 336 226
0.020506985 0.68800002 0.016888106 1.0688564e-38 337 226
0.021713281 0.68800002 0.016888106 1.1235973e-38 338 226
0.022919573 0.68800002 0.016888106 1.4370264e-38 339 226
-0.037503798 0.69 0.015727401 9.5008386e-39 289 227
-0.0361888 0.68800002 0.015681813 8.1114232e-39 290 227
-0.034931656 0.68699998 0.015659019 5.4373912e-39 291 227
-0.033579841 0.68400002 0.01559064 7.2744696e-39 292 227
-0.032333218 0.68300003 0.015567848 1.0685708e-38 293 227
-0.031090107 0.68199998 0.015545053 1.1524473e-38 294 227
-0.029806666 0.68000001 0.015499466 9.8649506e-39 295 227
-0.028572321 0.67900002 0.015476674 7.1887606e-39 296 227
-0.027381808 0.67900002 0.015476674 4.2385005e-39 297 227
-0.026152719 0.67799997 0.015453878 5.4258907e-39 298 227
-0.024890319 0.676 0.015408293 6.1634558e-39 299 227
-0.023705067 0.676 0.015408293 5.9797904e-39 300 227
-0.022519812 0.676 0.015408293 5.6106491e-39 301 227
-0.021397678 0.67799997 0.015453878 5.1496738e-39 302 227
-0.020149305 0.676 0.015408293 4.9652825e-39 303 227
-0.018964052 0.676 0.015408293 4.8698471e-39 304 227
-0.017778801 0.676 0.015408293 6.0683889e-39 305 227
-0.016593546 0.676 0.015408293 9.6726476e-39 306 227
-0.0153855 0.67500001 0.0153855 1.2346321e-38 307 227
-0.014202001 0.67500001 0.0153855 1.3641366e-38 308 227
-0.0130185 0.67500001 0.0153855 1.3548812e-38 309 227
-0.011835 0.67500001 0.0153855 1.2624685e-38 310 227
-0.0106515 0.67500001 0.0153855 9.6747832e-39 311 227
-0.0094679995 0.67500001 0.0153855 1.141966e-38 312 227
-0.0082844999 0.67500001 0.0153855 1.2894791e-38 313 227
-0.0071010003 0.67500001 0.0153855 1.2261297e-38 314 227
-0.0059087332 0.67400002 0.015362706 1.3459839e-38 315 227
-0.0047269869 0.67400002 0.015362706 1.3920814e-38 316 227
-0.00354524 0.67400002 0.015362706 1.3644587e-38 317 227
-0.0023634934 0.67400002 0.015362706 1.3828253e-38 318 227
-0.0011817467 0.67400002 0.015362706 1.3735697e-38 319 227
0 0.67500001 0.0153855 1.3552385e-38 320 227
0.0011834999 0.67500001 0.0153855 1.3644582e-38 321 227
0.0023669999 0.67500001 0.0153855 1.373605e-38 322 227
0.0035505001 0.67500001 0.0153855 1.3459823e-38 323 227
0.0047410131 0.676 0.015408293 1.2806891e-38 324 227
0.0059262668 0.676 0.015408293 8.9346748e-39 325 227
0.0071325595 0.67799997 0.015453878 9.8609541e-39 326 227
0.0083213197 0.67799997 0.015453878 1.4746962e-38 327 227
0.009524107 0.67900002 0.015476674 1.2903415e-38 328 227
0.010714619 0.67900002 0.015476674 7.833016e-39 329 227
0.011905133 0.67900002 0.015476674 9.749691e-39 330 227
0.013114933 0.68000001 0.015499466 1.2331167e-38 331 227
0.01434928 0.68199998 0.015545053 1.4373514e-38 332 227
0.015545053 0.68199998 0.015545053 1.4189122e-38 333 227
0.016765373 0.68300003 0.015567848 1.0041413e-38 334 227
0.017962901 0.68300003 0.015567848 1.0502393e-38 335 227
0.019160427 0.68300003 0.015567848 1.1055923e-38 336 227
0.020506985 0.68800002 0.015681813 1.0963368e-38 337 227
0.021713281 0.68800002 0.015681813 1.1331784e-38 338 227
0.022919573 0.68800002 0.015681813 1.3821066e-38 339 227
-0.037503798 0.69 0.014517599 1.0971653e-38 289 228
-0.0361888 0.68800002 0.014475521 9.4003571e-39 290 228
-0.03498251 0.68800002 0.014475521 6.2657071e-39 291 228
-0.033579841 0.68400002 0.01439136 7.6443255e-39 292 228
-0.032333218 0.68300003 0.014370319 1.0778976e-38 293 228
-0.031090107 0.68199998 0.01434928 1.1247163e-38 294 228
-0.029894331 0.68199998 0.01434928 9.1266639e-39 295 228
-0.028614398 0.68000001 0.014307199 6.6337876e-39 296 228
-0.027381808 0.67900002 0.01428616 4.4210939e-39 297 228
-0.026152719 0.67799997 0.014265119 5.7039167e-39 298 228
-0.024963958 0.67799997 0.014265119 5.7039167e-39 299 228
-0.023705067 0.676 0.014223038 5.3354901e-39 300 228
-0.022519812 0.676 0.014223038 5.0589033e-39 301 228
-0.021397678 0.67799997 0.014265119 5.2400603e-39 302 228
-0.020149305 0.676 0.014223038 5.147506e-39 303 228
-0.018964052 0.676 0.014223038 6.0730748e-39 304 228
-0.017778801 0.676 0.014223038 8.3783243e-39 305 228
-0.016593546 0.676 0.014223038 1.1795671e-38 306 228
-0.015408293 0.676 0.014223038 1.3547029e-38 307 228
-0.014223038 0.676 0.014223038 1.2907388e-38 308 228
-0.0130185 0.67500001 0.014202001 1.097128e-38 309 228
-0.011835 0.67500001 0.014202001 9.6765755e-39 310 228
-0.0106515 0.67500001 0.014202001 1.0045358e-38 311 228
-0.0094679995 0.67500001 0.014202001 1.0416304e-38 312 228
-0.0082844999 0.67500001 0.014202001 1.2536805e-38 313 228
-0.0071010003 0.67500001 0.014202001 1.318253e-38 314 228
-0.0059174998 0.67500001 0.014202001 1.2352768e-38 315 228
-0.0047269869 0.67400002 0.01418096 1.1981822e-38 316 228
-0.00354524 0.67400002 0.01418096 1.1612681e-38 317 228
-0.0023669999 0.67500001 0.014202001 1.1702361e-38 318 228
-0.0011834999 0.67500001 0.014202001 1.2162981e-38 319 228
0 0.67500001 0.014202001 1.2351693e-38 320 228
0.0011834999 0.67500001 0.014202001 1.3458041e-38 321 228
0.0023705065 0.676 0.014223038 1.4103408e-38 322 228
0.0035557596 0.676 0.014223038 1.4195603e-38 323 228
0.0047410131 0.676 0.014223038 1.35477e-38 324 228
0.0059437994 0.67799997 0.014265119 9.6754838e-39 325 228
0.0071325595 0.67799997 0.014265119 9.4918087e-39 326 228
0.0083213197 0.67799997 0.014265119 1.4470733e-38 327 228
0.009524107 0.67900002 0.01428616 1.2719738e-38 328 228
0.0107304 0.68000001 0.014307199 7.4645866e-39 329 228
0.011922667 0.68000001 0.014307199 9.9394759e-39 330 228
0.013153506 0.68199998 0.01434928 1.2889377e-38 331 228
0.01434928 0.68199998 0.01434928 1.3635595e-38 332 228
0.015545053 0.68199998 0.01434928 1.289803e-38 333 228
0.016789921 0.68400002 0.01439136 1.0314404e-38 334 228
0.0179892 0.68400002 0.01439136 1.1421112e-38 335 228
0.01918848 0.68400002 0.01439136 1.1793485e-38 336 228
0.020477179 0.68699998 0.014454478 1.2069712e-38 337 228
0.021713281 0.68800002 0.014475521 1.1888201e-38 338 228
0.022919573 0.68800002 0.014475521 1.2809798e-38 339 228
-0.037503798 0.69 0.0133078 1.0602513e-38 289 229
-0.0361888 0.68800002 0.013269227 9.8595472e-39 290 229
-0.03498251 0.68800002 0.013269227 7.646492e-39 291 229
-0.033727121 0.68699998 0.013249939 8.6592033e-39 292 229
-0.032333218 0.68300003 0.013172794 1.1516908e-38 293 229
-0.031090107 0.68199998 0.013153506 1.0970221e-38 294 229
-0.029894331 0.68199998 0.013153506 8.1125162e-39 295 229
-0.028614398 0.68000001 0.013114933 5.7100362e-39 296 229
-0.027381808 0.67900002 0.013095647 4.60369e-39 297 229
-0.026191294 0.67900002 0.013095647 5.4276858e-39 298 229
-0.024963958 0.67799997 0.013076359 5.4276858e-39 299 229
-0.023775198 0.67799997 0.013076359 5.4276858e-39 300 229
-0.022586439 0.67799997 0.013076359 5.4276858e-39 301 229
-0.021397678 0.67799997 0.013076359 5.4240928e-39 302 229
-0.020208918 0.67799997 0.013076359 6.0694609e-39 303 229
-0.019020159 0.67799997 0.013076359 9.3982089e-39 304 229
-0.017778801 0.676 0.013037786 1.2717252e-38 305 229
-0.016593546 0.676 0.013037786 1.4103057e-38 306 229
-0.015408293 0.676 0.013037786 1.3457688e-38 307 229
-0.014223038 0.676 0.013037786 1.0787968e-38 308 229
-0.013037786 0.676 0.013037786 8.0217387e-39 309 229
-0.011852534 0.676 0.013037786 8.2950858e-39 310 229
-0.01066728 0.676 0.013037786 1.2351693e-38 311 229
-0.0094820261 0.676 0.013037786 1.3553108e-38 312 229
-0.0082967728 0.676 0.013037786 1.2815541e-38 313 229
-0.0071115191 0.676 0.013037786 1.1524787e-38 314 229
-0.0059174998 0.67500001 0.0130185 9.403929e-39 315 229
-0.0047269869 0.67400002 0.012999214 8.8410344e-39 316 229
-0.00354524 0.67400002 0.012999214 6.9049276e-39 317 229
-0.0023669999 0.67500001 0.0130185 7.3594402e-39 318 229
-0.0011834999 0.67500001 0.0130185 8.3735921e-39 319 229
0 0.67500001 0.0130185 9.3027581e-39 320 229
0.0011852533 0.676 0.013037786 1.2529605e-38 321 229
0.0023705065 0.676 0.013037786 1.3735703e-38 322 229
0.0035557596 0.676 0.013037786 1.4104487e-38 323 229
0.0047550397 0.67799997 0.013076359 1.3825379e-38 324 229
0.0059437994 0.67799997 0.013076359 9.8609667e-39 325 229
0.0071325595 0.67799997 0.013076359 9.3085118e-39 326 229
0.0083213197 0.67799997 0.013076359 1.4103045e-38 327 229
0.009524107 0.67900002 0.013095647 1.2720106e-38 328 229
0.0107304 0.68000001 0.013114933 7.6493478e-39 329 229
0.011922667 0.68000001 0.013114933 1.0404783e-38 330 229
0.013153506 0.68199998 0.013153506 1.381638e-38 331 229
0.01434928 0.68199998 0.013153506 1.2806188e-38 332 229
0.015545053 0.68199998 0.013153506 1.0777884e-38 333 229
0.016789921 0.68400002 0.01319208 1.0959403e-38 334 229
0.018041799 0.68599999 0.013230653 1.3172456e-38 335 229
0.019244585 0.68599999 0.013230653 1.3362603e-38 336 229
0.020477179 0.68699998 0.013249939 1.3086014e-38 337 229
0.021713281 0.68800002 0.013269227 1.2258779e-38 338 229
-0.03498251 0.68800002 0.012062933 7.3655961e-39 291 230
-0.033727121 0.68699998 0.012045399 1.0133257e-38 292 230
-0.032380559 0.68400002 0.0119928 1.2069364e-38 293 230
-0.031135695 0.68300003 0.011975267 9.6798377e-39 294 230
-0.029894331 0.68199998 0.011957732 7.0061644e-39 295 230
-0.028614398 0.68000001 0.011922667 4.7862862e-39 296 230
-0.027422134 0.68000001 0.011922667 4.6940906e-39 297 230
-0.026191294 0.67900002 0.011905133 5.5198856e-39 298 230
-0.024963958 0.67799997 0.011887599 5.4276886e-39 299 230
-0.023775198 0.67799997 0.011887599 5.5184395e-39 300 230
-0.022586439 0.67799997 0.011887599 5.2414938e-39 301 230
-0.021429239 0.67900002 0.011905133 7.4538288e-39 302 230
-0.020208918 0.67799997 0.011887599 1.0495926e-38 303 230
-0.019020159 0.67799997 0.011887599 1.1522659e-38 304 230
-0.0178314 0.67799997 0.011887599 1.3274376e-38 305 230
-0.016642639 0.67799997 0.011887599 1.3276891e-38 306 230
-0.015453878 0.67799997 0.011887599 1.1525533e-38 307 230
-0.014223038 0.676 0.011852534 7.8344747e-39 308 230
-0.013037786 0.676 0.011852534 8.941181e-39 309 230
-0.011852534 0.676 0.011852534 1.1706327e-38 310 230
-0.01066728 0.676 0.011852534 1.3457685e-38 311 230
-0.0094820261 0.676 0.011852534 1.2907388e-38 312 230
-0.0082967728 0.676 0.011852534 8.9429761e-39 313 230
-0.0071115191 0.676 0.011852534 8.4888167e-39 314 230
-0.0059174998 0.67500001 0.011835 9.4107716e-39 315 230
-0.0047339997 0.67500001 0.011835 1.0868262e-38 316 230
-0.0035505001 0.67500001 0.011835 7.8258077e-39 317 230
-0.0023669999 0.67500001 0.011835 7.9086679e-39 318 230
-0.0011834999 0.67500001 0.011835 8.5540373e-39 319 230
0 0.676 0.011852534 9.6549955e-39 320 230
0.0011852533 0.676 0.011852534 1.3435016e-38 321 230
0.0023705065 0.676 0.011852534 1.3549871e-38 322 230
0.0035662798 0.67799997 0.011887599 1.419524e-38 323 230
0.0047550397 0.67799997 0.011887599 1.3826824e-38 324 230
0.0059437994 0.67799997 0.011887599 9.7702158e-39 325 230
0.0071430802 0.67900002 0.011905133 9.2159631e-39 326 230
0.0083335936 0.67900002 0.011905133 1.4010495e-38 327 230
0.0095381327 0.68000001 0.011922667 1.2813753e-38 328 230
0.0107304 0.68000001 0.011922667 1.0047526e-38 329 230
0.011922667 0.68000001 0.011922667 1.1333946e-38 330 230
0.013153506 0.68199998 0.011957732 1.2532489e-38 331 230
0.01434928 0.68199998 0.011957732 1.0964074e-38 332 230
0.015567848 0.68300003 0.011975267 1.0410901e-38 333 230
0.016789921 0.68400002 0.0119928 1.2347009e-38 334 230
0.018041799 0.68599999 0.012027865 1.2900183e-38 335 230
0.019244585 0.68599999 0.012027865 1.317821e-38 336 230
0.020506985 0.68800002 0.012062933 1.2901983e-38 337 230
0.021713281 0.68800002 0.012062933 1.2259498e-38 338 230
-0.03498251 0.68800002 0.010856641 8.0055663e-39 291 231
-0.033727121 0.68699998 0.010840859 1.0963024e-38 292 231
-0.032380559 0.68400002 0.01079352 1.2345958e-38 293 231
-0.031135695 0.68300003 0.01077774 8.3887457e-39 294 231
-0.029938167 0.68300003 0.01077774 6.2682463e-39 295 231
-0.02869856 0.68199998 0.010761959 4.5093392e-39 296 231
-0.027422134 0.68000001 0.0107304 4.6018936e-39 297 231
-0.026191294 0.67900002 0.010714619 5.1518248e-39 298 231
-0.025000781 0.67900002 0.010714619 5.0596291e-39 299 231
-0.023775198 0.67799997 0.010698839 5.1507303e-39 300 231
-0.022586439 0.67799997 0.010698839 5.7960998e-39 301 231
-0.021429239 0.67900002 0.010714619 1.0218603e-38 302 231
-0.020238725 0.67900002 0.010714619 1.4367047e-38 303 231
-0.019020159 0.67799997 0.010698839 1.2999581e-38 304 231
-0.0178314 0.67799997 0.010698839 1.3091777e-38 305 231
-0.016642639 0.67799997 0.010698839 1.198795e-38 306 231
-0.015453878 0.67799997 0.010698839 1.0052201e-38 307 231
-0.014265119 0.67799997 0.010698839 7.6490101e-39 308 231
-0.013037786 0.676 0.01066728 1.0230488e-38 309 231
-0.011852534 0.676 0.01066728 1.3551688e-38 310 231
-0.01066728 0.676 0.01066728 1.309071e-38 311 231
-0.0094820261 0.676 0.01066728 1.0419901e-38 312 231
-0.0082967728 0.676 0.01066728 7.4696411e-39 313 231
-0.0071115191 0.676 0.01066728 8.9476424e-39 314 231
-0.0059262668 0.676 0.01066728 1.1805707e-38 315 231
-0.0047339997 0.67500001 0.0106515 1.2805832e-38 316 231
-0.0035505001 0.67500001 0.0106515 8.6573887e-39 317 231
-0.0023705065 0.676 0.01066728 8.6458826e-39 318 231
-0.0011852533 0.676 0.01066728 9.3834476e-39 319 231
0 0.676 0.01066728 1.0014417e-38 320 231
0.0011852533 0.676 0.01066728 1.2872841e-38 321 231
0.0023705065 0.676 0.01066728 1.3456226e-38 322 231
0.0035662798 0.67799997 0.010698839 1.4285987e-38 323 231
0.0047550397 0.67799997 0.010698839 1.3459489e-38 324 231
0.0059525664 0.67900002 0.010714619 8.7575114e-39 325 231
0.0071430802 0.67900002 0.010714619 8.2947326e-39 326 231
0.0083335936 0.67900002 0.010714619 1.3642079e-38 327 231
0.0095381327 0.68000001 0.0107304 1.3642435e-38 328 231
0.0107304 0.68000001 0.0107304 1.2443892e-38 329 231
0.011922667 0.68000001 0.0107304 1.22577e-38 330 231
0.013153506 0.68199998 0.010761959 1.0690733e-38 331 231
0.01434928 0.68199998 0.010761959 1.087008e-38 332 231
0.015567848 0.68300003 0.01077774 1.2160818e-38 333 231
0.016839013 0.68599999 0.010825079 1.317821e-38 334 231
0.018041799 0.68599999 0.010825079 1.2625038e-38 335 231
0.019272638 0.68699998 0.010840859 1.2441725e-38 336 231
0.020506985 0.68800002 0.010856641 1.2441725e-38 337 231
0.021713281 0.68800002 0.010856641 1.2074388e-38 338 231
-0.033776212 0.68800002 0.0096503468 1.1332879e-38 292 232
-0.032522578 0.68699998 0.0096363192 1.2531421e-38 293 232
-0.03118128 0.68400002 0.0095942402 6.7281454e-39 294 232
-0.029938167 0.68300003 0.0095802136 4.9767872e-39 295 232
-0.02869856 0.68199998 0.009566186 4.4164247e-39 296 232
-0.027422134 0.68000001 0.0095381327 4.6011747e-39 297 232
-0.026229866 0.68000001 0.0095381327 5.1521807e-39 298 232
-0.025000781 0.67900002 0.009524107 4.6908438e-39 299 232
-0.023810266 0.67900002 0.009524107 5.7939319e-39 300 232
-0.022619752 0.67900002 0.009524107 1.0403713e-38 301 232
-0.0214608 0.68000001 0.0095381327 1.2070065e-38 302 232
-0.020238725 0.67900002 0.009524107 1.4375316e-38 303 232
-0.019048214 0.67900002 0.009524107 1.3184697e-38 304 232
-0.0178314 0.67799997 0.0095100794 1.2815916e-38 305 232
-0.016642639 0.67799997 0.0095100794 8.9469418e-39 306 232
-0.015453878 0.67799997 0.0095100794 8.2093767e-39 307 232
-0.014265119 0.67799997 0.0095100794 1.0688229e-38 308 232
-0.013037786 0.676 0.0094820261 1.2624337e-38 309 232
-0.011852534 0.676 0.0094820261 1.2353864e-38 310 232
-0.01066728 0.676 0.0094820261 7.6515282e-39 311 232
-0.0095100794 0.67799997 0.0095100794 5.2619878e-39 312 232
-0.0083213197 0.67799997 0.0095100794 9.3185956e-39 313 232
-0.0071115191 0.676 0.0094820261 1.2809435e-38 314 232
-0.0059262668 0.676 0.0094820261 1.4745543e-38 315 232
-0.0047410131 0.676 0.0094820261 1.2534643e-38 316 232
-0.0035557596 0.676 0.0094820261 8.0170569e-39 317 232
-0.0023705065 0.676 0.0094820261 8.1866995e-39 318 232
-0.0011852533 0.676 0.0094820261 8.8320675e-39 319 232
0 0.676 0.0094820261 1.0749096e-38 320 232
0.0011852533 0.676 0.0094820261 1.3699356e-38 321 232
0.0023775198 0.67799997 0.0095100794 1.4007232e-38 322 232
0.0035662798 0.67799997 0.0095100794 1.4836994e-38 323 232
0.0047550397 0.67799997 0.0095100794 1.3091414e-38 324 232
0.0059525664 0.67900002 0.009524107 7.1908934e-39 325 232
0.0071430802 0.67900002 0.009524107 6.9157512e-39 326 232
0.0083335936 0.67900002 0.009524107 1.2908467e-38 327 232
0.0095381327 0.68000001 0.0095381327 1.3364053e-38 328 232
0.010761959 0.68199998 0.009566186 1.1704173e-38 329 232
0.011957732 0.68199998 0.009566186 1.0045364e-38 330 232
0.013153506 0.68199998 0.009566186 9.4921898e-39 331 232
0.014370319 0.68300003 0.0095802136 1.1423253e-38 332 232
0.015567848 0.68300003 0.0095802136 1.2898383e-38 333 232
0.016839013 0.68599999 0.0096222926 1.2532842e-38 334 232
0.018068098 0.68699998 0.0096363192 1.2164418e-38 335 232
0.019272638 0.68699998 0.0096363192 1.2620355e-38 336 232
0.020506985 0.68800002 0.0096503468 1.0776443e-38 337 232
0.021776399 0.69 0.0096783992 1.0316906e-38 338 232
-0.033776212 0.68800002 0.0084440531 1.1519059e-38 292 233
-0.032522578 0.68699998 0.0084317802 1.1796006e-38 293 233
-0.03118128 0.68400002 0.0083949603 4.608006e-39 294 233
-0.029938167 0.68300003 0.0083826864 3.6860497e-39 295 233
-0.02869856 0.68199998 0.0083704125 5.5206045e-39 296 233
-0.027502786 0.68199998 0.0083704125 5.4284088e-39 297 233
-0.026229866 0.68000001 0.0083458666 5.2454441e-39 298 233
-0.025037598 0.68000001 0.0083458666 3.9547053e-39 299 233
-0.023810266 0.67900002 0.0083335936 6.8037637e-39 300 233
-0.022619752 0.67900002 0.0083335936 1.3718437e-38 301 233
-0.0214608 0.68000001 0.0083458666 1.2996697e-38 302 233
-0.020268533 0.68000001 0.0083458666 1.3826098e-38 303 233
-0.019048214 0.67900002 0.0083335936 1.3092148e-38 304 233
-0.017857701 0.67900002 0.0083335936 1.2446779e-38 305 233
-0.016667187 0.67900002 0.0083335936 7.7466007e-39 306 233
-0.015453878 0.67799997 0.0083213197 7.3778182e-39 307 233
-0.014265119 0.67799997 0.0083213197 1.1984356e-38 308 233
-0.013076359 0.67799997 0.0083213197 1.2260944e-38 309 233
-0.011852534 0.676 0.0082967728 1.0417756e-38 310 233
-0.01066728 0.676 0.0082967728 5.3469962e-39 311 233
-0.0095100794 0.67799997 0.0083213197 7.8172135e-39 312 233
-0.0083213197 0.67799997 0.0083213197 1.4639689e-38 313 233
-0.0071325595 0.67799997 0.0083213197 1.3366922e-38 314 233
-0.0059262668 0.676 0.0082967728 1.4104487e-38 315 233
-0.0047410131 0.676 0.0082967728 1.2444242e-38 316 233
-0.0035557596 0.676 0.0082967728 8.0188534e-39 317 233
-0.0023775198 0.67799997 0.0083213197 8.4618375e-39 318 233
-0.0011887599 0.67799997 0.0083213197 8.6465889e-39 319 233
0 0.67799997 0.0083213197 1.1029627e-38 320 233
0.0011887599 0.67799997 0.0083213197 1.3703659e-38 321 233
0.0023775198 0.67799997 0.0083213197 1.4468934e-38 322 233
0.0035662798 0.67799997 0.0083213197 1.4376738e-38 323 233
0.0047620535 0.67900002 0.0083335936 1.1618094e-38 324 233
0.0059525664 0.67900002 0.0083335936 5.9945208e-39 325 233
0.0071430802 0.67900002 0.0083335936 7.6490157e-39 326 233
0.0083335936 0.67900002 0.0083335936 1.2074047e-38 327 233
0.009566186 0.68199998 0.0083704125 1.1983637e-38 328 233
0.010761959 0.68199998 0.0083704125 1.023192e-38 329 233
0.011957732 0.68199998 0.0083704125 1.0689285e-38 330 233
0.013172794 0.68300003 0.0083826864 1.1334655e-38 331 233
0.014370319 0.68300003 0.0083826864 1.2162251e-38 332 233
0.01559064 0.68400002 0.0083949603 1.2991651e-38 333 233
0.01686356 0.68699998 0.0084317802 1.2073289e-38 334 233
0.018068098 0.68699998 0.0084317802 1.1151693e-38 335 233
0.019300694 0.68800002 0.0084440531 1.2162613e-38 336 233
0.020506985 0.68800002 0.0084440531 9.7658872e-39 337 233
0.021776399 0.69 0.0084686 9.6603835e-39 338 233
-0.033776212 0.68800002 0.0072377604 1.0695066e-38 292 234
-0.032522578 0.68699998 0.0072272392 7.2838261e-39 293 234
-0.031272452 0.68599999 0.0072167199 2.6701028e-39 294 234
-0.029982001 0.68400002 0.0071956799 3.4076678e-39 295 234
-0.028740639 0.68300003 0.0071851597 5.6138749e-39 296 234
-0.027502786 0.68199998 0.00717464 5.7060705e-39 297 234
-0.026229866 0.68000001 0.0071535995 5.3365593e-39 298 234
-0.025037598 0.68000001 0.0071535995 3.8617894e-39 299 234
-0.023845334 0.68000001 0.0071535995 7.5445741e-39 300 234
-0.022653066 0.68000001 0.0071535995 1.4828029e-38 301 234
-0.0214608 0.68000001 0.0071535995 1.3091058e-38 302 234
-0.020268533 0.68000001 0.0071535995 1.3275448e-38 303 234
-0.019076265 0.68000001 0.0071535995 1.2079795e-38 304 234
-0.017857701 0.67900002 0.0071430802 1.0789057e-38 305 234
-0.016667187 0.67900002 0.0071430802 8.1114204e-39 306 234
-0.015453878 0.67799997 0.0071325595 9.4021592e-39 307 234
-0.014265119 0.67799997 0.0071325595 1.2538608e-38 308 234
-0.013076359 0.67799997 0.0071325595 1.0325555e-38 309 234
-0.011887599 0.67799997 0.0071325595 5.62286e-39 310 234
-0.010698839 0.67799997 0.0071325595 4.2399256e-39 311 234
-0.0095100794 0.67799997 0.0071325595 1.039041e-38 312 234
-0.0083213197 0.67799997 0.0071325595 1.5829952e-38 313 234
-0.0071325595 0.67799997 0.0071325595 1.3090333e-38 314 234
-0.0059437994 0.67799997 0.0071325595 1.3920095e-38 315 234
-0.0047550397 0.67799997 0.0071325595 1.2536438e-38 316 234
-0.0035662798 0.67799997 0.0071325595 8.4798301e-39 317 234
-0.0023775198 0.67799997 0.0071325595 8.2767119e-39 318 234
-0.0011905134 0.67900002 0.0071430802 8.0923193e-39 319 234
0 0.67799997 0.0071325595 1.1405242e-38 320 234
0.0011887599 0.67799997 0.0071325595 1.4909035e-38 321 234
0.0023775198 0.67799997 0.0071325595 1.5114318e-38 322 234
0.0035662798 0.67799997 0.0071325595 1.317821e-38 323 234
0.0047690663 0.68000001 0.0071535995 9.1248492e-39 324 234
0.0059613334 0.68000001 0.0071535995 5.6210566e-39 325 234
0.0071535995 0.68000001 0.0071535995 7.5521299e-39 326 234
0.0083458666 0.68000001 0.0071535995 1.0778976e-38 327 234
0.009566186 0.68199998 0.00717464 9.9571308e-39 328 234
0.01077774 0.68300003 0.0071851597 1.06025e-38 329 234
0.011975267 0.68300003 0.0071851597 1.2442091e-38 330 234
0.01319208 0.68400002 0.0071956799 1.2903069e-38 331 234
0.01439136 0.68400002 0.0071956799 1.2992025e-38 332 234
0.015659019 0.68699998 0.0072272392 1.289983e-38 333 234
0.01686356 0.68699998 0.0072272392 1.2719034e-38 334 234
0.018068098 0.68699998 0.0072272392 1.2257697e-38 335 234
0.019300694 0.68800002 0.0072377604 1.1704158e-38 336 234
0.020506985 0.68800002 0.0072377604 9.030483e-39 337 234
0.021776399 0.69 0.0072587994 1.0213557e-38 338 234
0.023019511 0.69099998 0.0072693196 1.4546753e-38 339 234
-0.031318039 0.68699998 0.0060226996 3.4040538e-39 294 235
-0.029982001 0.68400002 0.0059964 4.6947927e-39 295 235
-0.028740639 0.68300003 0.0059876335 7.9158762e-39 296 235
-0.027502786 0.68199998 0.005978866 8.3768557e-39 297 235
-0.026307013 0.68199998 0.005978866 6.5347368e-39 298 235
-0.025037598 0.68000001 0.0059613334 4.0454548e-39 299 235
-0.023845334 0.68000001 0.0059613334 8.3754068e-39 300 235
-0.022653066 0.68000001 0.0059613334 1.547447e-38 301 235
-0.021523919 0.68199998 0.005978866 1.3551683e-38 302 235
-0.020328145 0.68199998 0.005978866 1.336729e-38 303 235
-0.019076265 0.68000001 0.0059613334 1.1156767e-38 304 235
-0.017883999 0.68000001 0.0059613334 9.0362661e-39 305 235
-0.016667187 0.67900002 0.0059525664 8.2972508e-39 306 235
-0.015476674 0.67900002 0.0059525664 1.0049326e-38 307 235
-0.01428616 0.67900002 0.0059525664 1.1802843e-38 308 235
-0.013076359 0.67799997 0.0059437994 8.4837986e-39 309 235
-0.011887599 0.67799997 0.0059437994 5.0624976e-39 310 235
-0.010698839 0.67799997 0.0059437994 5.4312787e-39 311 235
-0.0095100794 0.67799997 0.0059437994 1.0573359e-38 312 235
-0.0083213197 0.67799997 0.0059437994 1.582851e-38 313 235
-0.0071325595 0.67799997 0.0059437994 1.2814467e-38 314 235
-0.0059437994 0.67799997 0.0059437994 1.3736783e-38 315 235
-0.0047550397 0.67799997 0.0059437994 1.2261646e-38 316 235
-0.0035715401 0.67900002 0.0059525664 8.2972339e-39 317 235
-0.0023810267 0.67900002 0.0059525664 7.7289261e-39 318 235
-0.0011905134 0.67900002 0.0059525664 8.005513e-39 319 235
0 0.67900002 0.0059525664 1.2616736e-38 320 235
0.0011905134 0.67900002 0.0059525664 1.4184422e-38 321 235
0.0023775198 0.67799997 0.0059437994 1.3457319e-38 322 235
0.0035662798 0.67799997 0.0059437994 1.0322668e-38 323 235
0.0047690663 0.68000001 0.0059613334 8.0999269e-39 324 235
0.0059613334 0.68000001 0.0059613334 7.1783307e-39 325 235
0.00717464 0.68199998 0.005978866 9.2944918e-39 326 235
0.0083704125 0.68199998 0.005978866 1.4273415e-38 327 235
0.0095802136 0.68300003 0.0059876335 1.1795623e-38 328 235
0.01077774 0.68300003 0.0059876335 1.1335005e-38 329 235
0.0119928 0.68400002 0.0059964 1.1614126e-38 330 235
0.01319208 0.68400002 0.0059964 1.2812669e-38 331 235
0.01439136 0.68400002 0.0059964 1.290163e-38 332 235
0.015636226 0.68599999 0.0060139326 1.2717239e-38 333 235
0.016839013 0.68599999 0.0060139326 1.2719401e-38 334 235
0.018068098 0.68699998 0.0060226996 1.1889639e-38 335 235
0.019272638 0.68699998 0.0060226996 1.114919e-38 336 235
0.020506985 0.68800002 0.0060314666 9.213082e-39 337 235
0.021713281 0.68800002 0.0060314666 9.7550972e-39 338 235
0.022986198 0.69 0.0060489997 1.3719509e-38 339 235
-0.031318039 0.68699998 0.0048181596 4.0447359e-39 294 236
-0.030069664 0.68599999 0.0048111463 5.8886485e-39 295 236
-0.02878272 0.68400002 0.0047971201 1.0869005e-38 296 236
-0.027543113 0.68300003 0.0047901068 1.1329983e-38 297 236
-0.026345588 0.68300003 0.0047901068 9.0247194e-39 298 236
-0.025111238 0.68199998 0.004783093 4.6915248e-39 299 236
-0.023845334 0.68000001 0.0047690663 8.4708268e-39 300 236
-0.022653066 0.68000001 0.0047690663 1.5293302e-38 301 236
-0.021523919 0.68199998 0.004783093 1.3460209e-38 302 236
-0.020328145 0.68199998 0.004783093 1.3460209e-38 303 236
-0.019076265 0.68000001 0.0047690663 9.8671128e-39 304 236
-0.017883999 0.68000001 0.0047690663 5.9952551e-39 305 236
-0.016667187 0.67900002 0.0047620535 8.3890961e-39 306 236
-0.015476674 0.67900002 0.0047620535 1.1523747e-38 307 236
-0.01428616 0.67900002 0.0047620535 1.1248235e-38 308 236
-0.013076359 0.67799997 0.0047550397 6.8228466e-39 309 236
-0.011887599 0.67799997 0.0047550397 5.7013832e-39 310 236
-0.010698839 0.67799997 0.0047550397 6.992122e-39 311 236
-0.0095100794 0.67799997 0.0047550397 1.0940694e-38 312 236
-0.0083335936 0.67900002 0.0047620535 1.6011452e-38 313 236
-0.0071430802 0.67900002 0.0047620535 1.2722627e-38 314 236
-0.0059525664 0.67900002 0.0047620535 1.3644585e-38 315 236
-0.0047620535 0.67900002 0.0047620535 1.2446395e-38 316 236
-0.0035715401 0.67900002 0.0047620535 9.1273519e-39 317 236
-0.0023810267 0.67900002 0.0047620535 8.5640972e-39 318 236
-0.0011905134 0.67900002 0.0047620535 1.0684597e-38 319 236
0 0.67900002 0.0047620535 1.4008313e-38 320 236
0.0011905134 0.67900002 0.0047620535 1.3916116e-38 321 236
0.0023775198 0.67799997 0.0047550397 1.115456e-38 322 236
0.0035662798 0.67799997 0.0047550397 7.0979523e-39 323 236
0.0047690663 0.68000001 0.0047690663 8.0937682e-39 324 236
0.0059613334 0.68000001 0.0047690663 8.369995e-39 325 236
0.00717464 0.68199998 0.004783093 9.6646995e-39 326 236
0.0083704125 0.68199998 0.004783093 1.6118394e-38 327 236
0.0095802136 0.68300003 0.0047901068 1.2902331e-38 328 236
0.01079352 0.68400002 0.0047971201 9.3067013e-39 329 236
0.012027865 0.68599999 0.0048111463 1.0504887e-38 330 236
0.013230653 0.68599999 0.0048111463 1.3270757e-38 331 236
0.01443344 0.68599999 0.0048111463 1.2809788e-38 332 236
0.015636226 0.68599999 0.0048111463 1.2625038e-38 333 236
0.016839013 0.68599999 0.0048111463 1.2812672e-38 334 236
0.018068098 0.68699998 0.0048181596 1.1614128e-38 335 236
0.019272638 0.68699998 0.0048181596 1.0409825e-38 336 236
0.020506985 0.68800002 0.0048251734 9.2112813e-39 337 236
0.021713281 0.68800002 0.0048251734 9.6629016e-39 338 236
0.022986198 0.69 0.0048391996 1.3627314e-38 339 236
-0.030113498 0.68699998 0.0036136196 9.1108236e-39 295 237
-0.02886688 0.68599999 0.00360836 1.2809788e-38 296 237
-0.027583439 0.68400002 0.00359784 1.3086014e-38 297 237
-0.026345588 0.68300003 0.0035925799 1.0779313e-38 298 237
-0.02514806 0.68300003 0.0035925799 4.0490323e-39 299 237
-0.023950534 0.68300003 0.0035925799 6.9070968e-39 300 237
-0.022719691 0.68199998 0.00358732 1.4374584e-38 301 237
-0.021523919 0.68199998 0.00358732 1.3459853e-38 302 237
-0.020328145 0.68199998 0.00358732 1.3183625e-38 303 237
-0.019132372 0.68199998 0.00358732 8.3005032e-39 304 237
-0.017883999 0.68000001 0.0035767998 3.6903629e-39 305 237
-0.016691733 0.68000001 0.0035767998 9.307458e-39 306 237
-0.015476674 0.67900002 0.0035715401 1.2534305e-38 307 237
-0.01428616 0.67900002 0.0035715401 1.0142608e-38 308 237
-0.013095647 0.67900002 0.0035715401 5.7175766e-39 309 237
-0.011905133 0.67900002 0.0035715401 6.8026889e-39 310 237
-0.010714619 0.67900002 0.0035715401 8.0012321e-39 311 237
-0.009524107 0.67900002 0.0035715401 1.0847778e-38 312 237
-0.0083335936 0.67900002 0.0035715401 1.5918538e-38 313 237
-0.0071430802 0.67900002 0.0035715401 1.2813025e-38 314 237
-0.0059525664 0.67900002 0.0035715401 1.3827177e-38 315 237
-0.0047620535 0.67900002 0.0035715401 1.2999212e-38 316 237
-0.0035715401 0.67900002 0.0035715401 1.1708474e-38 317 237
-0.0023810267 0.67900002 0.0035715401 1.2255529e-38 318 237
-0.0011905134 0.67900002 0.0035715401 1.1979301e-38 319 237
0 0.67900002 0.0035715401 1.2074018e-38 320 237
0.0011905134 0.67900002 0.0035715401 1.1889627e-38 321 237
0.0023810267 0.67900002 0.0035715401 1.1518317e-38 322 237
0.0035715401 0.67900002 0.0035715401 1.1149535e-38 323 237
0.0047690663 0.68000001 0.0035767998 1.1879171e-38 324 237
0.0059613334 0.68000001 0.0035767998 9.7586719e-39 325 237
0.00717464 0.68199998 0.00358732 9.3906139e-39 326 237
0.0083826864 0.68300003 0.0035925799 1.5659918e-38 327 237
0.0095942402 0.68400002 0.00359784 1.2630047e-38 328 237
0.010825079 0.68599999 0.00360836 7.9277101e-39 329 237
0.012027865 0.68599999 0.00360836 1.1143404e-38 330 237
0.013230653 0.68599999 0.00360836 1.4554644e-38 331 237
0.01443344 0.68599999 0.00360836 1.2807986e-38 332 237
0.015659019 0.68699998 0.0036136196 1.2347009e-38 333 237
0.01686356 0.68699998 0.0036136196 1.3181456e-38 334 237
0.018068098 0.68699998 0.0036136196 1.1245706e-38 335 237
0.019272638 0.68699998 0.0036136196 1.0407306e-38 336 237
0.020506985 0.68800002 0.0036188802 9.6693826e-39 337 237
0.021713281 0.68800002 0.0036188802 1.0305753e-38 338 237
0.023019511 0.69099998 0.0036346598 1.4454558e-38 339 237
-0.030113498 0.68699998 0.0024090798 1.1053767e-38 295 238
-0.02886688 0.68599999 0.0024055731 1.3825745e-38 296 238
-0.027583439 0.68400002 0.0023985601 1.3825745e-38 297 238
-0.026345588 0.68300003 0.0023950534 1.2350582e-38 298 238
-0.02514806 0.68300003 0.0023950534 6.2656707e-39 299 238
-0.023950534 0.68300003 0.0023950534 6.9935317e-39 300 238
-0.022719691 0.68199998 0.0023915465 1.4553213e-38 301 238
-0.021523919 0.68199998 0.0023915465 1.3459853e-38 302 238
