# .PCD v.7 - Point Cloud Data file format
FIELDS x y z rgb imX imY
SIZE 4 4 4 4 4 4
TYPE F F F F F F
COUNT 1 1 1 1 1 1
WIDTH 841
HEIGHT 1
VIEWPOINT 0 0 0 1 0 0 0
POINTS 841
DATA ascii
-0.010407786 0.74199998 -0.018213626 1.6817447e-38 312 254
-0.009106813 0.74199998 -0.018213626 1.6909642e-38 313 254
-0.0078058392 0.74199998 -0.018213626 1.6819598e-38 314 254
-0.0065048663 0.74199998 -0.018213626 1.6911795e-38 315 254
-0.0052038929 0.74199998 -0.018213626 1.6912514e-38 316 254
-0.0038976599 0.741 -0.018189078 1.7096905e-38 317 254
-0.0025984398 0.741 -0.018189078 1.6913958e-38 318 254
-0.001315 0.75 -0.018409999 1.6821763e-38 319 254
0 0.74900001 -0.018385453 1.6820315e-38 320 254
0.0013132467 0.74900001 -0.018385453 1.6635922e-38 321 254
0.0026264933 0.74900001 -0.018385453 1.6817784e-38 322 254
0.0039292197 0.74699998 -0.018336359 1.7001816e-38 323 254
0.0052389596 0.74699998 -0.018336359 1.7000756e-38 324 254
0.0065486995 0.74699998 -0.018336359 1.6724529e-38 325 254
0.0077953199 0.741 -0.018189078 1.6726696e-38 326 254
0.0090945391 0.741 -0.018189078 1.6911088e-38 327 254
0.010365707 0.73900002 -0.018139986 1.6543008e-38 328 254
0.01166142 0.73900002 -0.018139986 1.608203e-38 329 254
0.012957133 0.73900002 -0.018139986 1.6172415e-38 330 254
0.014252847 0.73900002 -0.018139986 1.6172415e-38 331 254
0.015653761 0.74400002 -0.01826272 1.6170979e-38 332 254
0.016958239 0.74400002 -0.01826272 1.5710002e-38 333 254
0.01826272 0.74400002 -0.01826272 1.6080232e-38 334 254
0.019567199 0.74400002 -0.01826272 1.5988036e-38 335 254
0.02087168 0.74400002 -0.01826272 1.5343761e-38 336 254
0.022235774 0.74599999 -0.018311813 1.644975e-38 337 254
0.023575317 0.74699998 -0.018336359 1.5358894e-38 338 254
0.024885058 0.74699998 -0.018336359 1.6926578e-38 339 254
-0.034007654 0.74599999 -0.019619798 1.6477099e-38 294 255
-0.032699663 0.74599999 -0.019619798 1.3158057e-38 295 255
-0.031307522 0.74400002 -0.019567199 1.6172443e-38 296 255
-0.030003037 0.74400002 -0.019567199 1.6817812e-38 297 255
-0.028621411 0.74199998 -0.0195146 1.6729201e-38 298 255
-0.027320439 0.74199998 -0.0195146 1.6267863e-38 299 255
-0.026019465 0.74199998 -0.0195146 1.663305e-38 300 255
-0.024718491 0.74199998 -0.0195146 1.6725245e-38 301 255
-0.017003827 0.74599999 -0.019619798 1.7187659e-38 307 255
-0.015695838 0.74599999 -0.019619798 1.7369896e-38 308 255
-0.014387853 0.74599999 -0.019619798 1.7093308e-38 309 255
-0.013079867 0.74599999 -0.019619798 1.7182989e-38 310 255
-0.011740319 0.74400002 -0.019567199 1.6998238e-38 311 255
-0.010393759 0.741 -0.019488299 1.6908195e-38 312 255
-0.0090945391 0.741 -0.019488299 1.6815998e-38 313 255
-0.0077953199 0.741 -0.019488299 1.6818869e-38 314 255
-0.0064522666 0.736 -0.019356798 1.6911065e-38 315 255
-0.0051477868 0.73400003 -0.019304199 1.7003257e-38 316 255
-0.0038608401 0.73400003 -0.019304199 1.6911062e-38 317 255
-0.0025738934 0.73400003 -0.019304199 1.6910349e-38 318 255
-0.0012957134 0.73900002 -0.0194357 1.6817794e-38 319 255
0 0.74699998 -0.019646099 1.7001465e-38 320 255
0.0012992199 0.741 -0.019488299 1.6817075e-38 321 255
0.0025914267 0.73900002 -0.0194357 1.6907825e-38 322 255
0.00388714 0.73900002 -0.0194357 1.7000022e-38 323 255
0.0051968796 0.741 -0.019488299 1.6725955e-38 324 255
0.0064960998 0.741 -0.019488299 1.681815e-38 325 255
0.0077953199 0.741 -0.019488299 1.681815e-38 326 255
0.0090945391 0.741 -0.019488299 1.681815e-38 327 255
0.010365707 0.73900002 -0.0194357 1.6633403e-38 328 255
0.01166142 0.73900002 -0.0194357 1.6633403e-38 329 255
0.012957133 0.73900002 -0.0194357 1.6450088e-38 330 255
0.014252847 0.73900002 -0.0194357 1.6542284e-38 331 255
0.01559064 0.741 -0.019488299 1.6542289e-38 332 255
0.016889861 0.741 -0.019488299 1.6910712e-38 333 255
0.018189078 0.741 -0.019488299 1.65441e-38 334 255
0.0195146 0.74199998 -0.0195146 1.6359708e-38 335 255
0.020815572 0.74199998 -0.0195146 1.6357187e-38 336 255
0.022176161 0.74400002 -0.019567199 1.5896211e-38 337 255
0.023543758 0.74599999 -0.019619798 1.5531027e-38 338 255
0.024851745 0.74599999 -0.019619798 1.5438831e-38 339 255
0.026159734 0.74599999 -0.019619798 1.5354214e-38 340 255
-0.033825304 0.74199998 -0.020815572 1.6001003e-38 294 256
-0.032524332 0.74199998 -0.020815572 1.4802459e-38 295 256
-0.031223357 0.74199998 -0.020815572 1.6726693e-38 296 256
-0.029922385 0.74199998 -0.020815572 1.6911444e-38 297 256
-0.028582839 0.741 -0.020787518 1.6819965e-38 298 256
-0.027283618 0.741 -0.020787518 1.6451182e-38 299 256
-0.025914267 0.73900002 -0.020731414 1.6818166e-38 300 256
-0.024618553 0.73900002 -0.020731414 1.654158e-38 301 256
-0.023417519 0.74199998 -0.020815572 1.6634132e-38 302 256
-0.011740319 0.74400002 -0.02087168 1.6998588e-38 311 256
-0.010393759 0.741 -0.020787518 1.6816351e-38 312 256
-0.0090945391 0.741 -0.020787518 1.6816351e-38 313 256
-0.0077953199 0.741 -0.020787518 1.6910343e-38 314 256
-0.006434733 0.73400003 -0.020591147 1.7279125e-38 315 256
-0.005140773 0.73299998 -0.020563092 1.7188362e-38 316 256
-0.0038555798 0.73299998 -0.020563092 1.6911415e-38 317 256
-0.0025738934 0.73400003 -0.020591147 1.7093295e-38 318 256
-0.0012869467 0.73400003 -0.020591147 1.7093295e-38 319 256
0 0.74699998 -0.020955838 1.6911062e-38 320 256
0.0012992199 0.741 -0.020787518 1.6634835e-38 321 256
0.0025914267 0.73900002 -0.020731414 1.6633036e-38 322 256
0.00388714 0.73900002 -0.020731414 1.6725233e-38 323 256
0.0051828534 0.73900002 -0.020731414 1.6542284e-38 324 256
0.0064785667 0.73900002 -0.020731414 1.6818869e-38 325 256
0.0077742799 0.73900002 -0.020731414 1.6820301e-38 326 256
0.0090699932 0.73900002 -0.020731414 1.6635551e-38 327 256
0.010365707 0.73900002 -0.020731414 1.6819217e-38 328 256
0.01166142 0.73900002 -0.020731414 1.6911412e-38 329 256
0.012957133 0.73900002 -0.020731414 1.6360396e-38 330 256
0.014252847 0.73900002 -0.020731414 1.6360396e-38 331 256
0.01559064 0.741 -0.020787518 1.626786e-38 332 256
0.016844273 0.73900002 -0.020731414 1.6360056e-38 333 256
0.018139986 0.73900002 -0.020731414 1.6358634e-38 334 256
0.019488299 0.741 -0.020787518 1.6358634e-38 335 256
0.020787518 0.741 -0.020787518 1.6267144e-38 336 256
0.022116546 0.74199998 -0.020815572 1.6267144e-38 337 256
0.023480639 0.74400002 -0.02087168 1.6084901e-38 338 256
0.024718491 0.74199998 -0.020815572 1.6084901e-38 339 256
0.026019465 0.74199998 -0.020815572 1.5717933e-38 340 256
0.027320439 0.74199998 -0.020815572 1.5994519e-38 341 256
-0.033779722 0.741 -0.02208674 1.6176043e-38 294 257
-0.032480497 0.741 -0.02208674 1.7005804e-38 295 257
-0.03118128 0.741 -0.02208674 1.6822484e-38 296 257
-0.029882059 0.741 -0.02208674 1.6545899e-38 297 257
-0.028505694 0.73900002 -0.022027127 1.6820318e-38 298 257
-0.027209979 0.73900002 -0.022027127 1.6451535e-38 299 257
-0.025879199 0.73799998 -0.021997318 1.6818516e-38 300 257
-0.024585238 0.73799998 -0.021997318 1.6542289e-38 301 257
-0.023322839 0.73900002 -0.022027127 1.6725245e-38 302 257
-0.022027127 0.73900002 -0.022027127 1.68178e-38 303 257
-0.01153518 0.73100001 -0.021788673 1.6908175e-38 311 257
-0.010323626 0.736 -0.021937706 1.6815982e-38 312 257
-0.0090331733 0.736 -0.021937706 1.7184406e-38 313 257
-0.0077427197 0.736 -0.021937706 1.6820665e-38 314 257
-0.006434733 0.73400003 -0.021878093 1.7005415e-38 315 257
-0.005140773 0.73299998 -0.021848286 1.7188372e-38 316 257
-0.0038555798 0.73299998 -0.021848286 1.6727752e-38 317 257
-0.0025703865 0.73299998 -0.021848286 1.6910699e-38 318 257
-0.0012851933 0.73299998 -0.021848286 1.709509e-38 319 257
0 0.73299998 -0.021848286 1.6913214e-38 320 257
0.0012851933 0.73299998 -0.021848286 1.6452595e-38 321 257
0.0025914267 0.73900002 -0.022027127 1.7001816e-38 322 257
0.0038713599 0.736 -0.021937706 1.672523e-38 323 257
0.005161813 0.736 -0.021937706 1.6817782e-38 324 257
0.0064522666 0.736 -0.021937706 1.7001813e-38 325 257
0.0077637597 0.73799998 -0.021997318 1.6820296e-38 326 257
0.0090577193 0.73799998 -0.021997318 1.6635904e-38 327 257
0.010351679 0.73799998 -0.021997318 1.6911412e-38 328 257
0.011645639 0.73799998 -0.021997318 1.7003967e-38 329 257
0.012939599 0.73799998 -0.021997318 1.6452595e-38 330 257
0.014233559 0.73799998 -0.021997318 1.6267845e-38 331 257
0.015527519 0.73799998 -0.021997318 1.6266423e-38 332 257
0.016821479 0.73799998 -0.021997318 1.6266423e-38 333 257
0.018066347 0.736 -0.021937706 1.6174598e-38 334 257
0.019356798 0.736 -0.021937706 1.6174598e-38 335 257
0.020647252 0.736 -0.021937706 1.626786e-38 336 257
0.02208674 0.741 -0.02208674 1.6360056e-38 337 257
0.023417519 0.74199998 -0.022116546 1.6269292e-38 338 257
0.024685178 0.741 -0.02208674 1.6453323e-38 339 257
0.025914267 0.73900002 -0.022027127 1.5994866e-38 340 257
0.027209979 0.73900002 -0.022027127 1.5349497e-38 341 257
-0.033688545 0.73900002 -0.023322839 1.654482e-38 294 258
-0.032392833 0.73900002 -0.023322839 1.6729211e-38 295 258
-0.03118128 0.741 -0.023385961 1.6819968e-38 296 258
-0.029801406 0.73900002 -0.023322839 1.6727412e-38 297 258
-0.028505694 0.73900002 -0.023322839 1.6727765e-38 298 258
-0.027209979 0.73900002 -0.023322839 1.6635569e-38 299 258
-0.025809066 0.736 -0.023228159 1.6725601e-38 300 258
-0.024518613 0.736 -0.023228159 1.6725601e-38 301 258
-0.023228159 0.736 -0.023228159 1.6633406e-38 302 258
-0.021878093 0.73400003 -0.023165042 1.6633406e-38 303 258
-0.020591147 0.73400003 -0.023165042 1.6815642e-38 304 258
-0.012816866 0.73100001 -0.02307036 1.7278402e-38 310 258
-0.010351679 0.73799998 -0.023291279 1.6908897e-38 312 258
-0.0090331733 0.736 -0.023228159 1.709329e-38 313 258
-0.0077427197 0.736 -0.023228159 1.6729549e-38 314 258
-0.006434733 0.73400003 -0.023165042 1.6545156e-38 315 258
-0.005140773 0.73299998 -0.023133477 1.7093661e-38 316 258
-0.0038555798 0.73299998 -0.023133477 1.7001465e-38 317 258
-0.0025703865 0.73299998 -0.023133477 1.7000393e-38 318 258
-0.0012851933 0.73299998 -0.023133477 1.7368816e-38 319 258
0 0.73299998 -0.023133477 1.6912148e-38 320 258
0.0012851933 0.73299998 -0.023133477 1.7464961e-38 321 258
0.0025738934 0.73400003 -0.023165042 1.7375987e-38 322 258
0.0038608401 0.73400003 -0.023165042 1.7375987e-38 323 258
0.005161813 0.736 -0.023228159 1.7372027e-38 324 258
0.0064522666 0.736 -0.023228159 1.7279472e-38 325 258
0.0077427197 0.736 -0.023228159 1.7094361e-38 326 258
0.0090331733 0.736 -0.023228159 1.7094361e-38 327 258
0.010323626 0.736 -0.023228159 1.6819222e-38 328 258
0.01161408 0.736 -0.023228159 1.6819222e-38 329 258
0.012904533 0.736 -0.023228159 1.6634835e-38 330 258
0.014233559 0.73799998 -0.023291279 1.6634835e-38 331 258
0.0153592 0.73000002 -0.023038799 1.6267497e-38 332 258
0.016639132 0.73000002 -0.023038799 1.5806519e-38 333 258
0.017919067 0.73000002 -0.023038799 1.6082752e-38 334 258
0.019225299 0.73100001 -0.02307036 1.6174949e-38 335 258
0.020506985 0.73100001 -0.02307036 1.6174943e-38 336 258
0.022027127 0.73900002 -0.023322839 1.6359693e-38 337 258
0.023385961 0.741 -0.023385961 1.6176744e-38 338 258
0.024685178 0.741 -0.023385961 1.6176744e-38 339 258
0.025914267 0.73900002 -0.023322839 1.5902673e-38 340 258
0.027209979 0.73900002 -0.023322839 1.5533892e-38 341 258
-0.033688545 0.73900002 -0.024618553 1.6546605e-38 294 259
-0.032392833 0.73900002 -0.024618553 1.6362214e-38 295 259
-0.03109712 0.73900002 -0.024618553 1.6544453e-38 296 259
-0.029761078 0.73799998 -0.024585238 1.6452257e-38 297 259
-0.028389972 0.736 -0.024518613 1.6818513e-38 298 259
-0.02709952 0.736 -0.024518613 1.6634482e-38 299 259
-0.025738932 0.73400003 -0.024451986 1.6908548e-38 300 259
-0.024451986 0.73400003 -0.024451986 1.6816351e-38 301 259
-0.023133477 0.73299998 -0.024418673 1.6816351e-38 302 259
-0.021848286 0.73299998 -0.024418673 1.6723797e-38 303 259
-0.020478934 0.73000002 -0.024318734 1.6722011e-38 304 259
-0.019199001 0.73000002 -0.024318734 1.6722011e-38 305 259
-0.017919067 0.73000002 -0.024318734 1.672238e-38 306 259
-0.016661927 0.73100001 -0.024352046 1.6906771e-38 307 259
-0.01538024 0.73100001 -0.024352046 1.6816728e-38 308 259
-0.014098554 0.73100001 -0.024352046 1.718515e-38 309 259
-0.012816866 0.73100001 -0.024352046 1.7093305e-38 310 259
-0.01147206 0.727 -0.024218792 1.6817078e-38 311 259
-0.010351679 0.73799998 -0.024585238 1.681815e-38 312 259
-0.0090577193 0.73799998 -0.024585238 1.7002541e-38 313 259
-0.0077427197 0.736 -0.024518613 1.6727399e-38 314 259
-0.006434733 0.73400003 -0.024451986 1.6635204e-38 315 259
-0.005140773 0.73299998 -0.024418673 1.6634132e-38 316 259
-0.0038555798 0.73299998 -0.024418673 1.6634132e-38 317 259
-0.0025703865 0.73299998 -0.024418673 1.6816378e-38 318 259
-0.0012851933 0.73299998 -0.024418673 1.7092604e-38 319 259
0 0.73299998 -0.024418673 1.7282735e-38 320 259
0.0012816866 0.73100001 -0.024352046 1.7928105e-38 321 259
0.0025633732 0.73100001 -0.024352046 1.7654002e-38 322 259
0.00384506 0.73100001 -0.024352046 1.7469611e-38 323 259
0.005140773 0.73299998 -0.024418673 1.7464573e-38 324 259
0.0064259665 0.73299998 -0.024418673 1.7280181e-38 325 259
0.00769012 0.73100001 -0.024352046 1.7002892e-38 326 259
0.0089718066 0.73100001 -0.024352046 1.6910696e-38 327 259
0.010323626 0.736 -0.024518613 1.6634482e-38 328 259
0.01153518 0.73100001 -0.024352046 1.6542286e-38 329 259
0.012799333 0.73000002 -0.024318734 1.6543002e-38 330 259
0.014079267 0.73000002 -0.024318734 1.6543002e-38 331 259
0.0153592 0.73000002 -0.024318734 1.6357888e-38 332 259
0.016639132 0.73000002 -0.024318734 1.5989466e-38 333 259
0.017919067 0.73000002 -0.024318734 1.5807238e-38 334 259
0.019199001 0.73000002 -0.024318734 1.5991631e-38 335 259
0.020478934 0.73000002 -0.024318734 1.6174946e-38 336 259
0.021788673 0.73100001 -0.024352046 1.6174946e-38 337 259
0.023322839 0.73900002 -0.024618553 1.6083826e-38 338 259
0.024618553 0.73900002 -0.024618553 1.6452607e-38 339 259
0.025879199 0.73799998 -0.024585238 1.6084545e-38 340 259
0.027173158 0.73799998 -0.024585238 1.5807957e-38 341 259
-0.033688545 0.73900002 -0.025914267 1.6637722e-38 294 260
-0.032392833 0.73900002 -0.025914267 1.6453329e-38 295 260
-0.03109712 0.73900002 -0.025914267 1.6728115e-38 296 260
-0.029599773 0.73400003 -0.025738932 1.6728115e-38 297 260
-0.028312827 0.73400003 -0.025738932 1.6909993e-38 298 260
-0.026989058 0.73299998 -0.025703866 1.6725601e-38 299 260
-0.025703866 0.73299998 -0.025703866 1.6908192e-38 300 260
-0.024418673 0.73299998 -0.025703866 1.7000746e-38 301 260
-0.02307036 0.73100001 -0.025633732 1.6815632e-38 302 260
-0.021788673 0.73100001 -0.025633732 1.6723436e-38 303 260
-0.020478934 0.73000002 -0.025598666 1.6630166e-38 304 260
-0.019199001 0.73000002 -0.025598666 1.653797e-38 305 260
-0.017919067 0.73000002 -0.025598666 1.6722362e-38 306 260
-0.016639132 0.73000002 -0.025598666 1.6630166e-38 307 260
-0.0153592 0.73000002 -0.025598666 1.662873e-38 308 260
-0.014079267 0.73000002 -0.025598666 1.6905677e-38 309 260
-0.012746733 0.727 -0.025493465 1.6907121e-38 310 260
-0.01147206 0.727 -0.025493465 1.6907121e-38 311 260
-0.010197386 0.727 -0.025493465 1.6817444e-38 312 260
-0.0090331733 0.736 -0.025809066 1.7002194e-38 313 260
-0.0077427197 0.736 -0.025809066 1.6818163e-38 314 260
-0.006434733 0.73400003 -0.025738932 1.6634132e-38 315 260
-0.0050846669 0.72500002 -0.025423333 1.6541933e-38 316 260
-0.0038135003 0.72500002 -0.025423333 1.6541933e-38 317 260
-0.0025423334 0.72500002 -0.025423333 1.6725955e-38 318 260
-0.0012851933 0.73299998 -0.025703866 1.7002541e-38 319 260
0 0.73299998 -0.025703866 1.7468186e-38 320 260
0.0012816866 0.73100001 -0.025633732 1.802136e-38 321 260
0.0025598668 0.73000002 -0.025598666 1.7465671e-38 322 260
0.0038397999 0.73000002 -0.025598666 1.6912497e-38 323 260
0.0051267464 0.73100001 -0.025633732 1.7095107e-38 324 260
0.006408433 0.73100001 -0.025633732 1.7187303e-38 325 260
0.00769012 0.73100001 -0.025633732 1.6727402e-38 326 260
0.0089718066 0.73100001 -0.025633732 1.6634848e-38 327 260
0.010253493 0.73100001 -0.025633732 1.6632683e-38 328 260
0.01153518 0.73100001 -0.025633732 1.672488e-38 329 260
0.012799333 0.73000002 -0.025598666 1.6543002e-38 330 260
0.014079267 0.73000002 -0.025598666 1.6174579e-38 331 260
0.0153592 0.73000002 -0.025598666 1.6448289e-38 332 260
0.016639132 0.73000002 -0.025598666 1.6172062e-38 333 260
0.017919067 0.73000002 -0.025598666 1.5990906e-38 334 260
0.019199001 0.73000002 -0.025598666 1.6083102e-38 335 260
0.020478934 0.73000002 -0.025598666 1.6082383e-38 336 260
0.021758866 0.73000002 -0.025598666 1.6082383e-38 337 260
0.023038799 0.73000002 -0.025598666 1.6174943e-38 338 260
0.024451986 0.73400003 -0.025738932 1.6451889e-38 339 260
0.025809066 0.736 -0.025809066 1.5901955e-38 340 260
0.02709952 0.736 -0.025809066 1.5533173e-38 341 260
-0.032173667 0.73400003 -0.02702588 1.6452973e-38 295 261
-0.030886721 0.73400003 -0.02702588 1.6635567e-38 296 261
-0.029559445 0.73299998 -0.026989058 1.635934e-38 297 261
-0.028197108 0.73100001 -0.026915418 1.6817081e-38 298 261
-0.026878599 0.73000002 -0.026878599 1.6817081e-38 299 261
-0.025598666 0.73000002 -0.026878599 1.6999672e-38 300 261
-0.024318734 0.73000002 -0.026878599 1.6907475e-38 301 261
-0.023038799 0.73000002 -0.026878599 1.6815279e-38 302 261
-0.021758866 0.73000002 -0.026878599 1.6723083e-38 303 261
-0.020478934 0.73000002 -0.026878599 1.6538689e-38 304 261
-0.019199001 0.73000002 -0.026878599 1.6538689e-38 305 261
-0.017919067 0.73000002 -0.026878599 1.6355021e-38 306 261
-0.016593546 0.72799999 -0.026804959 1.6262825e-38 307 261
-0.01531712 0.72799999 -0.026804959 1.635539e-38 308 261
-0.014021406 0.727 -0.026768139 1.6539781e-38 309 261
-0.012711667 0.72500002 -0.026694499 1.6723452e-38 310 261
-0.0114405 0.72500002 -0.026694499 1.6815647e-38 311 261
-0.01014128 0.72299999 -0.026620859 1.7000756e-38 312 261
-0.0088736191 0.72299999 -0.026620859 1.7000756e-38 313 261
-0.0076480396 0.727 -0.026768139 1.6817447e-38 314 261
-0.0063733663 0.727 -0.026768139 1.6632697e-38 315 261
-0.0050846669 0.72500002 -0.026694499 1.6266072e-38 316 261
-0.0038029798 0.72299999 -0.026620859 1.6266072e-38 317 261
-0.0025353199 0.72299999 -0.026620859 1.6357187e-38 318 261
-0.0012676599 0.72299999 -0.026620859 1.6357187e-38 319 261
0 0.722 -0.026584039 1.6450091e-38 320 261
0.0012764266 0.72799999 -0.026804959 1.6357894e-38 321 261
0.0025528532 0.72799999 -0.026804959 1.6357175e-38 322 261
0.0038292799 0.72799999 -0.026804959 1.6817794e-38 323 261
0.0051057064 0.72799999 -0.026804959 1.6636653e-38 324 261
0.0063821329 0.72799999 -0.026804959 1.6544456e-38 325 261
0.0076795998 0.73000002 -0.026878599 1.654158e-38 326 261
0.0089595336 0.73000002 -0.026878599 1.6357187e-38 327 261
0.010239467 0.73000002 -0.026878599 1.6449735e-38 328 261
0.011519399 0.73000002 -0.026878599 1.6449735e-38 329 261
0.012799333 0.73000002 -0.026878599 1.6357891e-38 330 261
0.014040692 0.72799999 -0.026804959 1.61735e-38 331 261
0.01531712 0.72799999 -0.026804959 1.6172781e-38 332 261
0.016593546 0.72799999 -0.026804959 1.6172781e-38 333 261
0.017869972 0.72799999 -0.026804959 1.5989831e-38 334 261
0.0191464 0.72799999 -0.026804959 1.6082027e-38 335 261
0.020422826 0.72799999 -0.026804959 1.5990553e-38 336 261
0.021758866 0.73000002 -0.026878599 1.6082749e-38 337 261
0.023038799 0.73000002 -0.026878599 1.6174946e-38 338 261
0.024352046 0.73100001 -0.026915418 1.6359337e-38 339 261
0.025738932 0.73400003 -0.02702588 1.6174581e-38 340 261
0.02702588 0.73400003 -0.02702588 1.6174581e-38 341 261
-0.038608398 0.73400003 -0.028312827 1.5822026e-38 290 262
-0.037321456 0.73400003 -0.028312827 1.4346536e-38 291 262
-0.036034506 0.73400003 -0.028312827 1.6639888e-38 292 262
-0.03474756 0.73400003 -0.028312827 1.6178911e-38 293 262
-0.033460613 0.73400003 -0.028312827 1.663665e-38 294 262
-0.032173667 0.73400003 -0.028312827 1.6452257e-38 295 262
-0.030886721 0.73400003 -0.028312827 1.6727402e-38 296 262
-0.029438468 0.73000002 -0.028158534 1.6266425e-38 297 262
-0.028081384 0.72799999 -0.028081384 1.6725601e-38 298 262
-0.026768139 0.727 -0.028042812 1.6633406e-38 299 262
-0.025423333 0.72500002 -0.027965667 1.6817081e-38 300 262
-0.024152167 0.72500002 -0.027965667 1.6724527e-38 301 262
-0.022975679 0.72799999 -0.028081384 1.6632332e-38 302 262
-0.021699252 0.72799999 -0.028081384 1.6447941e-38 303 262
-0.020422826 0.72799999 -0.028081384 1.6630885e-38 304 262
-0.0191464 0.72799999 -0.028081384 1.6630885e-38 305 262
-0.017869972 0.72799999 -0.028081384 1.6355371e-38 306 262
-0.016570752 0.727 -0.028042812 1.6355371e-38 307 262
-0.015296079 0.727 -0.028042812 1.6356093e-38 308 262
-0.013982833 0.72500002 -0.027965667 1.6448289e-38 309 262
-0.012711667 0.72500002 -0.027965667 1.6447573e-38 310 262
-0.01140894 0.72299999 -0.02788852 1.6539768e-38 311 262
-0.01014128 0.72299999 -0.02788852 1.6909993e-38 312 262
-0.0088736191 0.72299999 -0.02788852 1.6817797e-38 313 262
-0.0076270006 0.72500002 -0.027965667 1.6632683e-38 314 262
-0.0063558333 0.72500002 -0.027965667 1.607951e-38 315 262
-0.0050706398 0.72299999 -0.02788852 1.6169912e-38 316 262
-0.0038029798 0.72299999 -0.02788852 1.6354305e-38 317 262
-0.0025318132 0.722 -0.027849946 1.6169925e-38 318 262
-0.0012659066 0.722 -0.027849946 1.6169925e-38 319 262
0 0.722 -0.027849946 1.598733e-38 320 262
0.0012746733 0.727 -0.028042812 1.5249764e-38 321 262
0.0025493465 0.727 -0.028042812 1.5797178e-38 322 262
0.0038135003 0.72500002 -0.027965667 1.6995721e-38 323 262
0.0050846669 0.72500002 -0.027965667 1.6449387e-38 324 262
0.0063558333 0.72500002 -0.027965667 1.6449387e-38 325 262
0.0076585598 0.72799999 -0.028081384 1.6356469e-38 326 262
0.0089227129 0.727 -0.028042812 1.6264273e-38 327 262
0.010197386 0.727 -0.028042812 1.654085e-38 328 262
0.01147206 0.727 -0.028042812 1.654085e-38 329 262
0.012764266 0.72799999 -0.028081384 1.6264974e-38 330 262
0.014021406 0.727 -0.028042812 1.6080582e-38 331 262
0.015296079 0.727 -0.028042812 1.6172778e-38 332 262
0.016570752 0.727 -0.028042812 1.6264974e-38 333 262
0.017845426 0.727 -0.028042812 1.608238e-38 334 262
0.019120099 0.727 -0.028042812 1.6174576e-38 335 262
0.020394772 0.727 -0.028042812 1.5899787e-38 336 262
0.021609833 0.72500002 -0.027965667 1.5899787e-38 337 262
0.022880999 0.72500002 -0.027965667 1.5991633e-38 338 262
0.024318734 0.73000002 -0.028158534 1.5991633e-38 339 262
0.025598666 0.73000002 -0.028158534 1.6082752e-38 340 262
0.026878599 0.73000002 -0.028158534 1.6174949e-38 341 262
-0.039840993 0.73299998 -0.029559445 1.2069361e-38 289 263
-0.038555797 0.73299998 -0.029559445 1.609105e-38 290 263
-0.037270606 0.73299998 -0.029559445 1.5445681e-38 291 263
-0.035985414 0.73299998 -0.029559445 1.6454056e-38 292 263
-0.034700219 0.73299998 -0.029559445 1.6269664e-38 293 263
-0.033415023 0.73299998 -0.029559445 1.6634851e-38 294 263
-0.031779166 0.72500002 -0.029236834 1.6634851e-38 295 263
-0.030508002 0.72500002 -0.029236834 1.6634485e-38 296 263
-0.029236834 0.72500002 -0.029236834 1.6634485e-38 297 263
-0.02788852 0.72299999 -0.029156178 1.6542286e-38 298 263
-0.026584039 0.722 -0.029115854 1.6357894e-38 299 263
-0.025318133 0.722 -0.029115854 1.6633406e-38 300 263
-0.024052227 0.722 -0.029115854 1.6633406e-38 301 263
-0.022880999 0.72500002 -0.029236834 1.6356819e-38 302 263
-0.021609833 0.72500002 -0.029236834 1.6264623e-38 303 263
-0.020338668 0.72500002 -0.029236834 1.6448289e-38 304 263
-0.0190675 0.72500002 -0.029236834 1.6540484e-38 305 263
-0.017796334 0.72500002 -0.029236834 1.6264974e-38 306 263
-0.016525166 0.72500002 -0.029236834 1.6080582e-38 307 263
-0.015254001 0.72500002 -0.029236834 1.6080232e-38 308 263
-0.01394426 0.72299999 -0.029156178 1.5895839e-38 309 263
-0.012676599 0.72299999 -0.029156178 1.5894765e-38 310 263
-0.01140894 0.72299999 -0.029156178 1.6079157e-38 311 263
-0.01014128 0.72299999 -0.029156178 1.626427e-38 312 263
-0.0088736191 0.72299999 -0.029156178 1.5711455e-38 313 263
-0.0076059597 0.72299999 -0.029156178 1.5801847e-38 314 263
-0.0063382997 0.72299999 -0.029156178 1.5617456e-38 315 263
-0.0050636264 0.722 -0.029115854 1.5709654e-38 316 263
-0.0037872 0.72000003 -0.029035201 1.6078077e-38 317 263
-0.0025248001 0.72000003 -0.029035201 1.5894414e-38 318 263
-0.0012659066 0.722 -0.029115854 1.6078807e-38 319 263
0 0.722 -0.029115854 1.589693e-38 320 263
0.0012711667 0.72500002 -0.029236834 1.5528506e-38 321 263
0.0025423334 0.72500002 -0.029236834 1.5709654e-38 322 263
0.0038029798 0.72299999 -0.029156178 1.5709654e-38 323 263
0.0050706398 0.72299999 -0.029156178 1.5711455e-38 324 263
0.0063382997 0.72299999 -0.029156178 1.5895486e-38 325 263
0.0076480396 0.727 -0.029317487 1.6079876e-38 326 263
0.0088981669 0.72500002 -0.029236834 1.6079876e-38 327 263
0.010169334 0.72500002 -0.029236834 1.6172425e-38 328 263
0.0114405 0.72500002 -0.029236834 1.6080229e-38 329 263
0.012746733 0.727 -0.029317487 1.6080585e-38 330 263
0.014021406 0.727 -0.029317487 1.6172781e-38 331 263
0.015296079 0.727 -0.029317487 1.6173497e-38 332 263
0.016570752 0.727 -0.029317487 1.6265692e-38 333 263
0.017796334 0.72500002 -0.029236834 1.6083099e-38 334 263
0.0190675 0.72500002 -0.029236834 1.6175296e-38 335 263
0.020394772 0.727 -0.029317487 1.589979e-38 336 263
0.021550218 0.72299999 -0.029156178 1.5807235e-38 337 263
0.02281788 0.72299999 -0.029156178 1.5990197e-38 338 263
0.024218792 0.727 -0.029317487 1.5990197e-38 339 263
0.025528532 0.72799999 -0.029357811 1.5990553e-38 340 263
0.026878599 0.73000002 -0.029438468 1.6174946e-38 341 263
-0.039840993 0.73299998 -0.030844638 1.0866134e-38 289 264
-0.038555797 0.73299998 -0.030844638 1.6176759e-38 290 264
-0.037270606 0.73299998 -0.030844638 1.636151e-38 291 264
-0.035887226 0.73100001 -0.03076048 1.6635572e-38 292 264
-0.03441618 0.727 -0.030592158 1.6358987e-38 293 264
-0.033141505 0.727 -0.030592158 1.6541583e-38 294 264
-0.031779166 0.72500002 -0.030508002 1.6633779e-38 295 264
-0.030423839 0.72299999 -0.030423839 1.6541933e-38 296 264
-0.029156178 0.72299999 -0.030423839 1.6541933e-38 297 264
-0.027849946 0.722 -0.030381758 1.6633406e-38 298 264
-0.026584039 0.722 -0.030381758 1.6356819e-38 299 264
-0.025318133 0.722 -0.030381758 1.6540853e-38 300 264
-0.024052227 0.722 -0.030381758 1.6540853e-38 301 264
-0.02281788 0.72299999 -0.030423839 1.6264626e-38 302 264
-0.021550218 0.72299999 -0.030423839 1.6356822e-38 303 264
-0.020282559 0.72299999 -0.030423839 1.6725599e-38 304 264
-0.019014901 0.72299999 -0.030423839 1.6725599e-38 305 264
-0.017747238 0.72299999 -0.030423839 1.6723436e-38 306 264
-0.01647958 0.72299999 -0.030423839 1.6262458e-38 307 264
-0.015211919 0.72299999 -0.030423839 1.607808e-38 308 264
-0.01394426 0.72299999 -0.030423839 1.5801853e-38 309 264
-0.012676599 0.72299999 -0.030423839 1.5802219e-38 310 264
-0.01140894 0.72299999 -0.030423839 1.5894414e-38 311 264
-0.01014128 0.72299999 -0.030423839 1.5711102e-38 312 264
-0.0088736191 0.72299999 -0.030423839 1.5434156e-38 313 264
-0.0076059597 0.72299999 -0.030423839 1.5709301e-38 314 264
-0.0063120001 0.72000003 -0.0302976 1.5801497e-38 315 264
-0.0050425865 0.71899998 -0.030255521 1.561961e-38 316 264
-0.0037714199 0.71700001 -0.030171359 1.5988034e-38 317 264
-0.0025142799 0.71700001 -0.030171359 1.5712524e-38 318 264
-0.00125714 0.71700001 -0.030171359 1.5896917e-38 319 264
0.0012711667 0.72500002 -0.030508002 1.552813e-38 321 264
0.0025423334 0.72500002 -0.030508002 1.589367e-38 322 264
0.0037977197 0.722 -0.030381758 1.5617442e-38 323 264
0.0050636264 0.722 -0.030381758 1.5710002e-38 324 264
0.0063295332 0.722 -0.030381758 1.5802556e-38 325 264
0.0076059597 0.72299999 -0.030423839 1.589512e-38 326 264
0.0088736191 0.72299999 -0.030423839 1.589512e-38 327 264
0.01014128 0.72299999 -0.030423839 1.598696e-38 328 264
0.01140894 0.72299999 -0.030423839 1.6079157e-38 329 264
0.012711667 0.72500002 -0.030508002 1.6172428e-38 330 264
0.013982833 0.72500002 -0.030508002 1.6264623e-38 331 264
0.015254001 0.72500002 -0.030508002 1.6082383e-38 332 264
0.016525166 0.72500002 -0.030508002 1.6266776e-38 333 264
0.017796334 0.72500002 -0.030508002 1.6082746e-38 334 264
0.0190675 0.72500002 -0.030508002 1.6082746e-38 335 264
0.020282559 0.72299999 -0.030423839 1.6082033e-38 336 264
0.021550218 0.72299999 -0.030423839 1.5989478e-38 337 264
0.02281788 0.72299999 -0.030423839 1.5989831e-38 338 264
0.024152167 0.72500002 -0.030508002 1.6082027e-38 339 264
0.025423333 0.72500002 -0.030508002 1.5899436e-38 340 264
0.026620859 0.72299999 -0.030423839 1.5899436e-38 341 264
0.02788852 0.72299999 -0.030423839 1.5900157e-38 342 264
-0.041013971 0.73100001 -0.032042164 1.6486104e-38 288 265
-0.039840993 0.73299998 -0.032129832 1.0862171e-38 289 265
-0.038555797 0.73299998 -0.032129832 1.6359352e-38 290 265
-0.037168913 0.73100001 -0.032042164 1.6451907e-38 291 265
-0.035887226 0.73100001 -0.032042164 1.6451538e-38 292 265
-0.03441618 0.727 -0.03186683 1.6174593e-38 293 265
-0.033050332 0.72500002 -0.031779166 1.65405e-38 294 265
-0.031779166 0.72500002 -0.031779166 1.6356469e-38 295 265
-0.030423839 0.72299999 -0.031691495 1.6540856e-38 296 265
-0.029156178 0.72299999 -0.031691495 1.6540856e-38 297 265
-0.027849946 0.722 -0.031647664 1.6539415e-38 298 265
-0.026510401 0.72000003 -0.03156 1.6447219e-38 299 265
-0.025248 0.72000003 -0.03156 1.6447938e-38 300 265
-0.024052227 0.722 -0.031647664 1.6355743e-38 301 265
-0.022786319 0.722 -0.031647664 1.6355743e-38 302 265
-0.021520413 0.722 -0.031647664 1.663233e-38 303 265
-0.020254506 0.722 -0.031647664 1.7003263e-38 304 265
-0.0189886 0.722 -0.031647664 1.7187656e-38 305 265
-0.017722692 0.722 -0.031647664 1.7274455e-38 306 265
-0.016456785 0.722 -0.031647664 1.6813478e-38 307 265
-0.015211919 0.72299999 -0.031691495 1.5711452e-38 308 265
-0.01394426 0.72299999 -0.031691495 1.5250114e-38 309 265
-0.012676599 0.72299999 -0.031691495 1.5527061e-38 310 265
-0.01139316 0.722 -0.031647664 1.5619257e-38 311 265
-0.010127253 0.722 -0.031647664 1.5712168e-38 312 265
-0.0088613462 0.722 -0.031647664 1.5712168e-38 313 265
-0.0076059597 0.72299999 -0.031691495 1.5896917e-38 314 265
-0.0063120001 0.72000003 -0.03156 1.6173144e-38 315 265
-0.0050425865 0.71899998 -0.031516165 1.5807588e-38 316 265
-0.0037714199 0.71700001 -0.031428497 1.5807588e-38 317 265
-0.0025142799 0.71700001 -0.031428497 1.5714677e-38 318 265
0.0025248001 0.72000003 -0.03156 1.5710721e-38 322 265
0.0037872 0.72000003 -0.03156 1.5895471e-38 323 265
0.0050496003 0.72000003 -0.03156 1.5803623e-38 324 265
0.0063120001 0.72000003 -0.03156 1.5988014e-38 325 265
0.0075954394 0.722 -0.031647664 1.5895105e-38 326 265
0.0088613462 0.722 -0.031647664 1.5802551e-38 327 265
0.010127253 0.722 -0.031647664 1.5985515e-38 328 265
0.01139316 0.722 -0.031647664 1.6169907e-38 329 265
0.012659066 0.722 -0.031647664 1.6171709e-38 330 265
0.0138864 0.72000003 -0.03156 1.654049e-38 331 265
0.0151488 0.72000003 -0.03156 1.6083829e-38 332 265
0.0164112 0.72000003 -0.03156 1.5899436e-38 333 265
0.017722692 0.722 -0.031647664 1.6081677e-38 334 265
0.0189886 0.722 -0.031647664 1.580509e-38 335 265
0.020254506 0.722 -0.031647664 1.6079882e-38 336 265
0.021460801 0.72000003 -0.03156 1.6172077e-38 337 265
0.022723202 0.72000003 -0.03156 1.6082027e-38 338 265
0.024052227 0.722 -0.031647664 1.6174581e-38 339 265
0.025318133 0.722 -0.031647664 1.6083102e-38 340 265
0.026584039 0.722 -0.031647664 1.6083102e-38 341 265
0.027849946 0.722 -0.031647664 1.5900157e-38 342 265
-0.041013971 0.73100001 -0.033323854 1.6573258e-38 288 266
-0.039677933 0.73000002 -0.033278264 1.1686889e-38 289 266
-0.038398001 0.73000002 -0.033278264 1.6728492e-38 290 266
-0.037168913 0.73100001 -0.033323854 1.6728492e-38 291 266
-0.035838135 0.73000002 -0.033278264 1.6635557e-38 292 266
-0.03441618 0.727 -0.033141505 1.6450807e-38 293 266
-0.033050332 0.72500002 -0.033050332 1.6355387e-38 294 266
-0.031779166 0.72500002 -0.033050332 1.6355387e-38 295 266
-0.030423839 0.72299999 -0.032959159 1.6171721e-38 296 266
-0.029156178 0.72299999 -0.032959159 1.6264276e-38 297 266
-0.027772799 0.72000003 -0.0328224 1.617243e-38 298 266
-0.026510401 0.72000003 -0.0328224 1.6079876e-38 299 266
-0.025248 0.72000003 -0.0328224 1.6355387e-38 300 266
-0.0239856 0.72000003 -0.0328224 1.6171356e-38 301 266
-0.022723202 0.72000003 -0.0328224 1.6356469e-38 302 266
-0.021460801 0.72000003 -0.0328224 1.6632697e-38 303 266
-0.020198401 0.72000003 -0.0328224 1.6819595e-38 304 266
-0.018935999 0.72000003 -0.0328224 1.7372769e-38 305 266
-0.017722692 0.722 -0.032913569 1.7369169e-38 306 266
-0.016456785 0.722 -0.032913569 1.6815995e-38 307 266
-0.015211919 0.72299999 -0.032959159 1.589512e-38 308 266
-0.01394426 0.72299999 -0.032959159 1.5434144e-38 309 266
-0.012659066 0.722 -0.032913569 1.5343746e-38 310 266
-0.01139316 0.722 -0.032913569 1.5619973e-38 311 266
-0.010127253 0.722 -0.032913569 1.5436307e-38 312 266
-0.0088613462 0.722 -0.032913569 1.580509e-38 313 266
-0.0075954394 0.722 -0.032913569 1.5439181e-38 314 266
-0.0063382997 0.72299999 -0.032959159 1.5531377e-38 315 266
0.0025248001 0.72000003 -0.0328224 1.5712519e-38 322 266
0.0037872 0.72000003 -0.0328224 1.5712519e-38 323 266
0.0050496003 0.72000003 -0.0328224 1.5621759e-38 324 266
0.0063120001 0.72000003 -0.0328224 1.5529562e-38 325 266
0.0075743999 0.72000003 -0.0328224 1.561961e-38 326 266
0.0088367993 0.72000003 -0.0328224 1.5527055e-38 327 266
0.010085173 0.71899998 -0.032776814 1.5618901e-38 328 266
0.01134582 0.71899998 -0.032776814 1.5711455e-38 329 266
0.012606465 0.71899998 -0.032776814 1.5804734e-38 330 266
0.013867113 0.71899998 -0.032776814 1.5989484e-38 331 266
0.01512776 0.71899998 -0.032776814 1.5899806e-38 332 266
0.016388407 0.71899998 -0.032776814 1.562322e-38 333 266
0.017722692 0.722 -0.032913569 1.5989481e-38 334 266
0.018935999 0.72000003 -0.0328224 1.5897285e-38 335 266
0.020198401 0.72000003 -0.0328224 1.5897639e-38 336 266
0.021460801 0.72000003 -0.0328224 1.5989834e-38 337 266
0.022723202 0.72000003 -0.0328224 1.6082383e-38 338 266
0.024052227 0.722 -0.032913569 1.6082383e-38 339 266
0.025318133 0.722 -0.032913569 1.5989115e-38 340 266
0.026584039 0.722 -0.032913569 1.6265342e-38 341 266
0.027772799 0.72000003 -0.0328224 1.5899801e-38 342 266
0.029035201 0.72000003 -0.0328224 1.5807604e-38 343 266
0.033050332 0.72500002 -0.033050332 1.525516e-38 346 266
0.034321502 0.72500002 -0.033050332 1.5439191e-38 347 266
-0.041013971 0.73100001 -0.034605537 1.6571816e-38 288 267
-0.039677933 0.73000002 -0.034558199 1.1685449e-38 289 267
-0.038398001 0.73000002 -0.034558199 1.6731368e-38 290 267
-0.037016369 0.72799999 -0.034463517 1.6546618e-38 291 267
-0.035739943 0.72799999 -0.034463517 1.6362211e-38 292 267
-0.03441618 0.727 -0.03441618 1.5809037e-38 293 267
-0.033050332 0.72500002 -0.034321502 1.6357538e-38 294 267
-0.031691495 0.72299999 -0.03422682 1.5804365e-38 295 267
-0.030381758 0.722 -0.034179479 1.6262828e-38 296 267
-0.029115854 0.722 -0.034179479 1.6355024e-38 297 267
-0.027772799 0.72000003 -0.034084801 1.6171709e-38 298 267
-0.026510401 0.72000003 -0.034084801 1.6079513e-38 299 267
-0.025248 0.72000003 -0.034084801 1.6171709e-38 300 267
-0.0239856 0.72000003 -0.034084801 1.6171709e-38 301 267
-0.022723202 0.72000003 -0.034084801 1.6355021e-38 302 267
-0.021460801 0.72000003 -0.034084801 1.6815998e-38 303 267
-0.020198401 0.72000003 -0.034084801 1.6729199e-38 304 267
-0.018935999 0.72000003 -0.034084801 1.7558599e-38 305 267
-0.017673599 0.72000003 -0.034084801 1.7093308e-38 306 267
-0.016456785 0.722 -0.034179479 1.6724527e-38 307 267
-0.015211919 0.72299999 -0.03422682 1.5804365e-38 308 267
-0.01394426 0.72299999 -0.03422682 1.5343746e-38 309 267
-0.012624 0.72000003 -0.034084801 1.5434863e-38 310 267
-0.011361601 0.72000003 -0.034084801 1.5342667e-38 311 267
-0.010127253 0.722 -0.034179479 1.5527427e-38 312 267
-0.0088613462 0.722 -0.034179479 1.5343396e-38 313 267
-0.0075954394 0.722 -0.034179479 1.5068954e-38 314 267
0.0025248001 0.72000003 -0.034084801 1.5529229e-38 322 267
0.0037872 0.72000003 -0.034084801 1.5160446e-38 323 267
0.0050496003 0.72000003 -0.034084801 1.5434156e-38 324 267
0.0063032326 0.71899998 -0.03403746 1.5249764e-38 325 267
0.0075638802 0.71899998 -0.03403746 1.5158648e-38 326 267
0.0088245263 0.71899998 -0.03403746 1.5066451e-38 327 267
0.010085173 0.71899998 -0.03403746 1.5527777e-38 328 267
0.01131426 0.71700001 -0.033942781 1.5712168e-38 329 267
0.0125714 0.71700001 -0.033942781 1.5621409e-38 330 267
0.013828539 0.71700001 -0.033942781 1.580544e-38 331 267
0.015085679 0.71700001 -0.033942781 1.5989113e-38 332 267
0.016342819 0.71700001 -0.033942781 1.6173144e-38 333 267
0.017599959 0.71700001 -0.033942781 1.5714677e-38 334 267
0.018909698 0.71899998 -0.03403746 1.5714677e-38 335 267
0.020170346 0.71899998 -0.03403746 1.5989819e-38 336 267
0.021430992 0.71899998 -0.03403746 1.5989819e-38 337 267
0.022691639 0.71899998 -0.03403746 1.6172425e-38 338 267
0.024052227 0.722 -0.034179479 1.6080229e-38 339 267
0.025248 0.72000003 -0.034084801 1.617243e-38 340 267
0.026510401 0.72000003 -0.034084801 1.6356822e-38 341 267
0.027734226 0.71899998 -0.03403746 1.5713968e-38 342 267
0.028994869 0.71899998 -0.03403746 1.5713968e-38 343 267
0.0302976 0.72000003 -0.034084801 1.5528859e-38 344 267
0.031647664 0.722 -0.034179479 1.5621056e-38 345 267
0.032913569 0.722 -0.034179479 1.5254434e-38 346 267
0.034179479 0.722 -0.034179479 1.5623575e-38 347 267
0.035445385 0.722 -0.034179479 1.5349147e-38 348 267
0.036762137 0.72299999 -0.03422682 1.5441344e-38 349 267
-0.039569225 0.72799999 -0.035739943 1.2606679e-38 289 268
-0.038292799 0.72799999 -0.035739943 1.7376359e-38 290 268
-0.036965527 0.727 -0.035690852 1.6915381e-38 291 268
-0.035690852 0.727 -0.035690852 1.6546228e-38 292 268
-0.034321502 0.72500002 -0.035592668 1.5900859e-38 293 268
-0.032913569 0.722 -0.035445385 1.6264979e-38 294 268
-0.031647664 0.722 -0.035445385 1.6172425e-38 295 268
-0.030381758 0.722 -0.035445385 1.6171712e-38 296 268
-0.029035201 0.72000003 -0.035347197 1.6355743e-38 297 268
-0.027772799 0.72000003 -0.035347197 1.6080232e-38 298 268
-0.026510401 0.72000003 -0.035347197 1.6264623e-38 299 268
-0.025248 0.72000003 -0.035347197 1.6264976e-38 300 268
-0.023952285 0.71899998 -0.035298105 1.6264976e-38 301 268
-0.022691639 0.71899998 -0.035298105 1.6356819e-38 302 268
-0.021460801 0.72000003 -0.035347197 1.6725601e-38 303 268
-0.020198401 0.72000003 -0.035347197 1.6542655e-38 304 268
-0.018935999 0.72000003 -0.035347197 1.6911439e-38 305 268
-0.017673599 0.72000003 -0.035347197 1.644974e-38 306 268
-0.0164112 0.72000003 -0.035347197 1.6172793e-38 307 268
-0.015190879 0.722 -0.035445385 1.5712524e-38 308 268
-0.013924973 0.722 -0.035445385 1.5527774e-38 309 268
-0.012624 0.72000003 -0.035347197 1.543486e-38 310 268
-0.011361601 0.72000003 -0.035347197 1.543486e-38 311 268
-0.010127253 0.722 -0.035445385 1.5159364e-38 312 268
-0.0088613462 0.722 -0.035445385 1.5159364e-38 313 268
-0.0075954394 0.722 -0.035445385 1.4883857e-38 314 268
0.0062769335 0.71600002 -0.035150826 1.4791304e-38 325 268
0.00753232 0.71600002 -0.035150826 1.4792737e-38 326 268
0.0087877065 0.71600002 -0.035150826 1.5069323e-38 327 268
0.01005712 0.71700001 -0.035199918 1.5254064e-38 328 268
0.01129848 0.71600002 -0.035150826 1.5346261e-38 329 268
0.012553867 0.71600002 -0.035150826 1.5621772e-38 330 268
0.013809253 0.71600002 -0.035150826 1.5621772e-38 331 268
0.01506464 0.71600002 -0.035150826 1.5438112e-38 332 268
0.016320027 0.71600002 -0.035150826 1.5345558e-38 333 268
0.017575413 0.71600002 -0.035150826 1.534663e-38 334 268
0.0188308 0.71600002 -0.035150826 1.534663e-38 335 268
0.020086186 0.71600002 -0.035150826 1.5529932e-38 336 268
0.021281958 0.71399999 -0.035052639 1.5529932e-38 337 268
0.022533838 0.71399999 -0.035052639 1.5895486e-38 338 268
0.0239856 0.72000003 -0.035347197 1.5987683e-38 339 268
0.025212931 0.71899998 -0.035298105 1.5529229e-38 340 268
0.02647358 0.71899998 -0.035298105 1.5529229e-38 341 268
0.027657079 0.71700001 -0.035199918 1.5528509e-38 342 268
0.028914221 0.71700001 -0.035199918 1.5528509e-38 343 268
0.030255521 0.71899998 -0.035298105 1.5437029e-38 344 268
0.03156 0.72000003 -0.035347197 1.5437029e-38 345 268
0.032913569 0.722 -0.035445385 1.516332e-38 346 268
0.034179479 0.722 -0.035445385 1.5439547e-38 347 268
0.035494477 0.72299999 -0.035494477 1.5073286e-38 348 268
0.036762137 0.72299999 -0.035494477 1.5257678e-38 349 268
-0.040845651 0.72799999 -0.037016369 1.7124268e-38 288 269
-0.039569225 0.72799999 -0.037016369 1.3067659e-38 289 269
-0.038240198 0.727 -0.036965527 1.7470003e-38 290 269
-0.036863834 0.72500002 -0.036863834 1.6640241e-38 291 269
-0.035592668 0.72500002 -0.036863834 1.6638075e-38 292 269
-0.03422682 0.72299999 -0.036762137 1.5992705e-38 293 269
-0.032913569 0.722 -0.03671129 1.608203e-38 294 269
-0.031647664 0.722 -0.03671129 1.5989834e-38 295 269
-0.030381758 0.722 -0.03671129 1.6264626e-38 296 269
-0.029035201 0.72000003 -0.036609601 1.6264626e-38 297 269
-0.027734226 0.71899998 -0.036558751 1.6264623e-38 298 269
-0.02647358 0.71899998 -0.036558751 1.6356819e-38 299 269
-0.025212931 0.71899998 -0.036558751 1.6357888e-38 300 269
-0.02388566 0.71700001 -0.036457058 1.6265692e-38 301 269
-0.02262852 0.71700001 -0.036457058 1.6358244e-38 302 269
-0.021371379 0.71700001 -0.036457058 1.6358244e-38 303 269
-0.020114239 0.71700001 -0.036457058 1.6264626e-38 304 269
-0.018857099 0.71700001 -0.036457058 1.6264626e-38 305 269
-0.017599959 0.71700001 -0.036457058 1.5989484e-38 306 269
-0.0164112 0.72000003 -0.036609601 1.5804734e-38 307 269
-0.015190879 0.722 -0.03671129 1.5804721e-38 308 269
-0.013924973 0.722 -0.03671129 1.5620329e-38 309 269
-0.012659066 0.722 -0.03671129 1.552813e-38 310 269
-0.01139316 0.722 -0.03671129 1.552813e-38 311 269
0.0062769335 0.71600002 -0.036406212 1.4793087e-38 325 269
0.00753232 0.71600002 -0.036406212 1.4976758e-38 326 269
0.0087877065 0.71600002 -0.036406212 1.516115e-38 327 269
0.01005712 0.71700001 -0.036457058 1.5254785e-38 328 269
0.01129848 0.71600002 -0.036406212 1.534698e-38 329 269
0.012518799 0.71399999 -0.036304519 1.5438457e-38 330 269
0.013751393 0.713 -0.036253672 1.5161869e-38 331 269
0.015001519 0.713 -0.036253672 1.5344109e-38 332 269
0.016320027 0.71600002 -0.036406212 1.5344109e-38 333 269
0.017575413 0.71600002 -0.036406212 1.534339e-38 334 269
0.0188308 0.71600002 -0.036406212 1.552778e-38 335 269
0.020086186 0.71600002 -0.036406212 1.534339e-38 336 269
0.021281958 0.71399999 -0.036304519 1.534339e-38 337 269
0.022533838 0.71399999 -0.036304519 1.5527424e-38 338 269
0.0239856 0.72000003 -0.036609601 1.5527424e-38 339 269
0.025212931 0.71899998 -0.036558751 1.5344831e-38 340 269
0.02639994 0.71700001 -0.036457058 1.5160799e-38 341 269
0.027657079 0.71700001 -0.036457058 1.5344112e-38 342 269
0.028914221 0.71700001 -0.036457058 1.5344112e-38 343 269
0.030171359 0.71700001 -0.036457058 1.506932e-38 344 269
0.031516165 0.71899998 -0.036558751 1.5161515e-38 345 269
0.032913569 0.722 -0.03671129 1.5071122e-38 346 269
0.034179479 0.722 -0.03671129 1.5255513e-38 347 269
0.035494477 0.72299999 -0.036762137 1.5072564e-38 348 269
0.036762137 0.72299999 -0.036762137 1.5256954e-38 349 269
0.038240198 0.727 -0.036965527 1.5168002e-38 350 269
-0.042295661 0.73100001 -0.038450599 1.6961478e-38 287 270
-0.040845651 0.72799999 -0.038292799 1.6940956e-38 288 270
-0.039569225 0.72799999 -0.038292799 1.2607401e-38 289 270
-0.038240198 0.727 -0.038240198 1.7193059e-38 290 270
-0.036863834 0.72500002 -0.038135 1.6363659e-38 291 270
-0.035592668 0.72500002 -0.038135 1.663592e-38 292 270
-0.03422682 0.72299999 -0.038029801 1.6359693e-38 293 270
-0.032913569 0.722 -0.0379772 1.6174943e-38 294 270
-0.031647664 0.722 -0.0379772 1.599055e-38 295 270
-0.0302976 0.72000003 -0.037871998 1.6174225e-38 296 270
-0.029035201 0.72000003 -0.037871998 1.608203e-38 297 270
-0.027734226 0.71899998 -0.037819397 1.6265695e-38 298 270
-0.02647358 0.71899998 -0.037819397 1.6265695e-38 299 270
-0.025212931 0.71899998 -0.037819397 1.6357888e-38 300 270
-0.023852346 0.71600002 -0.037661601 1.6265692e-38 301 270
-0.022596961 0.71600002 -0.037661601 1.6448289e-38 302 270
-0.021341572 0.71600002 -0.037661601 1.6448289e-38 303 270
-0.020086186 0.71600002 -0.037661601 1.6079879e-38 304 270
-0.018778199 0.71399999 -0.037556399 1.6079879e-38 305 270
-0.017526319 0.71399999 -0.037556399 1.6079879e-38 306 270
-0.016320027 0.71600002 -0.037661601 1.6079879e-38 307 270
-0.015085679 0.71700001 -0.037714198 1.5896914e-38 308 270
0.0087877065 0.71600002 -0.037661601 1.5161869e-38 327 270
0.010043093 0.71600002 -0.037661601 1.5344828e-38 328 270
0.01129848 0.71600002 -0.037661601 1.5344828e-38 329 270
0.0124662 0.71100003 -0.037398599 1.552778e-38 330 270
0.01371282 0.71100003 -0.037398599 1.552778e-38 331 270
0.015001519 0.713 -0.037503798 1.5251913e-38 332 270
0.016251646 0.713 -0.037503798 1.5344109e-38 333 270
0.017501773 0.713 -0.037503798 1.5251916e-38 334 270
0.018672999 0.70999998 -0.037345998 1.515972e-38 335 270
0.020254506 0.722 -0.0379772 1.5251916e-38 336 270
0.021520413 0.722 -0.0379772 1.5344112e-38 337 270
0.022786319 0.722 -0.0379772 1.5253714e-38 338 270
0.0239856 0.72000003 -0.037871998 1.5161518e-38 339 270
0.0251428 0.71700001 -0.037714198 1.5161515e-38 340 270
0.02639994 0.71700001 -0.037714198 1.5161515e-38 341 270
0.027657079 0.71700001 -0.037714198 1.5161869e-38 342 270
0.028914221 0.71700001 -0.037714198 1.5161869e-38 343 270
0.030171359 0.71700001 -0.037714198 1.5069317e-38 344 270
0.031428497 0.71700001 -0.037714198 1.5254067e-38 345 270
0.0328224 0.72000003 -0.037871998 1.4979642e-38 346 270
0.034179479 0.722 -0.0379772 1.4979642e-38 347 270
0.035494477 0.72299999 -0.038029801 1.5071485e-38 348 270
0.036762137 0.72299999 -0.038029801 1.5256235e-38 349 270
0.038240198 0.727 -0.038240198 1.5075804e-38 350 270
-0.042295661 0.73100001 -0.039732285 1.7236988e-38 287 271
-0.040957868 0.73000002 -0.039677933 1.7032065e-38 288 271
-0.039569225 0.72799999 -0.039569225 1.2422284e-38 289 271
-0.038240198 0.727 -0.039514873 1.6732438e-38 290 271
-0.036863834 0.72500002 -0.039406165 1.627146e-38 291 271
-0.035494477 0.72299999 -0.039297458 1.6544803e-38 292 271
-0.034179479 0.722 -0.039243106 1.6360412e-38 293 271
-0.0328224 0.72000003 -0.039134402 1.6084182e-38 294 271
-0.03156 0.72000003 -0.039134402 1.589979e-38 295 271
-0.030255521 0.71899998 -0.039080046 1.6082027e-38 296 271
-0.028994869 0.71899998 -0.039080046 1.6082027e-38 297 271
-0.027772799 0.72000003 -0.039134402 1.6265695e-38 298 271
-0.026510401 0.72000003 -0.039134402 1.6265695e-38 299 271
-0.025107734 0.71600002 -0.038916986 1.6264974e-38 300 271
-0.023852346 0.71600002 -0.038916986 1.6357528e-38 301 271
-0.022596961 0.71600002 -0.038916986 1.6264976e-38 302 271
-0.021281958 0.71399999 -0.038808275 1.5988031e-38 303 271
-0.020030079 0.71399999 -0.038808275 1.5895118e-38 304 271
-0.018778199 0.71399999 -0.038808275 1.607951e-38 305 271
-0.017501773 0.713 -0.038753927 1.5988034e-38 306 271
-0.016251646 0.713 -0.038753927 1.5988034e-38 307 271
-0.015001519 0.713 -0.038753927 1.5804721e-38 308 271
0.0099308798 0.708 -0.038482159 1.5527061e-38 328 271
0.011203799 0.70999998 -0.038590867 1.5527061e-38 329 271
0.012448666 0.70999998 -0.038590867 1.5527058e-38 330 271
0.013693533 0.70999998 -0.038590867 1.5619254e-38 331 271
0.014938398 0.70999998 -0.038590867 1.5161147e-38 332 271
0.01613768 0.708 -0.038482159 1.5161147e-38 333 271
0.017428132 0.70999998 -0.038590867 1.5344818e-38 334 271
0.018672999 0.70999998 -0.038590867 1.5252264e-38 335 271
0.019917866 0.70999998 -0.038590867 1.5161153e-38 336 271
0.021520413 0.722 -0.039243106 1.5437379e-38 337 271
0.022786319 0.722 -0.039243106 1.516259e-38 338 271
0.023952285 0.71899998 -0.039080046 1.5254787e-38 339 271
0.0251428 0.71700001 -0.038971342 1.5162585e-38 340 271
0.02639994 0.71700001 -0.038971342 1.5162585e-38 341 271
0.027618507 0.71600002 -0.038916986 1.5162219e-38 342 271
0.028873893 0.71600002 -0.038916986 1.5070023e-38 343 271
0.03012928 0.71600002 -0.038916986 1.4978556e-38 344 271
0.031428497 0.71700001 -0.038971342 1.4978556e-38 345 271
0.032776814 0.71899998 -0.039080046 1.4703058e-38 346 271
