# .PCD v.7 - Point Cloud Data file format
FIELDS x y z rgb imX imY
SIZE 4 4 4 4 4 4
TYPE F F F F F F
COUNT 1 1 1 1 1 1
WIDTH 836
HEIGHT 1
VIEWPOINT 0 0 0 1 0 0 0
POINTS 836
DATA ascii
0 0.73400003 -0.036034506 1.6035027e-38 320 268
0.0012869467 0.73400003 -0.036034506 1.5942832e-38 321 268
0.0025738934 0.73400003 -0.036034506 1.5942479e-38 322 268
0.0038608401 0.73400003 -0.036034506 1.6034674e-38 323 268
0.0051477868 0.73400003 -0.036034506 1.5851375e-38 324 268
0.006434733 0.73400003 -0.036034506 1.5759179e-38 325 268
0.0077427197 0.736 -0.036132693 1.5759182e-38 326 268
0.0090331733 0.736 -0.036132693 1.5851378e-38 327 268
0.010323626 0.736 -0.036132693 1.5851725e-38 328 268
0.011645639 0.73799998 -0.036230877 1.5851725e-38 329 268
0.012939599 0.73799998 -0.036230877 1.5943558e-38 330 268
0.014233559 0.73799998 -0.036230877 1.5943558e-38 331 268
0.015485439 0.736 -0.036132693 1.5668062e-38 332 268
0.016775893 0.736 -0.036132693 1.5760258e-38 333 268
0.018017253 0.73400003 -0.036034506 1.5760641e-38 334 268
0.019304199 0.73400003 -0.036034506 1.5576608e-38 335 268
0.020506985 0.73100001 -0.035887226 1.5118211e-38 336 268
0.021788673 0.73100001 -0.035887226 1.6224559e-38 337 268
-0.045472696 0.741 -0.037677377 1.5286504e-38 285 269
-0.044173479 0.741 -0.037677377 1.6112289e-38 286 269
-0.042874258 0.741 -0.037677377 1.6296321e-38 287 269
-0.041575037 0.741 -0.037677377 1.5844643e-38 288 269
-0.04027582 0.741 -0.037677377 1.6674404e-38 289 269
-0.0388714 0.73900002 -0.037575684 1.6219479e-38 290 269
-0.037321456 0.73400003 -0.037321456 1.6219479e-38 291 269
-0.036034506 0.73400003 -0.037321456 1.5945019e-38 292 269
-0.034700219 0.73299998 -0.037270606 1.5945019e-38 293 269
-0.033415023 0.73299998 -0.037270606 1.6036842e-38 294 269
-0.032042164 0.73100001 -0.037168913 1.5944645e-38 295 269
-0.03076048 0.73100001 -0.037168913 1.6036125e-38 296 269
-0.029478792 0.73100001 -0.037168913 1.594357e-38 297 269
-0.028197108 0.73100001 -0.037168913 1.5943939e-38 298 269
-0.026915418 0.73100001 -0.037168913 1.5759908e-38 299 269
-0.025633732 0.73100001 -0.037168913 1.6035772e-38 300 269
-0.024352046 0.73100001 -0.037168913 1.5943576e-38 301 269
-0.023133477 0.73299998 -0.037270606 1.5943926e-38 302 269
-0.021848286 0.73299998 -0.037270606 1.5943926e-38 303 269
-0.020563092 0.73299998 -0.037270606 1.594357e-38 304 269
-0.019277899 0.73299998 -0.037270606 1.594357e-38 305 269
-0.017943613 0.73100001 -0.037168913 1.5943573e-38 306 269
-0.016639132 0.73000002 -0.037118066 1.5851378e-38 307 269
-0.0153592 0.73000002 -0.037118066 1.5850303e-38 308 269
-0.014098554 0.73100001 -0.037168913 1.5850303e-38 309 269
-0.012851933 0.73299998 -0.037270606 1.5758826e-38 310 269
-0.011582521 0.73400003 -0.037321456 1.5758826e-38 311 269
-0.010295574 0.73400003 -0.037321456 1.5759182e-38 312 269
-0.0090331733 0.736 -0.037423145 1.5759182e-38 313 269
-0.0077427197 0.736 -0.037423145 1.5851012e-38 314 269
-0.006434733 0.73400003 -0.037321456 1.5943207e-38 315 269
-0.0051477868 0.73400003 -0.037321456 1.5851362e-38 316 269
-0.0038608401 0.73400003 -0.037321456 1.5759166e-38 317 269
-0.0025703865 0.73299998 -0.037270606 1.6034672e-38 318 269
-0.0012816866 0.73100001 -0.037168913 1.6034672e-38 319 269
0 0.73100001 -0.037168913 1.5851359e-38 320 269
0.0012816866 0.73100001 -0.037168913 1.5851359e-38 321 269
0.0025633732 0.73100001 -0.037168913 1.5758811e-38 322 269
0.0038555798 0.73299998 -0.037270606 1.5851006e-38 323 269
0.005140773 0.73299998 -0.037270606 1.5759176e-38 324 269
0.006408433 0.73100001 -0.037168913 1.5759176e-38 325 269
0.00769012 0.73100001 -0.037168913 1.5759176e-38 326 269
0.0090086265 0.73400003 -0.037321456 1.5759176e-38 327 269
0.010295574 0.73400003 -0.037321456 1.5852081e-38 328 269
0.01161408 0.736 -0.037423145 1.5944277e-38 329 269
0.012904533 0.736 -0.037423145 1.5944277e-38 330 269
0.014156413 0.73400003 -0.037321456 1.5852081e-38 331 269
0.01544336 0.73400003 -0.037321456 1.5851725e-38 332 269
0.016730307 0.73400003 -0.037321456 1.5944279e-38 333 269
0.017919067 0.73000002 -0.037118066 1.5759905e-38 334 269
0.019199001 0.73000002 -0.037118066 1.5944295e-38 335 269
0.020478934 0.73000002 -0.037118066 1.530006e-38 336 269
0.021758866 0.73000002 -0.037118066 1.6129821e-38 337 269
0.023038799 0.73000002 -0.037118066 1.6040217e-38 338 269
0.024318734 0.73000002 -0.037118066 1.677814e-38 339 269
-0.045840897 0.74699998 -0.039292198 1.4918445e-38 285 270
-0.044173479 0.741 -0.038976599 1.6202697e-38 286 270
-0.042874258 0.741 -0.038976599 1.6202697e-38 287 270
-0.041575037 0.741 -0.038976599 1.574887e-38 288 270
-0.04027582 0.741 -0.038976599 1.6670827e-38 289 270
-0.0388714 0.73900002 -0.0388714 1.5942909e-38 290 270
-0.037423145 0.736 -0.038713597 1.6035463e-38 291 270
-0.036034506 0.73400003 -0.038608398 1.6128334e-38 292 270
-0.034700219 0.73299998 -0.038555797 1.6128334e-38 293 270
-0.033323854 0.73100001 -0.038450599 1.6129035e-38 294 270
-0.031998333 0.73000002 -0.038398001 1.5944642e-38 295 270
-0.030718399 0.73000002 -0.038398001 1.6219434e-38 296 270
-0.029438468 0.73000002 -0.038398001 1.6219434e-38 297 270
-0.028158534 0.73000002 -0.038398001 1.6035769e-38 298 270
-0.026878599 0.73000002 -0.038398001 1.6035769e-38 299 270
-0.025598666 0.73000002 -0.038398001 1.5943573e-38 300 270
-0.024318734 0.73000002 -0.038398001 1.5943573e-38 301 270
-0.023038799 0.73000002 -0.038398001 1.5943573e-38 302 270
-0.021758866 0.73000002 -0.038398001 1.5943573e-38 303 270
-0.020506985 0.73100001 -0.038450599 1.6126532e-38 304 270
-0.019199001 0.73000002 -0.038398001 1.6126532e-38 305 270
-0.017919067 0.73000002 -0.038398001 1.5942501e-38 306 270
-0.016593546 0.72799999 -0.038292799 1.5850306e-38 307 270
-0.01531712 0.72799999 -0.038292799 1.5850303e-38 308 270
-0.014040692 0.72799999 -0.038292799 1.5758107e-38 309 270
-0.012799333 0.73000002 -0.038398001 1.5758826e-38 310 270
-0.01153518 0.73100001 -0.038450599 1.5758826e-38 311 270
-0.010253493 0.73100001 -0.038450599 1.5851375e-38 312 270
-0.0090086265 0.73400003 -0.038608398 1.5759179e-38 313 270
-0.0077216802 0.73400003 -0.038608398 1.5944279e-38 314 270
-0.006434733 0.73400003 -0.038608398 1.5851725e-38 315 270
-0.005140773 0.73299998 -0.038555797 1.5943558e-38 316 270
-0.0038555798 0.73299998 -0.038555797 1.5851362e-38 317 270
-0.0025633732 0.73100001 -0.038450599 1.5943561e-38 318 270
-0.0012816866 0.73100001 -0.038450599 1.5943561e-38 319 270
0 0.73000002 -0.038398001 1.5851728e-38 320 270
0.0012799334 0.73000002 -0.038398001 1.5851728e-38 321 270
0.0025598668 0.73000002 -0.038398001 1.5851728e-38 322 270
0.00384506 0.73100001 -0.038450599 1.5759532e-38 323 270
0.0051197335 0.73000002 -0.038398001 1.5851012e-38 324 270
0.0063996664 0.73000002 -0.038398001 1.5851012e-38 325 270
0.0076795998 0.73000002 -0.038398001 1.5850656e-38 326 270
0.0089718066 0.73100001 -0.038450599 1.5942851e-38 327 270
0.010281546 0.73299998 -0.038555797 1.5851725e-38 328 270
0.011582521 0.73400003 -0.038608398 1.5944279e-38 329 270
0.012869466 0.73400003 -0.038608398 1.5943558e-38 330 270
0.014137126 0.73299998 -0.038555797 1.5943558e-38 331 270
0.015422319 0.73299998 -0.038555797 1.5668413e-38 332 270
0.016639132 0.73000002 -0.038398001 1.5760608e-38 333 270
0.017869972 0.72799999 -0.038292799 1.5760261e-38 334 270
0.0191464 0.72799999 -0.038292799 1.5760261e-38 335 270
0.020422826 0.72799999 -0.038292799 1.5483712e-38 336 270
0.021699252 0.72799999 -0.038292799 1.5944331e-38 337 270
0.022975679 0.72799999 -0.038292799 1.5395904e-38 338 270
0.024252106 0.72799999 -0.038292799 1.6318219e-38 339 270
0.025528532 0.72799999 -0.038292799 1.6226431e-38 340 270
-0.045840897 0.74699998 -0.040601939 1.4735851e-38 285 271
-0.044531155 0.74699998 -0.040601939 1.5927911e-38 286 271
-0.043047838 0.74400002 -0.040438879 1.5743521e-38 287 271
-0.041631144 0.74199998 -0.040330172 1.5838561e-38 288 271
-0.04027582 0.741 -0.04027582 1.6576485e-38 289 271
-0.038818799 0.73799998 -0.040112756 1.5941126e-38 290 271
-0.037321456 0.73400003 -0.039895348 1.6310268e-38 291 271
-0.035985414 0.73299998 -0.039840993 1.6221252e-38 292 271
-0.034605537 0.73100001 -0.039732285 1.5945025e-38 293 271
-0.033278264 0.73000002 -0.039677933 1.6129388e-38 294 271
-0.031910665 0.72799999 -0.039569225 1.5944995e-38 295 271
-0.030634239 0.72799999 -0.039569225 1.6311264e-38 296 271
-0.029357811 0.72799999 -0.039569225 1.6219068e-38 297 271
-0.028081384 0.72799999 -0.039569225 1.6127239e-38 298 271
-0.026804959 0.72799999 -0.039569225 1.5943207e-38 299 271
-0.025528532 0.72799999 -0.039569225 1.6126522e-38 300 271
-0.024252106 0.72799999 -0.039569225 1.6126522e-38 301 271
-0.022975679 0.72799999 -0.039569225 1.6125813e-38 302 271
-0.021699252 0.72799999 -0.039569225 1.6125813e-38 303 271
-0.020422826 0.72799999 -0.039569225 1.6033621e-38 304 271
-0.0191464 0.72799999 -0.039569225 1.6033621e-38 305 271
-0.017845426 0.727 -0.039514873 1.5850306e-38 306 271
-0.016525166 0.72500002 -0.039406165 1.5850306e-38 307 271
-0.015254001 0.72500002 -0.039406165 1.5758463e-38 308 271
-0.013982833 0.72500002 -0.039406165 1.5850659e-38 309 271
-0.012746733 0.727 -0.039514873 1.5759176e-38 310 271
-0.01148784 0.72799999 -0.039569225 1.5759176e-38 311 271
-0.010211413 0.72799999 -0.039569225 1.566806e-38 312 271
-0.0089349858 0.72799999 -0.039569225 1.566806e-38 313 271
-0.0076585598 0.72799999 -0.039569225 1.5760611e-38 314 271
-0.0063996664 0.73000002 -0.039677933 1.5668416e-38 315 271
-0.0051267464 0.73100001 -0.039732285 1.5943558e-38 316 271
-0.00384506 0.73100001 -0.039732285 1.5943558e-38 317 271
-0.0025633732 0.73100001 -0.039732285 1.5851012e-38 318 271
-0.0012799334 0.73000002 -0.039677933 1.5943207e-38 319 271
0 0.72799999 -0.039569225 1.5667709e-38 320 271
0.0012764266 0.72799999 -0.039569225 1.5667709e-38 321 271
0.0025528532 0.72799999 -0.039569225 1.5851378e-38 322 271
0.0038292799 0.72799999 -0.039569225 1.5851378e-38 323 271
0.0051057064 0.72799999 -0.039569225 1.5850659e-38 324 271
0.0063733663 0.727 -0.039514873 1.5850659e-38 325 271
0.0076480396 0.727 -0.039514873 1.5850659e-38 326 271
0.0089227129 0.727 -0.039514873 1.5942854e-38 327 271
0.010211413 0.72799999 -0.039569225 1.5851375e-38 328 271
0.01147206 0.727 -0.039514873 1.5851375e-38 329 271
0.012746733 0.727 -0.039514873 1.5851728e-38 330 271
0.014021406 0.727 -0.039514873 1.5851728e-38 331 271
0.015296079 0.727 -0.039514873 1.5851728e-38 332 271
0.016570752 0.727 -0.039514873 1.5851728e-38 333 271
0.017845426 0.727 -0.039514873 1.5668065e-38 334 271
0.019120099 0.727 -0.039514873 1.5760261e-38 335 271
0.020394772 0.727 -0.039514873 1.5576608e-38 336 271
0.021609833 0.72500002 -0.039406165 1.5576608e-38 337 271
0.022880999 0.72500002 -0.039406165 1.5302597e-38 338 271
0.024152167 0.72500002 -0.039406165 1.6132357e-38 339 271
0.025423333 0.72500002 -0.039406165 1.5858355e-38 340 271
0.026694499 0.72500002 -0.039406165 1.6411528e-38 341 271
-0.045840897 0.74699998 -0.041911677 1.4093352e-38 285 272
-0.044471547 0.74599999 -0.04185557 1.5743521e-38 286 272
-0.04316356 0.74599999 -0.04185557 1.5651324e-38 287 272
-0.041631144 0.74199998 -0.041631144 1.5837492e-38 288 272
-0.04027582 0.741 -0.041575037 1.6298469e-38 289 272
-0.038818799 0.73799998 -0.041406717 1.6030101e-38 290 272
-0.037321456 0.73400003 -0.041182294 1.6583274e-38 291 272
-0.035985414 0.73299998 -0.041126184 1.6219829e-38 292 272
-0.034558199 0.73000002 -0.040957868 1.6312025e-38 293 272
-0.033187091 0.72799999 -0.040845651 1.6037571e-38 294 272
-0.031910665 0.72799999 -0.040845651 1.5945375e-38 295 272
-0.030592158 0.727 -0.040789545 1.6128319e-38 296 272
-0.029317487 0.727 -0.040789545 1.5943926e-38 297 272
-0.027965667 0.72500002 -0.040677335 1.612687e-38 298 272
-0.026694499 0.72500002 -0.040677335 1.612687e-38 299 272
-0.025423333 0.72500002 -0.040677335 1.5943558e-38 300 272
-0.024152167 0.72500002 -0.040677335 1.5943558e-38 301 272
-0.02281788 0.72299999 -0.040565118 1.6034324e-38 302 272
-0.021550218 0.72299999 -0.040565118 1.6034324e-38 303 272
-0.020338668 0.72500002 -0.040677335 1.6033974e-38 304 272
-0.0190675 0.72500002 -0.040677335 1.5941419e-38 305 272
-0.017796334 0.72500002 -0.040677335 1.6033971e-38 306 272
-0.01647958 0.72299999 -0.040565118 1.6033971e-38 307 272
-0.015211919 0.72299999 -0.040565118 1.5759179e-38 308 272
-0.01394426 0.72299999 -0.040565118 1.5759179e-38 309 272
-0.012676599 0.72299999 -0.040565118 1.5851012e-38 310 272
-0.0114405 0.72500002 -0.040677335 1.5851012e-38 311 272
-0.010169334 0.72500002 -0.040677335 1.5851728e-38 312 272
-0.0089227129 0.727 -0.040789545 1.5851728e-38 313 272
-0.0076480396 0.727 -0.040789545 1.5851725e-38 314 272
-0.0063821329 0.72799999 -0.040845651 1.5851725e-38 315 272
-0.0051197335 0.73000002 -0.040957868 1.6126873e-38 316 272
-0.0038397999 0.73000002 -0.040957868 1.6034677e-38 317 272
-0.0025528532 0.72799999 -0.040845651 1.5850656e-38 318 272
-0.0012764266 0.72799999 -0.040845651 1.5850656e-38 319 272
0 0.727 -0.040789545 1.5850306e-38 320 272
0.0012746733 0.727 -0.040789545 1.5850306e-38 321 272
0.0025493465 0.727 -0.040789545 1.5850303e-38 322 272
0.0038240198 0.727 -0.040789545 1.5850303e-38 323 272
0.0050846669 0.72500002 -0.040677335 1.5850656e-38 324 272
0.0063558333 0.72500002 -0.040677335 1.5850656e-38 325 272
0.0076270006 0.72500002 -0.040677335 1.5851375e-38 326 272
0.0088981669 0.72500002 -0.040677335 1.5851375e-38 327 272
0.010169334 0.72500002 -0.040677335 1.566806e-38 328 272
0.0114405 0.72500002 -0.040677335 1.566806e-38 329 272
0.012676599 0.72299999 -0.040565118 1.5851006e-38 330 272
0.01394426 0.72299999 -0.040565118 1.5943561e-38 331 272
0.015211919 0.72299999 -0.040565118 1.5943207e-38 332 272
0.016525166 0.72500002 -0.040677335 1.5943207e-38 333 272
0.017796334 0.72500002 -0.040677335 1.5851375e-38 334 272
0.0190675 0.72500002 -0.040677335 1.5851375e-38 335 272
0.020338668 0.72500002 -0.040677335 1.5759905e-38 336 272
0.021550218 0.72299999 -0.040565118 1.5759905e-38 337 272
0.02281788 0.72299999 -0.040565118 1.5485527e-38 338 272
0.024085538 0.72299999 -0.040565118 1.60387e-38 339 272
0.025353199 0.72299999 -0.040565118 1.5489552e-38 340 272
0.026620859 0.72299999 -0.040565118 1.6319315e-38 341 272
-0.044471547 0.74599999 -0.04316356 1.5285783e-38 286 273
-0.04316356 0.74599999 -0.04316356 1.510139e-38 287 273
-0.041631144 0.74199998 -0.042932119 1.5561278e-38 288 273
-0.04027582 0.741 -0.042874258 1.5745668e-38 289 273
-0.0388714 0.73900002 -0.042758539 1.5658825e-38 290 273
-0.037575684 0.73900002 -0.042758539 1.6396392e-38 291 273
-0.035985414 0.73299998 -0.042411376 1.566777e-38 292 273
-0.034463517 0.72799999 -0.042122077 1.5852161e-38 293 273
-0.033187091 0.72799999 -0.042122077 1.5945391e-38 294 273
-0.03186683 0.727 -0.042064216 1.5853195e-38 295 273
-0.030592158 0.727 -0.042064216 1.6129024e-38 296 273
-0.029236834 0.72500002 -0.041948501 1.5944274e-38 297 273
-0.02788852 0.72299999 -0.041832779 1.6310889e-38 298 273
-0.026620859 0.72299999 -0.041832779 1.6310889e-38 299 273
-0.025353199 0.72299999 -0.041832779 1.6310172e-38 300 273
-0.024085538 0.72299999 -0.041832779 1.6402368e-38 301 273
-0.022786319 0.722 -0.041774917 1.6034672e-38 302 273
-0.021520413 0.722 -0.041774917 1.6034672e-38 303 273
-0.020254506 0.722 -0.041774917 1.5851009e-38 304 273
-0.019014901 0.72299999 -0.041832779 1.5851009e-38 305 273
-0.017747238 0.72299999 -0.041832779 1.6034324e-38 306 273
-0.016456785 0.722 -0.041774917 1.6034324e-38 307 273
-0.015190879 0.722 -0.041774917 1.5850656e-38 308 273
-0.013924973 0.722 -0.041774917 1.5850656e-38 309 273
-0.012659066 0.722 -0.041774917 1.5759182e-38 310 273
-0.01139316 0.722 -0.041774917 1.5851378e-38 311 273
-0.01014128 0.72299999 -0.041832779 1.5851375e-38 312 273
-0.0088736191 0.72299999 -0.041832779 1.5851375e-38 313 273
-0.0076059597 0.72299999 -0.041832779 1.566806e-38 314 273
-0.0063558333 0.72500002 -0.041948501 1.566806e-38 315 273
-0.0050986931 0.727 -0.042064216 1.5851725e-38 316 273
-0.0038240198 0.727 -0.042064216 1.5759529e-38 317 273
-0.0025493465 0.727 -0.042064216 1.5851012e-38 318 273
-0.0012711667 0.72500002 -0.041948501 1.5943207e-38 319 273
0 0.72299999 -0.041832779 1.5850306e-38 320 273
0.0012676599 0.72299999 -0.041832779 1.5850306e-38 321 273
0.0025318132 0.722 -0.041774917 1.5850303e-38 322 273
0.0037977197 0.722 -0.041774917 1.5850303e-38 323 273
0.0050636264 0.722 -0.041774917 1.5759182e-38 324 273
0.0063295332 0.722 -0.041774917 1.5759182e-38 325 273
0.0075954394 0.722 -0.041774917 1.5575867e-38 326 273
0.0088613462 0.722 -0.041774917 1.5575867e-38 327 273
0.010127253 0.722 -0.041774917 1.5851009e-38 328 273
0.01139316 0.722 -0.041774917 1.5851009e-38 329 273
0.012659066 0.722 -0.041774917 1.5759532e-38 330 273
0.0138864 0.72000003 -0.041659199 1.5851728e-38 331 273
0.0151488 0.72000003 -0.041659199 1.5850656e-38 332 273
0.01647958 0.72299999 -0.041832779 1.5942851e-38 333 273
0.017747238 0.72299999 -0.041832779 1.5850659e-38 334 273
0.019014901 0.72299999 -0.041832779 1.5942854e-38 335 273
0.020282559 0.72299999 -0.041832779 1.5759555e-38 336 273
0.021550218 0.72299999 -0.041832779 1.5943586e-38 337 273
0.022786319 0.722 -0.041774917 1.5485155e-38 338 273
0.024052227 0.722 -0.041774917 1.5761741e-38 339 273
0.025353199 0.72299999 -0.041832779 1.5396257e-38 340 273
0.026620859 0.72299999 -0.041832779 1.6041626e-38 341 273
-0.0388714 0.73900002 -0.044054255 1.5563772e-38 290 274
-0.037575684 0.73900002 -0.044054255 1.5932915e-38 291 274
-0.036279973 0.73900002 -0.044054255 1.5848213e-38 292 274
-0.034321502 0.72500002 -0.043219667 1.6216997e-38 293 274
-0.033050332 0.72500002 -0.043219667 1.6220182e-38 294 274
-0.031779166 0.72500002 -0.043219667 1.6220182e-38 295 274
-0.030423839 0.72299999 -0.043100435 1.6129038e-38 296 274
-0.029115854 0.722 -0.043040827 1.5944645e-38 297 274
-0.027772799 0.72000003 -0.042921603 1.6219422e-38 298 274
-0.026510401 0.72000003 -0.042921603 1.6219422e-38 299 274
-0.025248 0.72000003 -0.042921603 1.612722e-38 300 274
-0.0239856 0.72000003 -0.042921603 1.612722e-38 301 274
-0.022723202 0.72000003 -0.042921603 1.5943911e-38 302 274
-0.021460801 0.72000003 -0.042921603 1.5943911e-38 303 274
-0.020254506 0.722 -0.043040827 1.5851728e-38 304 274
-0.0189886 0.722 -0.043040827 1.5759532e-38 305 274
-0.017673599 0.72000003 -0.042921603 1.5850656e-38 306 274
-0.0164112 0.72000003 -0.042921603 1.5942851e-38 307 274
-0.015190879 0.722 -0.043040827 1.5942501e-38 308 274
-0.013924973 0.722 -0.043040827 1.5850306e-38 309 274
-0.012659066 0.722 -0.043040827 1.5759182e-38 310 274
-0.01139316 0.722 -0.043040827 1.5759182e-38 311 274
-0.010127253 0.722 -0.043040827 1.5759179e-38 312 274
-0.0088613462 0.722 -0.043040827 1.5759179e-38 313 274
-0.0075954394 0.722 -0.043040827 1.5758463e-38 314 274
-0.0063382997 0.72299999 -0.043100435 1.5850659e-38 315 274
-0.0050636264 0.722 -0.043040827 1.5851012e-38 316 274
-0.0037977197 0.722 -0.043040827 1.5851012e-38 317 274
-0.0025318132 0.722 -0.043040827 1.5758457e-38 318 274
-0.0012659066 0.722 -0.043040827 1.5851012e-38 319 274
0 0.722 -0.043040827 1.5759182e-38 320 274
0.0012624001 0.72000003 -0.042921603 1.5759182e-38 321 274
0.0025248001 0.72000003 -0.042921603 1.5850303e-38 322 274
0.0037977197 0.722 -0.043040827 1.5850303e-38 323 274
0.0050496003 0.72000003 -0.042921603 1.5759182e-38 324 274
0.0063120001 0.72000003 -0.042921603 1.5759182e-38 325 274
0.0075743999 0.72000003 -0.042921603 1.5759179e-38 326 274
0.0088367993 0.72000003 -0.042921603 1.5759179e-38 327 274
0.010099201 0.72000003 -0.042921603 1.5759532e-38 328 274
0.011361601 0.72000003 -0.042921603 1.5759532e-38 329 274
0.012606465 0.71899998 -0.042861983 1.5759532e-38 330 274
0.013867113 0.71899998 -0.042861983 1.5851728e-38 331 274
0.01512776 0.71899998 -0.042861983 1.5943207e-38 332 274
0.0164112 0.72000003 -0.042921603 1.5851012e-38 333 274
0.017722692 0.722 -0.043040827 1.5851728e-38 334 274
0.0189886 0.722 -0.043040827 1.5759532e-38 335 274
0.020254506 0.722 -0.043040827 1.5851375e-38 336 274
0.021520413 0.722 -0.043040827 1.594357e-38 337 274
0.022786319 0.722 -0.043040827 1.5576961e-38 338 274
0.024052227 0.722 -0.043040827 1.5760994e-38 339 274
0.025353199 0.72299999 -0.043100435 1.5302224e-38 340 274
0.026620859 0.72299999 -0.043100435 1.5855398e-38 341 274
-0.035445385 0.722 -0.044306733 1.5845356e-38 292 275
-0.034179479 0.722 -0.044306733 1.6214499e-38 293 275
-0.032913569 0.722 -0.044306733 1.6036883e-38 294 275
-0.031691495 0.72299999 -0.044368099 1.5944687e-38 295 275
-0.0302976 0.72000003 -0.044183999 1.6220517e-38 296 275
-0.029035201 0.72000003 -0.044183999 1.6128322e-38 297 275
-0.027734226 0.71899998 -0.044122629 1.622014e-38 298 275
-0.02647358 0.71899998 -0.044122629 1.622014e-38 299 275
-0.025212931 0.71899998 -0.044122629 1.6402731e-38 300 275
-0.0239856 0.72000003 -0.044183999 1.6310535e-38 301 275
-0.022691639 0.71899998 -0.044122629 1.6127226e-38 302 275
-0.021430992 0.71899998 -0.044122629 1.6127226e-38 303 275
-0.020114239 0.71700001 -0.043999899 1.5851725e-38 304 275
-0.018857099 0.71700001 -0.043999899 1.5759529e-38 305 275
-0.017599959 0.71700001 -0.043999899 1.5850656e-38 306 275
-0.016388407 0.71899998 -0.044122629 1.5850656e-38 307 275
-0.01512776 0.71899998 -0.044122629 1.5851024e-38 308 275
-0.013828539 0.71700001 -0.043999899 1.5758829e-38 309 275
-0.0125714 0.71700001 -0.043999899 1.5759182e-38 310 275
-0.01131426 0.71700001 -0.043999899 1.5574792e-38 311 275
-0.01005712 0.71700001 -0.043999899 1.575846e-38 312 275
-0.0088245263 0.71899998 -0.044122629 1.575846e-38 313 275
-0.0075638802 0.71899998 -0.044122629 1.5574792e-38 314 275
-0.0063032326 0.71899998 -0.044122629 1.5574792e-38 315 275
-0.0050425865 0.71899998 -0.044122629 1.5574792e-38 316 275
-0.0037819401 0.71899998 -0.044122629 1.5759182e-38 317 275
-0.0025212932 0.71899998 -0.044122629 1.5575511e-38 318 275
-0.0012606466 0.71899998 -0.044122629 1.5575511e-38 319 275
0 0.71899998 -0.044122629 1.5758829e-38 320 275
0.00125714 0.71700001 -0.043999899 1.5758829e-38 321 275
0.0025142799 0.71700001 -0.043999899 1.5942501e-38 322 275
0.0037819401 0.71899998 -0.044122629 1.5850306e-38 323 275
0.0050425865 0.71899998 -0.044122629 1.5758829e-38 324 275
0.0063032326 0.71899998 -0.044122629 1.5758829e-38 325 275
0.0075638802 0.71899998 -0.044122629 1.5758826e-38 326 275
0.0088245263 0.71899998 -0.044122629 1.5758826e-38 327 275
0.010085173 0.71899998 -0.044122629 1.575846e-38 328 275
0.01131426 0.71700001 -0.043999899 1.5850656e-38 329 275
0.0125714 0.71700001 -0.043999899 1.5759179e-38 330 275
0.013828539 0.71700001 -0.043999899 1.5851375e-38 331 275
0.015085679 0.71700001 -0.043999899 1.5851375e-38 332 275
0.016342819 0.71700001 -0.043999899 1.5759179e-38 333 275
0.017599959 0.71700001 -0.043999899 1.5851728e-38 334 275
0.018909698 0.71899998 -0.044122629 1.5759532e-38 335 275
0.020170346 0.71899998 -0.044122629 1.5851378e-38 336 275
0.021460801 0.72000003 -0.044183999 1.5943573e-38 337 275
0.022723202 0.72000003 -0.044183999 1.5759925e-38 338 275
0.0239856 0.72000003 -0.044183999 1.5759925e-38 339 275
0.025248 0.72000003 -0.044183999 1.5300764e-38 340 275
-0.035445385 0.722 -0.045572639 1.5659543e-38 292 276
-0.034179479 0.722 -0.045572639 1.6304912e-38 293 276
-0.032913569 0.722 -0.045572639 1.6219492e-38 294 276
-0.031647664 0.722 -0.045572639 1.6311687e-38 295 276
-0.0302976 0.72000003 -0.045446403 1.6037221e-38 296 276
-0.028873893 0.71600002 -0.045193922 1.6037221e-38 297 276
-0.02754136 0.71399999 -0.045067675 1.6403827e-38 298 276
-0.026289478 0.71399999 -0.045067675 1.6311631e-38 299 276
-0.025037598 0.71399999 -0.045067675 1.6219068e-38 300 276
-0.023852346 0.71600002 -0.045193922 1.6219068e-38 301 276
-0.02262852 0.71700001 -0.045257039 1.6126517e-38 302 276
-0.021371379 0.71700001 -0.045257039 1.6126517e-38 303 276
-0.020114239 0.71700001 -0.045257039 1.5851012e-38 304 276
-0.018857099 0.71700001 -0.045257039 1.5851012e-38 305 276
-0.017599959 0.71700001 -0.045257039 1.6033971e-38 306 276
-0.016342819 0.71700001 -0.045257039 1.6126167e-38 307 276
-0.015085679 0.71700001 -0.045257039 1.5942857e-38 308 276
-0.013828539 0.71700001 -0.045257039 1.5942857e-38 309 276
-0.0125714 0.71700001 -0.045257039 1.5941775e-38 310 276
-0.01131426 0.71700001 -0.045257039 1.5941775e-38 311 276
-0.01005712 0.71700001 -0.045257039 1.5941772e-38 312 276
-0.0087999795 0.71700001 -0.045257039 1.5849577e-38 313 276
-0.0075428397 0.71700001 -0.045257039 1.5849577e-38 314 276
-0.0062769335 0.71600002 -0.045193922 1.5849577e-38 315 276
-0.0050215465 0.71600002 -0.045193922 1.5665909e-38 316 276
-0.00376616 0.71600002 -0.045193922 1.5758463e-38 317 276
-0.0025107733 0.71600002 -0.045193922 1.5758107e-38 318 276
-0.0012553866 0.71600002 -0.045193922 1.5850303e-38 319 276
0 0.71700001 -0.045257039 1.5758829e-38 320 276
0.0012553866 0.71600002 -0.045193922 1.5758829e-38 321 276
0.0025107733 0.71600002 -0.045193922 1.5850303e-38 322 276
0.00376616 0.71600002 -0.045193922 1.5850303e-38 323 276
0.0050215465 0.71600002 -0.045193922 1.5759182e-38 324 276
0.0062769335 0.71600002 -0.045193922 1.5759182e-38 325 276
0.00753232 0.71600002 -0.045193922 1.5850303e-38 326 276
0.0087877065 0.71600002 -0.045193922 1.5850303e-38 327 276
0.010043093 0.71600002 -0.045193922 1.5850659e-38 328 276
0.01129848 0.71600002 -0.045193922 1.5758463e-38 329 276
0.012553867 0.71600002 -0.045193922 1.5850659e-38 330 276
0.013809253 0.71600002 -0.045193922 1.5850659e-38 331 276
0.01506464 0.71600002 -0.045193922 1.5850303e-38 332 276
0.016320027 0.71600002 -0.045193922 1.5942857e-38 333 276
0.017575413 0.71600002 -0.045193922 1.5851375e-38 334 276
0.018857099 0.71700001 -0.045257039 1.5851375e-38 335 276
0.020114239 0.71700001 -0.045257039 1.5851022e-38 336 276
0.021371379 0.71700001 -0.045257039 1.5943576e-38 337 276
0.022596961 0.71600002 -0.045193922 1.5759911e-38 338 276
0.023852346 0.71600002 -0.045193922 1.5759911e-38 339 276
0.025107734 0.71600002 -0.045193922 1.5577328e-38 340 276
-0.035347197 0.72000003 -0.0467088 1.5473006e-38 292 277
-0.034084801 0.72000003 -0.0467088 1.6118375e-38 293 277
-0.032913569 0.722 -0.046838548 1.6033675e-38 294 277
-0.03156 0.72000003 -0.0467088 1.6402818e-38 295 277
-0.030255521 0.71899998 -0.046643924 1.6036867e-38 296 277
-0.028873893 0.71600002 -0.046449307 1.6036867e-38 297 277
-0.02754136 0.71399999 -0.046319555 1.6128322e-38 298 277
-0.026252659 0.713 -0.046254687 1.6128322e-38 299 277
-0.025002534 0.713 -0.046254687 1.6219434e-38 300 277
-0.02378572 0.71399999 -0.046319555 1.6219434e-38 301 277
-0.022533838 0.71399999 -0.046319555 1.5942851e-38 302 277
-0.021281958 0.71399999 -0.046319555 1.5942851e-38 303 277
-0.020030079 0.71399999 -0.046319555 1.5759179e-38 304 277
-0.018778199 0.71399999 -0.046319555 1.5575148e-38 305 277
-0.017526319 0.71399999 -0.046319555 1.5941772e-38 306 277
-0.016320027 0.71600002 -0.046449307 1.6033968e-38 307 277
-0.01506464 0.71600002 -0.046449307 1.6033971e-38 308 277
-0.013809253 0.71600002 -0.046449307 1.6033971e-38 309 277
-0.012518799 0.71399999 -0.046319555 1.5941772e-38 310 277
-0.011266919 0.71399999 -0.046319555 1.5941772e-38 311 277
-0.01001504 0.71399999 -0.046319555 1.5849574e-38 312 277
-0.0087508867 0.713 -0.046254687 1.5849574e-38 313 277
-0.0075007593 0.713 -0.046254687 1.584958e-38 314 277
-0.0062506334 0.713 -0.046254687 1.584958e-38 315 277
-0.0050005065 0.713 -0.046254687 1.575846e-38 316 277
-0.0037503797 0.713 -0.046254687 1.575846e-38 317 277
-0.0025037599 0.71399999 -0.046319555 1.5574792e-38 318 277
-0.00125188 0.71399999 -0.046319555 1.5759182e-38 319 277
0 0.71399999 -0.046319555 1.5758829e-38 320 277
0.00125188 0.71399999 -0.046319555 1.5851024e-38 321 277
0.0025002533 0.713 -0.046254687 1.5668062e-38 322 277
0.0037503797 0.713 -0.046254687 1.5575867e-38 323 277
0.0050005065 0.713 -0.046254687 1.5758457e-38 324 277
0.0062506334 0.713 -0.046254687 1.5758457e-38 325 277
0.0075007593 0.713 -0.046254687 1.5758463e-38 326 277
0.0087508867 0.713 -0.046254687 1.5850659e-38 327 277
0.010001013 0.713 -0.046254687 1.6033971e-38 328 277
0.011251139 0.713 -0.046254687 1.5941775e-38 329 277
0.012501267 0.713 -0.046254687 1.5850659e-38 330 277
0.01377068 0.71399999 -0.046319555 1.5850659e-38 331 277
0.015022559 0.71399999 -0.046319555 1.5851022e-38 332 277
0.016274439 0.71399999 -0.046319555 1.5851022e-38 333 277
0.017526319 0.71399999 -0.046319555 1.5667709e-38 334 277
0.018778199 0.71399999 -0.046319555 1.5667709e-38 335 277
0.020002026 0.713 -0.046254687 1.5851024e-38 336 277
0.021252153 0.713 -0.046254687 1.5851024e-38 337 277
0.022502279 0.713 -0.046254687 1.5759911e-38 338 277
0.023685781 0.71100003 -0.046124939 1.5759911e-38 339 277
0.024897331 0.70999998 -0.046060063 1.5576964e-38 340 277
0.026142199 0.70999998 -0.046060063 1.548441e-38 341 277
-0.036558751 0.71899998 -0.04790457 1.5559131e-38 291 278
-0.035298105 0.71899998 -0.04790457 1.5653097e-38 292 278
-0.03403746 0.71899998 -0.04790457 1.5653097e-38 293 278
-0.0328224 0.72000003 -0.0479712 1.5940413e-38 294 278
-0.031516165 0.71899998 -0.04790457 1.6401031e-38 295 278
-0.030171359 0.71700001 -0.04777132 1.6036514e-38 296 278
-0.028873893 0.71600002 -0.047704693 1.6036514e-38 297 278
-0.02754136 0.71399999 -0.047571439 1.6128685e-38 298 278
-0.026252659 0.713 -0.047504812 1.5944292e-38 299 278
-0.025002534 0.713 -0.047504812 1.6036119e-38 300 278
-0.023752406 0.713 -0.047504812 1.5943923e-38 301 278
-0.022502279 0.713 -0.047504812 1.5943207e-38 302 278
-0.021252153 0.713 -0.047504812 1.5943207e-38 303 278
-0.020002026 0.713 -0.047504812 1.5851009e-38 304 278
-0.018751899 0.713 -0.047504812 1.5851009e-38 305 278
-0.017501773 0.713 -0.047504812 1.6033958e-38 306 278
-0.016251646 0.713 -0.047504812 1.6033958e-38 307 278
-0.015001519 0.713 -0.047504812 1.6033602e-38 308 278
-0.013751393 0.713 -0.047504812 1.6125798e-38 309 278
-0.012501267 0.713 -0.047504812 1.5942128e-38 310 278
-0.011251139 0.713 -0.047504812 1.5849574e-38 311 278
-0.010001013 0.713 -0.047504812 1.5849577e-38 312 278
-0.0087263398 0.71100003 -0.047371563 1.5849577e-38 313 278
-0.0074797203 0.71100003 -0.047371563 1.5941054e-38 314 278
-0.0062330998 0.71100003 -0.047371563 1.6033249e-38 315 278
-0.0049864799 0.71100003 -0.047371563 1.5942123e-38 316 278
-0.0037398601 0.71100003 -0.047371563 1.5942123e-38 317 278
-0.0025002533 0.713 -0.047504812 1.5851006e-38 318 278
-0.0012501266 0.713 -0.047504812 1.5851006e-38 319 278
0 0.71100003 -0.047371563 1.5668062e-38 320 278
0.00124662 0.71100003 -0.047371563 1.5668062e-38 321 278
0.0024932399 0.71100003 -0.047371563 1.566806e-38 322 278
0.0037398601 0.71100003 -0.047371563 1.566806e-38 323 278
0.0049864799 0.71100003 -0.047371563 1.5759176e-38 324 278
0.0062330998 0.71100003 -0.047371563 1.5759176e-38 325 278
0.0074797203 0.71100003 -0.047371563 1.5758463e-38 326 278
0.0087263398 0.71100003 -0.047371563 1.5758463e-38 327 278
0.0099729598 0.71100003 -0.047371563 1.5941775e-38 328 278
0.01121958 0.71100003 -0.047371563 1.5941775e-38 329 278
0.0124662 0.71100003 -0.047371563 1.5850659e-38 330 278
0.01371282 0.71100003 -0.047371563 1.5850659e-38 331 278
0.015001519 0.713 -0.047504812 1.5667709e-38 332 278
0.016251646 0.713 -0.047504812 1.5667709e-38 333 278
0.017501773 0.713 -0.047504812 1.5667712e-38 334 278
0.0186993 0.71100003 -0.047371563 1.5667712e-38 335 278
0.01994592 0.71100003 -0.047371563 1.5667356e-38 336 278
0.021192541 0.71100003 -0.047371563 1.5667356e-38 337 278
0.022439159 0.71100003 -0.047371563 1.5668081e-38 338 278
0.023685781 0.71100003 -0.047371563 1.5575526e-38 339 278
0.024897331 0.70999998 -0.047304932 1.5208551e-38 340 278
0.026142199 0.70999998 -0.047304932 1.5208551e-38 341 278
0.027387066 0.70999998 -0.047304932 1.5207862e-38 342 278
0.028631933 0.70999998 -0.047304932 1.5392612e-38 343 278
0.029876797 0.70999998 -0.047304932 1.5120041e-38 344 278
-0.035298105 0.71899998 -0.049165215 1.5742794e-38 292 279
-0.03403746 0.71899998 -0.049165215 1.6111936e-38 293 279
-0.0328224 0.72000003 -0.0492336 1.5937557e-38 294 279
-0.031516165 0.71899998 -0.049165215 1.6306341e-38 295 279
-0.030045118 0.71399999 -0.048823316 1.6037236e-38 296 279
-0.028672259 0.71100003 -0.048618179 1.5852486e-38 297 279
-0.027387066 0.70999998 -0.048549797 1.6129041e-38 298 279
-0.026142199 0.70999998 -0.048549797 1.6036486e-38 299 279
-0.024897331 0.70999998 -0.048549797 1.5943926e-38 300 279
-0.023752406 0.713 -0.048754938 1.6036122e-38 301 279
-0.022439159 0.71100003 -0.048618179 1.5943207e-38 302 279
-0.021192541 0.71100003 -0.048618179 1.5943207e-38 303 279
-0.01994592 0.71100003 -0.048618179 1.5850656e-38 304 279
-0.0186993 0.71100003 -0.048618179 1.5850656e-38 305 279
-0.01745268 0.71100003 -0.048618179 1.6034677e-38 306 279
-0.01620606 0.71100003 -0.048618179 1.6126873e-38 307 279
-0.014959441 0.71100003 -0.048618179 1.5943205e-38 308 279
-0.01371282 0.71100003 -0.048618179 1.5851009e-38 309 279
-0.0124662 0.71100003 -0.048618179 1.5758463e-38 310 279
-0.011251139 0.713 -0.048754938 1.5758463e-38 311 279
-0.0099729598 0.71100003 -0.048618179 1.5941056e-38 312 279
-0.0087263398 0.71100003 -0.048618179 1.5941056e-38 313 279
-0.0074797203 0.71100003 -0.048618179 1.5942128e-38 314 279
-0.0062330998 0.71100003 -0.048618179 1.5942128e-38 315 279
-0.0049794666 0.70999998 -0.048549797 1.6034677e-38 316 279
-0.0037345996 0.70999998 -0.048549797 1.6126873e-38 317 279
-0.00248272 0.708 -0.048413038 1.5759532e-38 318 279
-0.00124136 0.708 -0.048413038 1.5851728e-38 319 279
0 0.708 -0.048413038 1.557623e-38 320 279
0.0012396066 0.70700002 -0.048344657 1.557623e-38 321 279
0.0024792133 0.70700002 -0.048344657 1.5576586e-38 322 279
0.0037188199 0.70700002 -0.048344657 1.5576586e-38 323 279
0.0049584266 0.70700002 -0.048344657 1.5759179e-38 324 279
0.0061980332 0.70700002 -0.048344657 1.5575148e-38 325 279
0.0074376399 0.70700002 -0.048344657 1.5758463e-38 326 279
0.008677247 0.70700002 -0.048344657 1.5758463e-38 327 279
0.0099168532 0.70700002 -0.048344657 1.5850659e-38 328 279
0.011156459 0.70700002 -0.048344657 1.5850659e-38 329 279
0.012396066 0.70700002 -0.048344657 1.5668065e-38 330 279
0.013654959 0.708 -0.048413038 1.5668065e-38 331 279
0.014938398 0.70999998 -0.048549797 1.5668065e-38 332 279
0.01620606 0.71100003 -0.048618179 1.5575511e-38 333 279
0.017428132 0.70999998 -0.048549797 1.5575517e-38 334 279
0.018672999 0.70999998 -0.048549797 1.5667712e-38 335 279
0.019917866 0.70999998 -0.048549797 1.5759182e-38 336 279
0.021162732 0.70999998 -0.048549797 1.5574792e-38 337 279
0.022407599 0.70999998 -0.048549797 1.5483318e-38 338 279
0.023652466 0.70999998 -0.048549797 1.5391122e-38 339 279
0.024897331 0.70999998 -0.048549797 1.5390416e-38 340 279
0.026142199 0.70999998 -0.048549797 1.5390416e-38 341 279
0.027387066 0.70999998 -0.048549797 1.5298246e-38 342 279
0.028631933 0.70999998 -0.048549797 1.5390441e-38 343 279
0.029876797 0.70999998 -0.048549797 1.521007e-38 344 279
0.031121666 0.70999998 -0.048549797 1.6224221e-38 345 279
-0.032548878 0.71399999 -0.050075196 1.547551e-38 294 280
-0.030045118 0.71399999 -0.050075196 1.5851417e-38 296 280
-0.028631933 0.70999998 -0.049794663 1.6036167e-38 297 280
-0.027387066 0.70999998 -0.049794663 1.5761344e-38 298 280
-0.026068559 0.708 -0.049654398 1.5577312e-38 299 280
-0.024827199 0.708 -0.049654398 1.594357e-38 300 280
-0.023685781 0.71100003 -0.049864799 1.594357e-38 301 280
-0.022407599 0.70999998 -0.049794663 1.6126522e-38 302 280
-0.021162732 0.70999998 -0.049794663 1.6126522e-38 303 280
-0.019917866 0.70999998 -0.049794663 1.6126517e-38 304 280
-0.018672999 0.70999998 -0.049794663 1.6126517e-38 305 280
-0.017428132 0.70999998 -0.049794663 1.5943555e-38 306 280
-0.016183265 0.70999998 -0.049794663 1.5943555e-38 307 280
-0.01489632 0.708 -0.049654398 1.5943558e-38 308 280
-0.013654959 0.708 -0.049654398 1.5943558e-38 309 280
-0.0124136 0.708 -0.049654398 1.5942128e-38 310 280
-0.01121958 0.71100003 -0.049864799 1.5849574e-38 311 280
-0.0099589331 0.70999998 -0.049794663 1.5666618e-38 312 280
-0.0087140659 0.70999998 -0.049794663 1.5666618e-38 313 280
-0.0074481601 0.708 -0.049654398 1.5942126e-38 314 280
-0.0062067998 0.708 -0.049654398 1.6034321e-38 315 280
-0.0049654399 0.708 -0.049654398 1.5942128e-38 316 280
-0.0037188199 0.70700002 -0.049584266 1.6034324e-38 317 280
-0.0024792133 0.70700002 -0.049584266 1.5851731e-38 318 280
-0.0012378532 0.70599997 -0.04951413 1.5851731e-38 319 280
0 0.70599997 -0.04951413 1.5576586e-38 320 280
0.0012378532 0.70599997 -0.04951413 1.5576586e-38 321 280
0.0024757064 0.70599997 -0.04951413 1.557623e-38 322 280
0.0037135598 0.70599997 -0.04951413 1.557623e-38 323 280
0.0049514128 0.70599997 -0.04951413 1.5392555e-38 324 280
0.0061892662 0.70599997 -0.04951413 1.53e-38 325 280
0.0074271196 0.70599997 -0.04951413 1.5575511e-38 326 280
0.0086649731 0.70599997 -0.04951413 1.5575511e-38 327 280
0.0099028256 0.70599997 -0.04951413 1.5575517e-38 328 280
0.011140679 0.70599997 -0.04951413 1.5667712e-38 329 280
0.012396066 0.70700002 -0.049584266 1.539257e-38 330 280
0.013635674 0.70700002 -0.049584266 1.539257e-38 331 280
0.01489632 0.708 -0.049654398 1.5300021e-38 332 280
0.016183265 0.70999998 -0.049794663 1.5115271e-38 333 280
0.017428132 0.70999998 -0.049794663 1.5114555e-38 334 280
0.018672999 0.70999998 -0.049794663 1.5206751e-38 335 280
0.019917866 0.70999998 -0.049794663 1.5114904e-38 336 280
0.021162732 0.70999998 -0.049794663 1.4930513e-38 337 280
0.022407599 0.70999998 -0.049794663 1.4929428e-38 338 280
0.023652466 0.70999998 -0.049794663 1.4929428e-38 339 280
0.024897331 0.70999998 -0.049794663 1.4745047e-38 340 280
0.026142199 0.70999998 -0.049794663 1.4745047e-38 341 280
0.027387066 0.70999998 -0.049794663 1.4378087e-38 342 280
0.028631933 0.70999998 -0.049794663 1.4838707e-38 343 280
0.029876797 0.70999998 -0.049794663 1.465725e-38 344 280
0.031121666 0.70999998 -0.049794663 1.5671402e-38 345 280
-0.028631933 0.70999998 -0.051039528 1.5758518e-38 297 281
-0.027387066 0.70999998 -0.051039528 1.5852473e-38 298 281
-0.026068559 0.708 -0.050895758 1.5852473e-38 299 281
-0.024827199 0.708 -0.050895758 1.5943939e-38 300 281
-0.023652466 0.70999998 -0.051039528 1.5943939e-38 301 281
-0.022218239 0.704 -0.050608214 1.5942857e-38 302 281
-0.020983893 0.704 -0.050608214 1.6126888e-38 303 281
-0.019805651 0.70599997 -0.050751984 1.594357e-38 304 281
-0.0186204 0.708 -0.050895758 1.6036125e-38 305 281
-0.017379038 0.708 -0.050895758 1.6127241e-38 306 281
-0.016092092 0.70599997 -0.050751984 1.6127241e-38 307 281
-0.014854239 0.70599997 -0.050751984 1.6126888e-38 308 281
-0.013616386 0.70599997 -0.050751984 1.6126888e-38 309 281
-0.012378532 0.70599997 -0.050751984 1.5851022e-38 310 281
-0.011140679 0.70599997 -0.050751984 1.5758826e-38 311 281
-0.0098747732 0.704 -0.050608214 1.5850659e-38 312 281
-0.0086404262 0.704 -0.050608214 1.5850659e-38 313 281
-0.0074060797 0.704 -0.050608214 1.6034324e-38 314 281
-0.0061717331 0.704 -0.050608214 1.6034324e-38 315 281
-0.0049163462 0.70099998 -0.050392549 1.6034321e-38 316 281
-0.0036872597 0.70099998 -0.050392549 1.6034321e-38 317 281
-0.0024651866 0.70300001 -0.050536323 1.5851378e-38 318 281
-0.0012325933 0.70300001 -0.050536323 1.5943573e-38 319 281
0 0.704 -0.050608214 1.5576233e-38 320 281
0.0012343467 0.704 -0.050608214 1.5392201e-38 321 281
0.0024686933 0.704 -0.050608214 1.5300003e-38 322 281
0.0037030398 0.704 -0.050608214 1.5300003e-38 323 281
0.0049514128 0.70599997 -0.050751984 1.5759179e-38 324 281
0.0061892662 0.70599997 -0.050751984 1.5851375e-38 325 281
0.0074271196 0.70599997 -0.050751984 1.5483668e-38 326 281
0.0086649731 0.70599997 -0.050751984 1.5483668e-38 327 281
0.0099028256 0.70599997 -0.050751984 1.5759532e-38 328 281
0.011140679 0.70599997 -0.050751984 1.5575501e-38 329 281
0.012378532 0.70599997 -0.050751984 1.5574068e-38 330 281
0.013635674 0.70700002 -0.050823875 1.5297482e-38 331 281
0.01487528 0.70700002 -0.050823875 1.5388248e-38 332 281
0.01613768 0.708 -0.050895758 1.5019825e-38 333 281
0.017379038 0.708 -0.050895758 1.5019096e-38 334 281
0.0186204 0.708 -0.050895758 1.4835065e-38 335 281
0.01986176 0.708 -0.050895758 1.4650668e-38 336 281
0.021162732 0.70999998 -0.051039528 1.4558471e-38 337 281
0.022407599 0.70999998 -0.051039528 1.4373373e-38 338 281
0.023652466 0.70999998 -0.051039528 1.4189342e-38 339 281
0.024897331 0.70999998 -0.051039528 1.4005695e-38 340 281
0.026142199 0.70999998 -0.051039528 1.4005695e-38 341 281
0.027387066 0.70999998 -0.051039528 1.3547267e-38 342 281
0.028631933 0.70999998 -0.051039528 1.3731659e-38 343 281
0.029876797 0.70999998 -0.051039528 1.4103729e-38 344 281
0.031121666 0.70999998 -0.051039528 1.5394467e-38 345 281
-0.029876797 0.70999998 -0.052284397 1.5756018e-38 296 282
-0.028631933 0.70999998 -0.052284397 1.594041e-38 297 282
-0.027387066 0.70999998 -0.052284397 1.5759927e-38 298 282
-0.025994917 0.70599997 -0.051989835 1.5852123e-38 299 282
-0.024686933 0.704 -0.051842559 1.5943942e-38 300 282
-0.023419274 0.70300001 -0.051768921 1.5943942e-38 301 282
-0.02218668 0.70300001 -0.051768921 1.5943573e-38 302 282
-0.020954086 0.70300001 -0.051768921 1.6035769e-38 303 282
-0.019721493 0.70300001 -0.051768921 1.6036125e-38 304 282
-0.018488899 0.70300001 -0.051768921 1.594357e-38 305 282
-0.017207211 0.70099998 -0.051621638 1.6219081e-38 306 282
-0.015978126 0.70099998 -0.051621638 1.6126885e-38 307 282
-0.014791119 0.70300001 -0.051768921 1.6035772e-38 308 282
-0.013577812 0.704 -0.051842559 1.5943576e-38 309 282
-0.012343466 0.704 -0.051842559 1.5667709e-38 310 282
-0.01109334 0.70300001 -0.051768921 1.5667709e-38 311 282
-0.0098326923 0.70099998 -0.051621638 1.5760261e-38 312 282
-0.0086036054 0.70099998 -0.051621638 1.5760261e-38 313 282
-0.0073955595 0.70300001 -0.051768921 1.5943926e-38 314 282
-0.0061629666 0.70300001 -0.051768921 1.5851731e-38 315 282
-0.0049163462 0.70099998 -0.051621638 1.5851012e-38 316 282
-0.0036872597 0.70099998 -0.051621638 1.5851012e-38 317 282
-0.0024651866 0.70300001 -0.051768921 1.5575517e-38 318 282
-0.0012325933 0.70300001 -0.051768921 1.5575517e-38 319 282
0 0.704 -0.051842559 1.5114904e-38 320 282
0.0012343467 0.704 -0.051842559 1.5022708e-38 321 282
0.0024686933 0.704 -0.051842559 1.4746479e-38 322 282
0.0037030398 0.704 -0.051842559 1.4654283e-38 323 282
0.0049373866 0.704 -0.051842559 1.4929072e-38 324 282
0.0061717331 0.704 -0.051842559 1.5297853e-38 325 282
0.0074060797 0.704 -0.051842559 1.4837946e-38 326 282
0.0086649731 0.70599997 -0.051989835 1.4837946e-38 327 282
0.0099028256 0.70599997 -0.051989835 1.5204558e-38 328 282
0.011140679 0.70599997 -0.051989835 1.492833e-38 329 282
0.012378532 0.70599997 -0.051989835 1.4742513e-38 330 282
0.013616386 0.70599997 -0.051989835 1.4742513e-38 331 282
0.01487528 0.70700002 -0.05206348 1.4741457e-38 332 282
0.016114887 0.70700002 -0.05206348 1.4557065e-38 333 282
0.017379038 0.708 -0.052137118 1.4461996e-38 334 282
0.0186204 0.708 -0.052137118 1.455455e-38 335 282
0.01986176 0.708 -0.052137118 1.4278683e-38 336 282
0.021162732 0.70999998 -0.052284397 1.4186488e-38 337 282
0.022407599 0.70999998 -0.052284397 1.4276184e-38 338 282
0.023652466 0.70999998 -0.052284397 1.4368381e-38 339 282
0.024897331 0.70999998 -0.052284397 1.4092535e-38 340 282
0.026142199 0.70999998 -0.052284397 1.4000338e-38 341 282
0.027387066 0.70999998 -0.052284397 1.3357513e-38 342 282
0.028631933 0.70999998 -0.052284397 1.3725936e-38 343 282
0.029876797 0.70999998 -0.052284397 1.4560403e-38 344 282
0.031121666 0.70999998 -0.052284397 1.6035533e-38 345 282
-0.027271347 0.70700002 -0.053303085 1.5759207e-38 298 283
-0.02592128 0.704 -0.053076904 1.594324e-38 299 283
-0.024581732 0.70099998 -0.052850723 1.5760274e-38 300 283
-0.023319334 0.69999999 -0.052775331 1.5760274e-38 301 283
-0.022091998 0.69999999 -0.052775331 1.5943942e-38 302 283
-0.020864666 0.69999999 -0.052775331 1.6036139e-38 303 283
-0.019637333 0.69999999 -0.052775331 1.5944295e-38 304 283
-0.018436298 0.70099998 -0.052850723 1.5944295e-38 305 283
-0.017207211 0.70099998 -0.052850723 1.6126888e-38 306 283
-0.015978126 0.70099998 -0.052850723 1.5942857e-38 307 283
-0.014749039 0.70099998 -0.052850723 1.5851024e-38 308 283
-0.013558527 0.70300001 -0.053001512 1.5758829e-38 309 283
-0.012325933 0.70300001 -0.053001512 1.5392933e-38 310 283
-0.01109334 0.70300001 -0.053001512 1.5392933e-38 311 283
-0.0098326923 0.70099998 -0.052850723 1.5943589e-38 312 283
-0.0086036054 0.70099998 -0.052850723 1.5943589e-38 313 283
-0.0073955595 0.70300001 -0.053001512 1.6035416e-38 314 283
-0.0061629666 0.70300001 -0.053001512 1.6035416e-38 315 283
-0.0049303733 0.70300001 -0.053001512 1.594322e-38 316 283
-0.0036977797 0.70300001 -0.053001512 1.5574798e-38 317 283
-0.0024651866 0.70300001 -0.053001512 1.5481519e-38 318 283
-0.0012325933 0.70300001 -0.053001512 1.5112738e-38 319 283
0 0.70300001 -0.053001512 1.5203854e-38 320 283
0.0012325933 0.70300001 -0.053001512 1.4927626e-38 321 283
0.0024651866 0.70300001 -0.053001512 1.4650681e-38 322 283
0.0037030398 0.704 -0.053076904 1.4374452e-38 323 283
0.0049373866 0.704 -0.053076904 1.4281906e-38 324 283
0.0061717331 0.704 -0.053076904 1.4374103e-38 325 283
0.0074060797 0.704 -0.053076904 1.4373753e-38 326 283
0.0086404262 0.704 -0.053076904 1.4373753e-38 327 283
0.0099028256 0.70599997 -0.053227689 1.4646743e-38 328 283
0.011140679 0.70599997 -0.053227689 1.4370156e-38 329 283
0.012378532 0.70599997 -0.053227689 1.409394e-38 330 283
0.013616386 0.70599997 -0.053227689 1.4001386e-38 331 283
0.01487528 0.70700002 -0.053303085 1.4643185e-38 332 283
0.016114887 0.70700002 -0.053303085 1.4643185e-38 333 283
0.017379038 0.708 -0.053378478 1.3811998e-38 334 283
0.0186204 0.708 -0.053378478 1.3996749e-38 335 283
0.01986176 0.708 -0.053378478 1.3904569e-38 336 283
0.021162732 0.70999998 -0.053529263 1.3627982e-38 337 283
0.022407599 0.70999998 -0.053529263 1.3900994e-38 338 283
0.023652466 0.70999998 -0.053529263 1.399319e-38 339 283
0.024897331 0.70999998 -0.053529263 1.399321e-38 340 283
0.026142199 0.70999998 -0.053529263 1.399321e-38 341 283
0.027387066 0.70999998 -0.053529263 1.3350731e-38 342 283
0.028631933 0.70999998 -0.053529263 1.3903905e-38 343 283
0.029876797 0.70999998 -0.053529263 1.4741587e-38 344 283
0.031121666 0.70999998 -0.053529263 1.6493664e-38 345 283
-0.027232772 0.70599997 -0.054465543 1.5666671e-38 298 284
-0.025884461 0.70300001 -0.054234106 1.5666671e-38 299 284
-0.024581732 0.70099998 -0.054079808 1.5668081e-38 300 284
-0.023319334 0.69999999 -0.054002665 1.5760276e-38 301 284
-0.022091998 0.69999999 -0.054002665 1.5759911e-38 302 284
-0.020864666 0.69999999 -0.054002665 1.5759911e-38 303 284
-0.019637333 0.69999999 -0.054002665 1.5759908e-38 304 284
-0.018409999 0.69999999 -0.054002665 1.5482962e-38 305 284
-0.017182667 0.69999999 -0.054002665 1.5941775e-38 306 284
-0.015955333 0.69999999 -0.054002665 1.5665547e-38 307 284
-0.014749039 0.70099998 -0.054079808 1.5205286e-38 308 284
-0.013519952 0.70099998 -0.054079808 1.5205286e-38 309 284
-0.012290866 0.70099998 -0.054079808 1.4930147e-38 310 284
-0.011061779 0.70099998 -0.054079808 1.5022343e-38 311 284
-0.0098326923 0.70099998 -0.054079808 1.5205658e-38 312 284
-0.0086036054 0.70099998 -0.054079808 1.5205658e-38 313 284
-0.0073955595 0.70300001 -0.054234106 1.5297488e-38 314 284
-0.0061629666 0.70300001 -0.054234106 1.5204933e-38 315 284
-0.0049163462 0.70099998 -0.054079808 1.511274e-38 316 284
-0.0036872597 0.70099998 -0.054079808 1.4651762e-38 317 284
-0.0024651866 0.70300001 -0.054234106 1.4740717e-38 318 284
-0.0012325933 0.70300001 -0.054234106 1.4555967e-38 319 284
0 0.70300001 -0.054234106 1.4463418e-38 320 284
0.0012325933 0.70300001 -0.054234106 1.4279387e-38 321 284
0.0024651866 0.70300001 -0.054234106 1.4186488e-38 322 284
0.0037030398 0.704 -0.054311249 1.39099e-38 323 284
0.0049514128 0.70599997 -0.054465543 1.3815923e-38 324 284
0.0061717331 0.704 -0.054311249 1.3815923e-38 325 284
0.0074060797 0.704 -0.054311249 1.3998172e-38 326 284
0.0086404262 0.704 -0.054311249 1.3905976e-38 327 284
0.0099028256 0.70599997 -0.054465543 1.4087499e-38 328 284
