# .PCD v.7 - Point Cloud Data file format
FIELDS x y z rgb imX imY
SIZE 4 4 4 4 4 4
TYPE F F F F F F
COUNT 1 1 1 1 1 1
WIDTH 834
HEIGHT 1
VIEWPOINT 0 0 0 1 0 0 0
POINTS 834
DATA ascii
0 0.69599998 -0.061015997 1.4486038e-38 320 290
0.0012203199 0.69599998 -0.061015997 1.3840668e-38 321 290
0.0024406398 0.69599998 -0.061015997 1.2275473e-38 322 290
0.00366622 0.69700003 -0.061103668 1.1814494e-38 323 290
0.0048882933 0.69700003 -0.061103668 1.2275826e-38 324 290
0.006119133 0.69800001 -0.061191335 1.1169492e-38 325 290
0.0073429602 0.69800001 -0.061191335 7.4935612e-39 326 290
0.0085667865 0.69800001 -0.061191335 7.9545324e-39 327 290
0.0097906133 0.69800001 -0.061191335 9.9738371e-39 328 290
0.011045999 0.69999999 -0.061366666 9.9738371e-39 329 290
0.012273333 0.69999999 -0.061366666 9.512866e-39 330 290
0.013500666 0.69999999 -0.061366666 9.4206717e-39 331 290
0.014727999 0.69999999 -0.061366666 9.0529836e-39 332 290
0.015955333 0.69999999 -0.061366666 9.0529836e-39 333 290
0.017207211 0.70099998 -0.06145433 9.1440891e-39 334 290
0.018488899 0.70300001 -0.061629668 8.9597006e-39 335 290
0.019721493 0.70300001 -0.061629668 8.4097638e-39 336 290
0.020983893 0.704 -0.061717331 8.4097638e-39 337 290
0.022218239 0.704 -0.061717331 8.6852787e-39 338 290
0.023519212 0.70599997 -0.061892662 8.5930831e-39 339 290
0.024757065 0.70599997 -0.061892662 8.3179409e-39 340 290
0.025994917 0.70599997 -0.061892662 8.2253866e-39 341 290
0.027232772 0.70599997 -0.061892662 8.4101366e-39 342 290
0.028510952 0.70700002 -0.061980337 8.4101366e-39 343 290
0.02979264 0.708 -0.062068 8.5001812e-39 344 290
0.031034 0.708 -0.062068 8.5923768e-39 345 290
0.03227536 0.708 -0.062068 8.7749702e-39 346 290
0.033611398 0.70999998 -0.062243331 8.6827746e-39 347 290
0.034856264 0.70999998 -0.062243331 6.5676855e-39 348 290
0.036151983 0.71100003 -0.062331002 5.6457306e-39 349 290
0.037398599 0.71100003 -0.062331002 6.2900294e-39 350 290
0.038645219 0.71100003 -0.062331002 6.7506475e-39 351 290
0.040004052 0.713 -0.062506333 7.9470102e-39 352 290
0.041254178 0.713 -0.062506333 8.2232384e-39 353 290
0.042563915 0.71399999 -0.062593997 8.0406324e-39 354 290
0.043938532 0.71600002 -0.062769331 7.7636867e-39 355 290
0.045193922 0.71600002 -0.062769331 6.5669554e-39 356 290
0.046449307 0.71600002 -0.062769331 5.8294016e-39 357 290
0.04777132 0.71700001 -0.062856995 7.2112416e-39 358 290
0.04902846 0.71700001 -0.062856995 8.2253922e-39 359 290
0.0502856 0.71700001 -0.062856995 8.7749758e-39 360 290
-0.067790881 0.71600002 -0.064024724 1.0714315e-38 266 291
-0.065977924 0.70999998 -0.063488193 1.1083458e-38 267 291
-0.064459547 0.70700002 -0.063219935 1.1544447e-38 268 291
-0.062951677 0.704 -0.062951677 1.172884e-38 269 291
-0.061629668 0.70300001 -0.062862262 1.2372763e-38 270 291
-0.060139328 0.69999999 -0.062593997 1.2557156e-38 271 291
-0.058743682 0.69800001 -0.062415157 1.3018105e-38 272 291
-0.05743745 0.69700003 -0.062325738 1.3202136e-38 273 291
-0.056134716 0.69599998 -0.062236317 1.3294313e-38 274 291
-0.054914396 0.69599998 -0.062236317 1.3386868e-38 275 291
-0.053539783 0.69400001 -0.06205748 1.3109902e-38 276 291
-0.05224758 0.69300002 -0.061968062 1.2187946e-38 277 291
-0.051032521 0.69300002 -0.061968062 1.1819874e-38 278 291
-0.049817458 0.69300002 -0.061968062 1.2096098e-38 279 291
-0.04846213 0.69099998 -0.061789215 1.2558524e-38 280 291
-0.047250576 0.69099998 -0.061789215 1.2650719e-38 281 291
-0.046039023 0.69099998 -0.061789215 1.2924808e-38 282 291
-0.044827472 0.69099998 -0.061789215 1.3293589e-38 283 291
-0.043615919 0.69099998 -0.061789215 1.3568026e-38 284 291
-0.042404365 0.69099998 -0.061789215 1.3291798e-38 285 291
-0.041192811 0.69099998 -0.061789215 1.3658773e-38 286 291
-0.039981257 0.69099998 -0.061789215 1.3843523e-38 287 291
-0.038769703 0.69099998 -0.061789215 1.3752761e-38 288 291
-0.03755815 0.69099998 -0.061789215 1.3752761e-38 289 291
-0.036346599 0.69099998 -0.061789215 1.3753126e-38 290 291
-0.035135046 0.69099998 -0.061789215 1.3568375e-38 291 291
-0.033923492 0.69099998 -0.061789215 1.3382917e-38 292 291
-0.032711938 0.69099998 -0.061789215 1.3935732e-38 293 291
-0.031500384 0.69099998 -0.061789215 1.3751704e-38 294 291
-0.030288832 0.69099998 -0.061789215 1.3751704e-38 295 291
-0.029077278 0.69099998 -0.061789215 1.3568026e-38 296 291
-0.027865725 0.69099998 -0.061789215 1.3475829e-38 297 291
-0.026654173 0.69099998 -0.061789215 1.3658776e-38 298 291
-0.025442619 0.69099998 -0.061789215 1.3474745e-38 299 291
-0.024231065 0.69099998 -0.061789215 1.3657335e-38 300 291
-0.023019511 0.69099998 -0.061789215 1.3380747e-38 301 291
-0.021871079 0.69300002 -0.061968062 1.2186877e-38 302 291
-0.020685827 0.69400001 -0.06205748 1.2279073e-38 303 291
-0.01944096 0.69300002 -0.061968062 1.209468e-38 304 291
-0.018225901 0.69300002 -0.061968062 1.2647495e-38 305 291
-0.017035386 0.69400001 -0.06205748 1.3015208e-38 306 291
-0.015818574 0.69400001 -0.06205748 1.3475826e-38 307 291
-0.014580719 0.69300002 -0.061968062 1.3383618e-38 308 291
-0.01336566 0.69300002 -0.061968062 1.3383618e-38 309 291
-0.012115533 0.69099998 -0.061789215 1.3292849e-38 310 291
-0.01090398 0.69099998 -0.061789215 1.3292849e-38 311 291
-0.0096924258 0.69099998 -0.061789215 1.3107736e-38 312 291
-0.008480873 0.69099998 -0.061789215 1.2738952e-38 313 291
-0.0072903596 0.69300002 -0.061968062 1.2739305e-38 314 291
-0.0060753003 0.69300002 -0.061968062 1.2093946e-38 315 291
-0.00486024 0.69300002 -0.061968062 1.2369093e-38 316 291
-0.0036504399 0.69400001 -0.06205748 1.2645682e-38 317 291
-0.0024336267 0.69400001 -0.06205748 1.3197079e-38 318 291
-0.0012168133 0.69400001 -0.06205748 1.2551709e-38 319 291
0 0.69599998 -0.062236317 1.0523774e-38 320 291
0.0012203199 0.69599998 -0.062236317 9.5099961e-39 321 291
0.0024406398 0.69599998 -0.062236317 7.5832443e-39 322 291
0.00366622 0.69700003 -0.062325738 7.8594683e-39 323 291
0.0048882933 0.69700003 -0.062325738 8.7792582e-39 324 291
0.0061103669 0.69700003 -0.062325738 8.5026755e-39 325 291
0.0073429602 0.69800001 -0.062415157 8.2253754e-39 326 291
0.0085667865 0.69800001 -0.062415157 8.6863465e-39 327 291
0.0097906133 0.69800001 -0.062415157 9.7880137e-39 328 291
0.011045999 0.69999999 -0.062593997 9.7880137e-39 329 291
0.012273333 0.69999999 -0.062593997 9.5114408e-39 330 291
0.013500666 0.69999999 -0.062593997 9.4192452e-39 331 291
0.014727999 0.69999999 -0.062593997 8.9597104e-39 332 291
0.015955333 0.69999999 -0.062593997 8.4065366e-39 333 291
0.017207211 0.70099998 -0.062683418 7.6732862e-39 334 291
0.018488899 0.70300001 -0.062862262 8.0417044e-39 335 291
0.019721493 0.70300001 -0.062862262 8.4090463e-39 336 291
0.020983893 0.704 -0.062951677 8.4090463e-39 337 291
0.022281358 0.70599997 -0.063130513 8.6845528e-39 338 291
0.023519212 0.70599997 -0.063130513 8.6845528e-39 339 291
0.024792133 0.70700002 -0.063219935 8.2260956e-39 340 291
0.02603174 0.70700002 -0.063219935 8.1335413e-39 341 291
0.027271347 0.70700002 -0.063219935 8.4090548e-39 342 291
0.02855128 0.708 -0.063309364 8.5012504e-39 343 291
0.02979264 0.708 -0.063309364 8.3179409e-39 344 291
0.031121666 0.70999998 -0.063488193 8.3179409e-39 345 291
0.032366529 0.70999998 -0.063488193 8.7763925e-39 346 291
0.033611398 0.70999998 -0.063488193 8.7763925e-39 347 291
0.034856264 0.70999998 -0.063488193 7.7622658e-39 348 291
0.036151983 0.71100003 -0.063577622 7.3012877e-39 349 291
0.037398599 0.71100003 -0.063577622 7.3935029e-39 350 291
0.038645219 0.71100003 -0.063577622 7.7619253e-39 351 291
0.040004052 0.713 -0.063756458 8.2232412e-39 352 291
0.041312039 0.71399999 -0.063845873 8.3154368e-39 353 291
0.042563915 0.71399999 -0.063845873 8.591295e-39 354 291
-0.066070862 0.71100003 -0.064824238 1.2001089e-38 267 292
-0.064459547 0.70700002 -0.064459547 1.1544447e-38 268 292
-0.062951677 0.704 -0.064186029 1.1636644e-38 269 292
-0.061629668 0.70300001 -0.064094849 1.2004351e-38 270 292
-0.060139328 0.69999999 -0.063821331 1.2096905e-38 271 292
-0.05865952 0.69700003 -0.06354782 1.2741523e-38 272 292
-0.057355035 0.69599998 -0.063456632 1.3018471e-38 273 292
-0.056134716 0.69599998 -0.063456632 1.3295022e-38 274 292
-0.054677699 0.69300002 -0.063183114 1.3202468e-38 275 292
-0.053308345 0.69099998 -0.063000768 1.2649273e-38 276 292
-0.052096792 0.69099998 -0.063000768 1.1635127e-38 277 292
-0.050885238 0.69099998 -0.063000768 1.1544726e-38 278 292
-0.049601797 0.69 -0.062909603 1.2005703e-38 279 292
-0.048391998 0.69 -0.062909603 1.2280157e-38 280 292
-0.047182199 0.69 -0.062909603 1.2464548e-38 281 292
-0.045839146 0.68800002 -0.06272725 1.2556401e-38 282 292
-0.044632856 0.68800002 -0.06272725 1.2924823e-38 283 292
-0.043426562 0.68800002 -0.06272725 1.3108849e-38 284 292
-0.042342998 0.69 -0.062909603 1.3016653e-38 285 292
-0.041133199 0.69 -0.062909603 1.3475826e-38 286 292
-0.0399234 0.69 -0.062909603 1.3568381e-38 287 292
-0.038713597 0.69 -0.062909603 1.3568381e-38 288 292
-0.037503798 0.69 -0.062909603 1.3752773e-38 289 292
-0.036346599 0.69099998 -0.063000768 1.3660227e-38 290 292
-0.035084199 0.69 -0.062909603 1.3475476e-38 291 292
-0.0338744 0.69 -0.062909603 1.3106347e-38 292 292
-0.032664597 0.69 -0.062909603 1.3567325e-38 293 292
-0.031454802 0.69 -0.062909603 1.3475128e-38 294 292
-0.030244999 0.69 -0.062909603 1.3198543e-38 295 292
-0.029035198 0.69 -0.062909603 1.3105982e-38 296 292
-0.027744746 0.68800002 -0.06272725 1.3382208e-38 297 292
-0.026538454 0.68800002 -0.06272725 1.3199246e-38 298 292
-0.025405798 0.69 -0.062909603 1.3475832e-38 299 292
-0.024195999 0.69 -0.062909603 1.3750618e-38 300 292
-0.022986198 0.69 -0.062909603 1.3658423e-38 301 292
-0.021776399 0.69 -0.062909603 1.3107407e-38 302 292
-0.020596405 0.69099998 -0.063000768 1.3199602e-38 303 292
-0.019384852 0.69099998 -0.063000768 1.2739342e-38 304 292
-0.0181733 0.69099998 -0.063000768 1.2739342e-38 305 292
-0.016961746 0.69099998 -0.063000768 1.2831906e-38 306 292
-0.015750192 0.69099998 -0.063000768 1.3108851e-38 307 292
-0.014538639 0.69099998 -0.063000768 1.3934997e-38 308 292
-0.013327086 0.69099998 -0.063000768 1.3750606e-38 309 292
-0.012115533 0.69099998 -0.063000768 1.3844574e-38 310 292
-0.01090398 0.69099998 -0.063000768 1.3291401e-38 311 292
-0.0096924258 0.69099998 -0.063000768 1.2278693e-38 312 292
-0.008480873 0.69099998 -0.063000768 1.2186499e-38 313 292
-0.0072903596 0.69300002 -0.063183114 1.2736794e-38 314 292
-0.0060753003 0.69300002 -0.063183114 1.26446e-38 315 292
-0.00486024 0.69300002 -0.063183114 1.2553487e-38 316 292
-0.0036504399 0.69400001 -0.063274294 1.2645684e-38 317 292
-0.0024336267 0.69400001 -0.063274294 1.2183274e-38 318 292
-0.0012168133 0.69400001 -0.063274294 1.0892551e-38 319 292
0 0.69599998 -0.063456632 7.2141087e-39 320 292
0.0012203199 0.69599998 -0.063456632 6.7534963e-39 321 292
0.0024406398 0.69599998 -0.063456632 7.2141255e-39 322 292
0.00366622 0.69700003 -0.06354782 7.6751023e-39 323 292
0.0048882933 0.69700003 -0.06354782 7.949541e-39 324 292
0.0061103669 0.69700003 -0.06354782 7.949541e-39 325 292
0.0073429602 0.69800001 -0.063638985 8.5930831e-39 326 292
0.0085667865 0.69800001 -0.063638985 8.4083331e-39 327 292
0.0097906133 0.69800001 -0.063638985 8.5016063e-39 328 292
0.011045999 0.69999999 -0.063821331 8.5016063e-39 329 292
0.012273333 0.69999999 -0.063821331 9.050834e-39 330 292
0.013500666 0.69999999 -0.063821331 8.9586384e-39 331 292
0.014727999 0.69999999 -0.063821331 8.7745947e-39 332 292
0.015978126 0.70099998 -0.063912503 8.3139823e-39 333 292
0.017207211 0.70099998 -0.063912503 7.5807332e-39 334 292
0.018488899 0.70300001 -0.064094849 7.6729275e-39 335 292
0.019749546 0.704 -0.064186029 8.3161375e-39 336 292
0.021043506 0.70599997 -0.064368367 8.4083331e-39 337 292
0.022281358 0.70599997 -0.064368367 8.1328252e-39 338 292
0.023552528 0.70700002 -0.064459547 8.1328252e-39 339 292
0.024792133 0.70700002 -0.064459547 8.2250236e-39 340 292
0.02603174 0.70700002 -0.064459547 8.4090548e-39 341 292
0.027271347 0.70700002 -0.064459547 8.0420771e-39 342 292
0.02855128 0.708 -0.06455072 8.0420771e-39 343 292
0.029876797 0.70999998 -0.064733058 8.5008973e-39 344 292
0.031121666 0.70999998 -0.064733058 8.4087016e-39 345 292
0.032366529 0.70999998 -0.064733058 9.0536927e-39 346 292
0.033658739 0.71100003 -0.064824238 8.8689413e-39 347 292
0.034905359 0.71100003 -0.064824238 8.8675064e-39 348 292
0.036151983 0.71100003 -0.064824238 8.7749534e-39 349 292
0.037398599 0.71100003 -0.064824238 8.4083387e-39 350 292
0.038753927 0.713 -0.065006584 8.4083387e-39 351 292
0.040004052 0.713 -0.065006584 8.4076324e-39 352 292
0.041254178 0.713 -0.065006584 8.4998281e-39 353 292
-0.06455072 0.708 -0.065792084 1.1545884e-38 268 293
-0.062951677 0.704 -0.065420374 1.1453688e-38 269 293
-0.061629668 0.70300001 -0.065327443 1.2096181e-38 270 293
-0.060139328 0.69999999 -0.065048665 1.2003985e-38 271 293
-0.05865952 0.69700003 -0.064769886 1.2006136e-38 272 293
-0.057107817 0.69300002 -0.064398177 1.2927734e-38 273 293
-0.055892758 0.69300002 -0.064398177 1.3111372e-38 274 293
-0.054519895 0.69099998 -0.06421233 1.2558199e-38 275 293
-0.053308345 0.69099998 -0.06421233 1.1636921e-38 276 293
-0.052021399 0.69 -0.064119399 1.1268144e-38 277 293
-0.050664321 0.68800002 -0.063933544 1.2004981e-38 278 293
-0.049458027 0.68800002 -0.063933544 1.2926936e-38 279 293
-0.048251733 0.68800002 -0.063933544 1.3200656e-38 280 293
-0.047045439 0.68800002 -0.063933544 1.2831513e-38 281 293
-0.045772515 0.68699998 -0.06384062 1.2648204e-38 282 293
-0.044567976 0.68699998 -0.06384062 1.2924792e-38 283 293
-0.043363437 0.68699998 -0.06384062 1.329322e-38 284 293
-0.042220265 0.68800002 -0.063933544 1.329322e-38 285 293
-0.041013971 0.68800002 -0.063933544 1.329322e-38 286 293
-0.039807681 0.68800002 -0.063933544 1.3201025e-38 287 293
-0.038713597 0.69 -0.064119399 1.3659857e-38 288 293
-0.037503798 0.69 -0.064119399 1.3752054e-38 289 293
-0.036293998 0.69 -0.064119399 1.3659871e-38 290 293
-0.03498251 0.68800002 -0.063933544 1.3291448e-38 291 293
-0.033776212 0.68800002 -0.063933544 1.3291448e-38 292 293
-0.032569919 0.68800002 -0.063933544 1.3291448e-38 293 293
-0.031363625 0.68800002 -0.063933544 1.3106698e-38 294 293
-0.030157333 0.68800002 -0.063933544 1.2646078e-38 295 293
-0.028908957 0.68699998 -0.06384062 1.2829022e-38 296 293
-0.027704418 0.68699998 -0.06384062 1.3105249e-38 297 293
-0.026499879 0.68699998 -0.06384062 1.2830463e-38 298 293
-0.025295338 0.68699998 -0.06384062 1.3660225e-38 299 293
-0.024125867 0.68800002 -0.063933544 1.4120495e-38 300 293
-0.022919573 0.68800002 -0.063933544 1.4212692e-38 301 293
-0.021713281 0.68800002 -0.063933544 1.4578236e-38 302 293
-0.020566599 0.69 -0.064119399 1.4301651e-38 303 293
-0.019356798 0.69 -0.064119399 1.3749905e-38 304 293
-0.018146999 0.69 -0.064119399 1.3472959e-38 305 293
-0.0169372 0.69 -0.064119399 1.3381819e-38 306 293
-0.015750192 0.69099998 -0.06421233 1.2736449e-38 307 293
-0.014517599 0.69 -0.064119399 1.2365865e-38 308 293
-0.0133078 0.69 -0.064119399 1.2273671e-38 309 293
-0.012097999 0.69 -0.064119399 1.1813058e-38 310 293
-0.010888199 0.69 -0.064119399 1.0614892e-38 311 293
-0.0096783992 0.69 -0.064119399 6.8496366e-39 312 293
-0.0084686 0.69 -0.064119399 7.8641318e-39 313 293
-0.0072693196 0.69099998 -0.06421233 9.9741958e-39 314 293
-0.0060577663 0.69099998 -0.06421233 1.006639e-38 315 293
-0.00486024 0.69300002 -0.064398177 9.7887312e-39 316 293
-0.0036504399 0.69400001 -0.064491108 9.32776e-39 317 293
-0.0024336267 0.69400001 -0.064491108 8.0438568e-39 318 293
-0.0012168133 0.69400001 -0.064491108 8.2278865e-39 319 293
0 0.69599998 -0.064676955 8.5937935e-39 320 293
0.0012203199 0.69599998 -0.064676955 8.5015993e-39 321 293
0.0024406398 0.69599998 -0.064676955 8.2260956e-39 322 293
0.00366622 0.69700003 -0.064769886 8.4104869e-39 323 293
0.0048882933 0.69700003 -0.064769886 8.6845725e-39 324 293
0.0061103669 0.69700003 -0.064769886 8.5923768e-39 325 293
0.0073429602 0.69800001 -0.06486281 8.3157871e-39 326 293
0.0085667865 0.69800001 -0.06486281 6.5640856e-39 327 293
0.0098186666 0.69999999 -0.065048665 4.6391275e-39 328 293
0.011045999 0.69999999 -0.065048665 5.9298565e-39 329 293
0.012273333 0.69999999 -0.065048665 8.6824215e-39 330 293
0.013500666 0.69999999 -0.065048665 8.959007e-39 331 293
0.014749039 0.70099998 -0.065141588 8.6831249e-39 332 293
0.015978126 0.70099998 -0.065141588 8.5909293e-39 333 293
0.017256306 0.70300001 -0.065327443 7.4899753e-39 334 293
0.018488899 0.70300001 -0.065327443 7.5821724e-39 335 293
0.019749546 0.704 -0.065420374 8.1324749e-39 336 293
0.021043506 0.70599997 -0.065606222 8.1324749e-39 337 293
0.022281358 0.70599997 -0.065606222 8.2235915e-39 338 293
0.023552528 0.70700002 -0.065699153 8.2235915e-39 339 293
0.024792133 0.70700002 -0.065699153 8.5909293e-39 340 293
0.02603174 0.70700002 -0.065699153 8.5909293e-39 341 293
0.027271347 0.70700002 -0.065699153 8.4090548e-39 342 293
0.02855128 0.708 -0.065792084 8.4090548e-39 343 293
0.029876797 0.70999998 -0.065977924 8.6827746e-39 344 293
0.031121666 0.70999998 -0.065977924 8.9593601e-39 345 293
0.032366529 0.70999998 -0.065977924 9.5107374e-39 346 293
0.033658739 0.71100003 -0.066070862 9.2341491e-39 347 293
0.034905359 0.71100003 -0.066070862 8.5909447e-39 348 293
0.036151983 0.71100003 -0.066070862 8.6831403e-39 349 293
0.037398599 0.71100003 -0.066070862 8.2254076e-39 350 293
-0.063130513 0.70599997 -0.066844068 1.2371326e-38 269 294
-0.061629668 0.70300001 -0.066560037 1.2003988e-38 270 294
-0.060139328 0.69999999 -0.066275999 1.2096184e-38 271 294
-0.058575355 0.69599998 -0.065897278 1.2464243e-38 272 294
-0.057107817 0.69300002 -0.06561324 1.2740471e-38 273 294
-0.055731449 0.69099998 -0.065423876 1.3111016e-38 274 294
-0.054519895 0.69099998 -0.065423876 1.283443e-38 275 294
-0.053231198 0.69 -0.065329194 1.2740753e-38 276 294
-0.051870614 0.68800002 -0.065139838 1.218758e-38 277 294
-0.050590675 0.68699998 -0.065045156 1.2924442e-38 278 294
-0.049386136 0.68699998 -0.065045156 1.4215181e-38 279 294
-0.048111461 0.68599999 -0.064950474 1.2648594e-38 280 294
-0.046908677 0.68599999 -0.064950474 1.209542e-38 281 294
-0.045705888 0.68599999 -0.064950474 1.1913533e-38 282 294
-0.044503104 0.68599999 -0.064950474 1.2097564e-38 283 294
-0.043300316 0.68599999 -0.064950474 1.2191206e-38 284 294
-0.042158898 0.68699998 -0.065045156 1.2375956e-38 285 294
-0.040954359 0.68699998 -0.065045156 1.3569108e-38 286 294
-0.039749816 0.68699998 -0.065045156 1.3384717e-38 287 294
-0.038545277 0.68699998 -0.065045156 1.3659874e-38 288 294
-0.037340738 0.68699998 -0.065045156 1.3475123e-38 289 294
-0.036136195 0.68699998 -0.065045156 1.2830109e-38 290 294
-0.034880809 0.68599999 -0.064950474 1.2830109e-38 291 294
-0.033678025 0.68599999 -0.064950474 1.2926259e-38 292 294
-0.032475237 0.68599999 -0.064950474 1.3294682e-38 293 294
-0.031272452 0.68599999 -0.064950474 1.3567309e-38 294 294
-0.030069664 0.68599999 -0.064950474 1.3567309e-38 295 294
-0.02886688 0.68599999 -0.064950474 1.3015912e-38 296 294
-0.027664091 0.68599999 -0.064950474 1.2462738e-38 297 294
-0.026461305 0.68599999 -0.064950474 1.2186499e-38 298 294
-0.025295338 0.68699998 -0.065045156 1.255564e-38 299 294
-0.024090799 0.68699998 -0.065045156 1.3568009e-38 300 294
-0.022886258 0.68699998 -0.065045156 1.3752761e-38 301 294
-0.021713281 0.68800002 -0.065139838 1.3841719e-38 302 294
-0.020506985 0.68800002 -0.065139838 1.3288904e-38 303 294
-0.019300694 0.68800002 -0.065139838 1.2369093e-38 304 294
-0.0180944 0.68800002 -0.065139838 1.1815928e-38 305 294
-0.0169372 0.69 -0.065329194 1.1172362e-38 306 294
-0.015727401 0.69 -0.065329194 1.1080168e-38 307 294
-0.014517599 0.69 -0.065329194 1.1263121e-38 308 294
-0.0133078 0.69 -0.065329194 1.0802509e-38 309 294
-0.012097999 0.69 -0.065329194 1.0434091e-38 310 294
-0.010888199 0.69 -0.065329194 9.2355658e-39 311 294
-0.0096783992 0.69 -0.065329194 7.21375e-39 312 294
-0.0084686 0.69 -0.065329194 8.136051e-39 313 294
-0.0072693196 0.69099998 -0.065423876 9.3295537e-39 314 294
-0.0060577663 0.69099998 -0.065423876 9.0526123e-39 315 294
-0.00486024 0.69300002 -0.06561324 8.7767471e-39 316 294
-0.0036504399 0.69400001 -0.065707922 8.4076114e-39 317 294
-0.0024336267 0.69400001 -0.065707922 8.3179353e-39 318 294
-0.0012203199 0.69599998 -0.065897278 8.6867178e-39 319 294
0 0.69599998 -0.065897278 8.5930831e-39 320 294
0.0012203199 0.69599998 -0.065897278 8.5930831e-39 321 294
0.0024441467 0.69700003 -0.06599196 8.6856318e-39 322 294
0.00366622 0.69700003 -0.06599196 8.5934362e-39 323 294
0.0048882933 0.69700003 -0.06599196 8.5927272e-39 324 294
0.0061103669 0.69700003 -0.06599196 8.4083359e-39 325 294
0.0073429602 0.69800001 -0.066086642 8.591295e-39 326 294
0.0085667865 0.69800001 -0.066086642 7.3931162e-39 327 294
0.0098186666 0.69999999 -0.066275999 5.647897e-39 328 294
0.011045999 0.69999999 -0.066275999 6.3854621e-39 329 294
0.012273333 0.69999999 -0.066275999 7.028326e-39 330 294
0.013500666 0.69999999 -0.066275999 7.4896642e-39 331 294
0.014749039 0.70099998 -0.066370681 8.1328434e-39 332 294
0.015978126 0.70099998 -0.066370681 7.8562579e-39 333 294
0.017256306 0.70300001 -0.066560037 7.8569642e-39 334 294
0.018515198 0.704 -0.066654719 7.8569642e-39 335 294
0.019749546 0.704 -0.066654719 8.1321189e-39 336 294
0.021043506 0.70599997 -0.066844068 8.1321189e-39 337 294
0.022312919 0.70700002 -0.066938758 8.590579e-39 338 294
0.023552528 0.70700002 -0.066938758 8.590579e-39 339 294
0.024792133 0.70700002 -0.066938758 8.5909321e-39 340 294
0.02603174 0.70700002 -0.066938758 8.5909321e-39 341 294
0.027309919 0.708 -0.067033432 8.591295e-39 342 294
0.02855128 0.708 -0.067033432 8.6838494e-39 343 294
-0.061717331 0.704 -0.067889065 1.2187303e-38 270 295
-0.060139328 0.69999999 -0.067503333 1.2187303e-38 271 295
-0.058322877 0.69300002 -0.066828303 1.2279133e-38 272 295
-0.056942999 0.69099998 -0.06663543 1.2094381e-38 273 295
-0.055731449 0.69099998 -0.06663543 1.2557875e-38 274 295
-0.054440998 0.69 -0.066538997 1.3111409e-38 275 295
-0.053076908 0.68800002 -0.066346131 1.3661669e-38 276 295
-0.051870614 0.68800002 -0.066346131 1.3385082e-38 277 295
-0.050517038 0.68599999 -0.066153266 1.3845322e-38 278 295
-0.049314249 0.68599999 -0.066153266 1.43063e-38 279 295
-0.0479712 0.68400002 -0.0659604 1.1726265e-38 280 295
-0.04670354 0.68300003 -0.065863967 1.1449678e-38 281 295
-0.045506012 0.68300003 -0.065863967 1.1819517e-38 282 295
-0.044308487 0.68300003 -0.065863967 1.1542933e-38 283 295
-0.043110959 0.68300003 -0.065863967 1.1363583e-38 284 295
-0.041913435 0.68300003 -0.065863967 1.1916398e-38 285 295
-0.040715907 0.68300003 -0.065863967 1.3017722e-38 286 295
-0.03957624 0.68400002 -0.0659604 1.3017722e-38 287 295
-0.038376961 0.68400002 -0.0659604 1.3751704e-38 288 295
-0.037177678 0.68400002 -0.0659604 1.3106335e-38 289 295
-0.035978399 0.68400002 -0.0659604 1.2000359e-38 290 295
-0.03477912 0.68400002 -0.0659604 1.2368782e-38 291 295
-0.033579841 0.68400002 -0.0659604 1.3018824e-38 292 295
-0.032380559 0.68400002 -0.0659604 1.3664193e-38 293 295
-0.031272452 0.68599999 -0.066153266 1.4304878e-38 294 295
-0.030069664 0.68599999 -0.066153266 1.4120127e-38 295 295
-0.02886688 0.68599999 -0.066153266 1.3015912e-38 296 295
-0.027664091 0.68599999 -0.066153266 1.1909564e-38 297 295
-0.026461305 0.68599999 -0.066153266 1.1265633e-38 298 295
-0.025258519 0.68599999 -0.066153266 1.1265633e-38 299 295
-0.024055731 0.68599999 -0.066153266 1.1357468e-38 300 295
-0.022852944 0.68599999 -0.066153266 1.1264915e-38 301 295
-0.021681719 0.68699998 -0.066249698 1.107945e-38 302 295
-0.020477179 0.68699998 -0.066249698 1.0710315e-38 303 295
-0.019300694 0.68800002 -0.066346131 9.0533298e-39 304 295
-0.0180944 0.68800002 -0.066346131 8.039552e-39 305 295
-0.016888106 0.68800002 -0.066346131 7.2151849e-39 306 295
-0.015727401 0.69 -0.066538997 7.7683503e-39 307 295
-0.014517599 0.69 -0.066538997 8.961853e-39 308 295
-0.0133078 0.69 -0.066538997 8.8696588e-39 309 295
-0.012097999 0.69 -0.066538997 8.5015993e-39 310 295
-0.010888199 0.69 -0.066538997 8.3172109e-39 311 295
-0.0096783992 0.69 -0.066538997 8.4090463e-39 312 295
-0.0084686 0.69 -0.066538997 8.5012406e-39 313 295
-0.0072693196 0.69099998 -0.06663543 8.5920041e-39 314 295
-0.0060577663 0.69099998 -0.06663543 8.7763953e-39 315 295
-0.0048462129 0.69099998 -0.06663543 8.8682406e-39 316 295
-0.0036451798 0.69300002 -0.066828303 8.9604377e-39 317 295
-0.0024336267 0.69400001 -0.066924736 8.685643e-39 318 295
-0.0012203199 0.69599998 -0.067117594 8.593446e-39 319 295
0 0.69599998 -0.067117594 8.6852759e-39 320 295
0.0012220733 0.69700003 -0.067214034 8.6852759e-39 321 295
0.0024441467 0.69700003 -0.067214034 8.59273e-39 322 295
0.0036714801 0.69800001 -0.06731046 8.59273e-39 323 295
0.0048953067 0.69800001 -0.06731046 8.4083485e-39 324 295
0.006119133 0.69800001 -0.06731046 8.4083485e-39 325 295
0.0073429602 0.69800001 -0.06731046 8.4083541e-39 326 295
0.0085913334 0.69999999 -0.067503333 7.9473774e-39 327 295
0.0098186666 0.69999999 -0.067503333 7.2123319e-39 328 295
0.011045999 0.69999999 -0.067503333 6.8435507e-39 329 295
0.012290866 0.70099998 -0.067599766 6.1077808e-39 330 295
0.013519952 0.70099998 -0.067599766 6.8457045e-39 331 295
0.014791119 0.70300001 -0.067792632 8.1317686e-39 332 295
0.016023712 0.70300001 -0.067792632 8.039573e-39 333 295
0.017280852 0.704 -0.067889065 8.0402919e-39 334 295
0.018515198 0.704 -0.067889065 7.8562607e-39 335 295
0.019805651 0.70599997 -0.06808193 8.3147151e-39 336 295
0.021043506 0.70599997 -0.06808193 8.4069108e-39 337 295
-0.061717331 0.704 -0.06912341 1.2186231e-38 270 296
-0.060139328 0.69999999 -0.068730667 1.2094034e-38 271 296
-0.058322877 0.69300002 -0.068043359 1.1910719e-38 272 296
-0.056942999 0.69099998 -0.067846984 1.1910719e-38 273 296
-0.055731449 0.69099998 -0.067846984 1.1821407e-38 274 296
-0.054440998 0.69 -0.0677488 1.2651168e-38 275 296
-0.053076908 0.68800002 -0.067552425 1.3846436e-38 276 296
-0.051795214 0.68699998 -0.067454241 1.3385458e-38 277 296
-0.050517038 0.68599999 -0.06735605 1.3570162e-38 278 296
-0.049170479 0.68400002 -0.067159683 1.3846388e-38 279 296
-0.047830928 0.68199998 -0.0669633 1.292264e-38 280 296
-0.046498399 0.68000001 -0.066766933 1.2738249e-38 281 296
-0.045239504 0.67900002 -0.066668749 1.2647132e-38 282 296
-0.044048995 0.67900002 -0.066668749 1.2462741e-38 283 296
-0.042921599 0.68000001 -0.066766933 1.2465257e-38 284 296
-0.041729335 0.68000001 -0.066766933 1.2925877e-38 285 296
-0.040537067 0.68000001 -0.066766933 1.3385783e-38 286 296
-0.039460517 0.68199998 -0.0669633 1.3293586e-38 287 296
-0.038264744 0.68199998 -0.0669633 1.3475463e-38 288 296
-0.037068974 0.68199998 -0.0669633 1.2645703e-38 289 296
-0.035873197 0.68199998 -0.0669633 1.2186539e-38 290 296
-0.034677424 0.68199998 -0.0669633 1.2094344e-38 291 296
-0.03348165 0.68199998 -0.0669633 1.237164e-38 292 296
-0.032285877 0.68199998 -0.0669633 1.2279085e-38 293 296
-0.031135695 0.68300003 -0.067061491 1.2090724e-38 294 296
-0.029938167 0.68300003 -0.067061491 1.153791e-38 295 296
-0.02878272 0.68400002 -0.067159683 1.0161095e-38 296 296
-0.027583439 0.68400002 -0.067159683 1.025329e-38 297 296
-0.02638416 0.68400002 -0.067159683 1.0621708e-38 298 296
-0.025184879 0.68400002 -0.067159683 1.0529514e-38 299 296
-0.024055731 0.68599999 -0.06735605 1.0437319e-38 300 296
-0.022852944 0.68599999 -0.06735605 9.7919598e-39 301 296
-0.021681719 0.68699998 -0.067454241 9.8816429e-39 302 296
-0.020477179 0.68699998 -0.067454241 9.7894487e-39 303 296
-0.019272638 0.68699998 -0.067454241 8.685629e-39 304 296
-0.0180944 0.68800002 -0.067552425 8.0402694e-39 305 296
-0.016888106 0.68800002 -0.067552425 7.5821724e-39 306 296
-0.015727401 0.69 -0.0677488 7.9505947e-39 307 296
-0.014517599 0.69 -0.0677488 8.6841997e-39 308 296
-0.0133078 0.69 -0.0677488 8.3154186e-39 309 296
-0.012097999 0.69 -0.0677488 7.6725687e-39 310 296
-0.010888199 0.69 -0.0677488 7.8569614e-39 311 296
-0.0096783992 0.69 -0.0677488 7.856967e-39 312 296
-0.0084686 0.69 -0.0677488 7.856967e-39 313 296
-0.0072693196 0.69099998 -0.067846984 8.222874e-39 314 296
-0.0060577663 0.69099998 -0.067846984 8.4072667e-39 315 296
-0.0048462129 0.69099998 -0.067846984 8.2250362e-39 316 296
-0.0036451798 0.69300002 -0.068043359 8.3172319e-39 317 296
-0.0024336267 0.69400001 -0.068141542 8.6845725e-39 318 296
-0.0012203199 0.69599998 -0.068337917 8.5923768e-39 319 296
0 0.69599998 -0.068337917 8.776045e-39 320 296
0.0012220733 0.69700003 -0.068436109 8.776045e-39 321 296
0.0024441467 0.69700003 -0.068436109 8.5001784e-39 322 296
0.0036714801 0.69800001 -0.068534292 8.5001784e-39 323 296
0.0048953067 0.69800001 -0.068534292 7.9495284e-39 324 296
0.006119133 0.69800001 -0.068534292 8.041724e-39 325 296
0.0073639993 0.69999999 -0.068730667 8.4072821e-39 326 296
0.0085913334 0.69999999 -0.068730667 7.8541083e-39 327 296
0.0098186666 0.69999999 -0.068730667 7.7619281e-39 328 296
0.011045999 0.69999999 -0.068730667 7.7619281e-39 329 296
0.012290866 0.70099998 -0.068828844 7.85483e-39 330 296
0.013519952 0.70099998 -0.068828844 8.0392227e-39 331 296
0.014791119 0.70300001 -0.069025226 8.0399289e-39 332 296
0.016046507 0.704 -0.06912341 8.1321245e-39 333 296
0.017280852 0.704 -0.06912341 7.8562635e-39 334 296
0.018515198 0.704 -0.06912341 7.6715121e-39 335 296
-0.060139328 0.69999999 -0.069957994 1.2368471e-38 271 297
-0.058322877 0.69300002 -0.069258414 1.2093312e-38 272 297
-0.056942999 0.69099998 -0.069058537 1.2277343e-38 273 297
-0.055650797 0.69 -0.068958595 1.1728493e-38 274 297
-0.054283202 0.68800002 -0.068758719 1.2189469e-38 275 297
-0.052999757 0.68699998 -0.068658777 1.2925218e-38 276 297
-0.051719822 0.68599999 -0.068558842 1.3201805e-38 277 297
-0.05029612 0.68300003 -0.068259016 1.357053e-38 278 297
-0.049026705 0.68199998 -0.068159081 1.3293583e-38 279 297
-0.047620531 0.67900002 -0.067859262 1.3384675e-38 280 297
-0.046361636 0.67799997 -0.06775932 1.3569066e-38 281 297
-0.045172878 0.67799997 -0.06775932 1.3753111e-38 282 297
-0.043984115 0.67799997 -0.06775932 1.356836e-38 283 297
-0.042795356 0.67799997 -0.06775932 1.3475811e-38 284 297
-0.041606598 0.67799997 -0.06775932 1.3660561e-38 285 297
-0.040477451 0.67900002 -0.067859262 1.3845675e-38 286 297
-0.039344799 0.68000001 -0.067959204 1.3568728e-38 287 297
-0.038152531 0.68000001 -0.067959204 1.3105586e-38 288 297
-0.036960267 0.68000001 -0.067959204 1.2368021e-38 289 297
-0.035767999 0.68000001 -0.067959204 1.2185425e-38 290 297
-0.034677424 0.68199998 -0.068159081 1.2001034e-38 291 297
-0.03348165 0.68199998 -0.068159081 1.144751e-38 292 297
-0.032285877 0.68199998 -0.068159081 1.0617762e-38 293 297
-0.031090107 0.68199998 -0.068159081 7.581092e-39 294 297
-0.029894331 0.68199998 -0.068159081 7.3041505e-39 295 297
-0.028740639 0.68300003 -0.068259016 7.1237081e-39 296 297
-0.027583439 0.68400002 -0.068358958 8.3218758e-39 297 297
-0.02638416 0.68400002 -0.068358958 1.0067825e-38 298 297
-0.025184879 0.68400002 -0.068358958 9.8830778e-39 299 297
-0.024055731 0.68599999 -0.068558842 9.5153771e-39 300 297
-0.022852944 0.68599999 -0.068558842 9.0547647e-39 301 297
-0.021681719 0.68699998 -0.068658777 9.0537025e-39 302 297
-0.020477179 0.68699998 -0.068658777 8.8693112e-39 303 297
-0.019272638 0.68699998 -0.068658777 8.7774912e-39 304 297
-0.0180944 0.68800002 -0.068758719 8.6852955e-39 305 297
-0.016888106 0.68800002 -0.068758719 8.2246677e-39 306 297
-0.015727401 0.69 -0.068958595 8.1324721e-39 307 297
-0.014517599 0.69 -0.068958595 7.4871041e-39 308 297
-0.0133078 0.69 -0.068958595 7.2105214e-39 309 297
-0.012097999 0.69 -0.068958595 7.0279266e-39 310 297
-0.010888199 0.69 -0.068958595 7.3967049e-39 311 297
-0.0096924258 0.69099998 -0.069058537 8.2242992e-39 312 297
-0.008480873 0.69099998 -0.069058537 8.0402694e-39 313 297
-0.0072903596 0.69300002 -0.069258414 8.4061765e-39 314 297
-0.0060753003 0.69300002 -0.069258414 8.7749534e-39 315 297
-0.00486024 0.69300002 -0.069258414 8.5005343e-39 316 297
-0.0036504399 0.69400001 -0.069358356 8.5005343e-39 317 297
-0.0024336267 0.69400001 -0.069358356 8.7749758e-39 318 297
-0.0012203199 0.69599998 -0.069558233 8.6824215e-39 319 297
0 0.69599998 -0.069558233 8.6827746e-39 320 297
0.0012220733 0.69700003 -0.069658175 8.7749702e-39 321 297
0.0024476533 0.69800001 -0.069758117 8.5005315e-39 322 297
0.0036714801 0.69800001 -0.069758117 8.5005315e-39 323 297
0.0048953067 0.69800001 -0.069758117 8.591651e-39 324 297
0.006119133 0.69800001 -0.069758117 8.4076198e-39 325 297
0.0073639993 0.69999999 -0.069957994 7.8534077e-39 326 297
0.0085913334 0.69999999 -0.069957994 6.9310927e-39 327 297
0.0098186666 0.69999999 -0.069957994 6.7470924e-39 328 297
0.011061779 0.70099998 -0.070057929 7.8538e-39 329 297
0.012290866 0.70099998 -0.070057929 9.232745e-39 330 297
-0.05865952 0.69700003 -0.070880257 1.2275906e-38 272 298
-0.056942999 0.69099998 -0.070270091 1.2460295e-38 273 298
-0.055650797 0.69 -0.070168398 1.163593e-38 274 298
-0.054204296 0.68699998 -0.069863312 1.1543375e-38 275 298
-0.05292261 0.68599999 -0.069761619 1.1912859e-38 276 298
-0.051569041 0.68400002 -0.06955824 1.2282e-38 277 298
-0.050222475 0.68199998 -0.069354847 1.3292517e-38 278 298
-0.048811045 0.67900002 -0.069049768 1.3292517e-38 279 298
-0.047550395 0.67799997 -0.068948075 1.3476164e-38 280 298
-0.046361636 0.67799997 -0.068948075 1.3476164e-38 281 298
-0.045039624 0.676 -0.068744689 1.3660558e-38 282 298
-0.043854371 0.676 -0.068744689 1.3383971e-38 283 298
-0.042795356 0.67799997 -0.068948075 1.3197782e-38 284 298
-0.041606598 0.67799997 -0.068948075 1.3013391e-38 285 298
-0.040417835 0.67799997 -0.068948075 1.2736797e-38 286 298
-0.039229076 0.67799997 -0.068948075 1.1907405e-38 287 298
-0.038096428 0.67900002 -0.069049768 1.1446075e-38 288 298
-0.036905911 0.67900002 -0.069049768 1.1077298e-38 289 298
-0.035715401 0.67900002 -0.069049768 1.0527361e-38 290 298
-0.034575731 0.68000001 -0.069151461 1.0435167e-38 291 298
-0.033383466 0.68000001 -0.069151461 9.9738371e-39 292 298
-0.032285877 0.68199998 -0.069354847 9.4210305e-39 293 298
-0.031090107 0.68199998 -0.069354847 7.21375e-39 294 298
-0.029894331 0.68199998 -0.069354847 7.6747211e-39 295 298
-0.028740639 0.68300003 -0.069456547 8.2260928e-39 296 298
-0.027543113 0.68300003 -0.069456547 8.687064e-39 297 298
-0.026345588 0.68300003 -0.069456547 9.2370007e-39 298 298
-0.025184879 0.68400002 -0.06955824 9.2370007e-39 299 298
-0.0239856 0.68400002 -0.06955824 9.145524e-39 300 298
-0.022852944 0.68599999 -0.069761619 8.7767471e-39 301 298
-0.021681719 0.68699998 -0.069863312 8.5012532e-39 302 298
-0.020477179 0.68699998 -0.069863312 8.5012532e-39 303 298
-0.019272638 0.68699998 -0.069863312 8.5009029e-39 304 298
-0.0180944 0.68800002 -0.06996502 8.5009029e-39 305 298
-0.016888106 0.68800002 -0.06996502 8.7763981e-39 306 298
-0.015727401 0.69 -0.070168398 8.407617e-39 307 298
-0.014517599 0.69 -0.070168398 6.4747612e-39 308 298
-0.0133078 0.69 -0.070168398 7.0279266e-39 309 298
-0.012097999 0.69 -0.070168398 7.3970622e-39 310 298
-0.01090398 0.69099998 -0.070270091 7.8576802e-39 311 298
-0.0096924258 0.69099998 -0.070270091 8.7763925e-39 312 298
-0.0085054198 0.69300002 -0.070473477 8.6841969e-39 313 298
-0.0072903596 0.69300002 -0.070473477 8.9593447e-39 314 298
-0.0060753003 0.69300002 -0.070473477 9.0515403e-39 315 298
-0.0048672534 0.69400001 -0.07057517 8.7756793e-39 316 298
-0.0036504399 0.69400001 -0.07057517 8.6831249e-39 317 298
-0.0024406398 0.69599998 -0.070778556 8.7738912e-39 318 298
-0.0012203199 0.69599998 -0.070778556 8.7738912e-39 319 298
0 0.69700003 -0.070880257 8.5905818e-39 320 298
0.0012220733 0.69700003 -0.070880257 8.774973e-39 321 298
0.0024476533 0.69800001 -0.07098195 8.776045e-39 322 298
0.0036714801 0.69800001 -0.07098195 8.8682406e-39 323 298
0.0048953067 0.69800001 -0.07098195 9.4188977e-39 324 298
-0.05865952 0.69700003 -0.072102323 1.1817076e-38 272 299
-0.056942999 0.69099998 -0.071481638 1.2277694e-38 273 299
-0.055650797 0.69 -0.071378194 1.2094031e-38 274 299
-0.054204296 0.68699998 -0.071067855 1.2094031e-38 275 299
-0.05292261 0.68599999 -0.070964411 1.1728124e-38 276 299
-0.051569041 0.68400002 -0.070757523 1.2004351e-38 277 299
-0.050075196 0.68000001 -0.070343733 1.3017375e-38 278 299
-0.048739154 0.67799997 -0.070136838 1.3293963e-38 279 299
-0.047550395 0.67799997 -0.070136838 1.3842428e-38 280 299
-0.046224877 0.676 -0.069929942 1.3565843e-38 281 299
-0.045039624 0.676 -0.069929942 1.338145e-38 282 299
-0.043854371 0.676 -0.069929942 1.3012669e-38 283 299
-0.042669121 0.676 -0.069929942 1.2736435e-38 284 299
-0.041483864 0.676 -0.069929942 1.2275464e-38 285 299
-0.040417835 0.67799997 -0.070136838 1.1722299e-38 286 299
-0.039229076 0.67799997 -0.070136838 1.0984745e-38 287 299
-0.038040318 0.67799997 -0.070136838 9.7894487e-39 288 299
-0.036905911 0.67900002 -0.070240289 9.7894487e-39 289 299
-0.035715401 0.67900002 -0.070240289 9.4221067e-39 290 299
-0.034575731 0.68000001 -0.070343733 9.4221067e-39 291 299
-0.033383466 0.68000001 -0.070343733 8.8696644e-39 292 299
-0.032191198 0.68000001 -0.070343733 8.6856318e-39 293 299
-0.031090107 0.68199998 -0.070550621 8.4083289e-39 294 299
-0.029894331 0.68199998 -0.070550621 8.5923586e-39 295 299
-0.02869856 0.68199998 -0.070550621 8.2250208e-39 296 299
-0.027543113 0.68300003 -0.070654072 8.5016063e-39 297 299
-0.026345588 0.68300003 -0.070654072 8.4083541e-39 298 299
-0.025184879 0.68400002 -0.070757523 8.2239642e-39 299 299
-0.0239856 0.68400002 -0.070757523 8.4083485e-39 300 299
-0.022852944 0.68599999 -0.070964411 8.1321217e-39 301 299
-0.021681719 0.68699998 -0.071067855 7.7640651e-39 302 299
-0.020477179 0.68699998 -0.071067855 8.0402919e-39 303 299
-0.019272638 0.68699998 -0.071067855 8.3147306e-39 304 299
-0.0180944 0.68800002 -0.071171306 8.3147306e-39 305 299
-0.016888106 0.68800002 -0.071171306 8.5913006e-39 306 299
-0.015727401 0.69 -0.071378194 8.7756919e-39 307 299
-0.014517599 0.69 -0.071378194 7.8555222e-39 308 299
-0.0133078 0.69 -0.071378194 7.9477165e-39 309 299
-0.012115533 0.69099998 -0.071481638 8.4079702e-39 310 299
-0.01090398 0.69099998 -0.071481638 8.7763925e-39 311 299
-0.0097204801 0.69300002 -0.07168854 8.5934488e-39 312 299
-0.0085054198 0.69300002 -0.07168854 8.5934488e-39 313 299
-0.0073008798 0.69400001 -0.071791984 8.4090576e-39 314 299
-0.0060840664 0.69400001 -0.071791984 8.4090576e-39 315 299
-0.0048672534 0.69400001 -0.071791984 8.8667959e-39 316 299
-0.0036609597 0.69599998 -0.071998879 8.8667959e-39 317 299
-0.0024406398 0.69599998 -0.071998879 8.7742415e-39 318 299
-0.0012220733 0.69700003 -0.072102323 8.7742415e-39 319 299
-0.056942999 0.69099998 -0.072693199 1.264576e-38 273 300
-0.055650797 0.69 -0.072587997 1.2094754e-38 274 300
-0.054283202 0.68800002 -0.0723776 1.1910722e-38 275 300
-0.05292261 0.68599999 -0.072167195 1.2002542e-38 276 300
-0.051493648 0.68300003 -0.071851604 1.2002542e-38 277 300
-0.049927916 0.67799997 -0.0713256 1.2555692e-38 278 300
-0.048595384 0.676 -0.071115203 1.2279103e-38 279 300
-0.047410134 0.676 -0.071115203 1.18145e-38 280 300
-0.046224877 0.676 -0.071115203 1.0799998e-38 281 300
-0.045039624 0.676 -0.071115203 9.3284775e-39 282 300
-0.043854371 0.676 -0.071115203 9.3284775e-39 283 300
-0.042669121 0.676 -0.071115203 8.5941523e-39 284 300
-0.041483864 0.676 -0.071115203 8.3172109e-39 285 300
-0.040298611 0.676 -0.071115203 8.4083289e-39 286 300
-0.039229076 0.67799997 -0.0713256 8.2239404e-39 287 300
-0.038040318 0.67799997 -0.0713256 7.4888977e-39 288 300
-0.036851559 0.67799997 -0.0713256 7.4888977e-39 289 300
-0.035715401 0.67900002 -0.071430802 7.3052267e-39 290 300
-0.034524884 0.67900002 -0.071430802 7.3052267e-39 291 300
-0.033383466 0.68000001 -0.071535997 8.6841969e-39 292 300
-0.032191198 0.68000001 -0.071535997 8.5920013e-39 293 300
-0.030998932 0.68000001 -0.071535997 8.4083359e-39 294 300
-0.029894331 0.68199998 -0.071746394 8.4083359e-39 295 300
-0.02869856 0.68199998 -0.071746394 8.1321217e-39 296 300
-0.027543113 0.68300003 -0.071851604 7.8555335e-39 297 300
-0.026345588 0.68300003 -0.071851604 8.037408e-39 298 300
-0.025184879 0.68400002 -0.071956798 8.1296036e-39 299 300
-0.0239856 0.68400002 -0.071956798 7.9473633e-39 300 300
-0.022852944 0.68599999 -0.072167195 8.039559e-39 301 300
-0.021681719 0.68699998 -0.07227239 7.8573299e-39 302 300
-0.020477179 0.68699998 -0.07227239 7.8573299e-39 303 300
-0.019300694 0.68800002 -0.0723776 8.4069136e-39 304 300
-0.0180944 0.68800002 -0.0723776 8.6831403e-39 305 300
-0.016888106 0.68800002 -0.0723776 8.4998281e-39 306 300
-0.015750192 0.69099998 -0.072693199 8.6845781e-39 307 300
-0.014538639 0.69099998 -0.072693199 8.4097862e-39 308 300
-0.013327086 0.69099998 -0.072693199 7.6718625e-39 309 300
-0.012115533 0.69099998 -0.072693199 7.2094452e-39 310 300
-0.010935539 0.69300002 -0.072903603 6.9328625e-39 311 300
-0.0097204801 0.69300002 -0.072903603 7.4874684e-39 312 300
-0.0085054198 0.69300002 -0.072903603 7.8566111e-39 313 300
-0.0073008798 0.69400001 -0.073008798 8.1324875e-39 314 300
-0.0060840664 0.69400001 -0.073008798 8.2246831e-39 315 300
-0.055731449 0.69099998 -0.073904753 1.2370978e-38 274 301
-0.054440998 0.69 -0.0737978 1.2001835e-38 275 301
-0.052999757 0.68699998 -0.073476933 1.2093665e-38 276 301
-0.051493648 0.68300003 -0.073049128 1.2093665e-38 277 301
-0.049927916 0.67799997 -0.072514355 1.190999e-38 278 301
-0.048595384 0.676 -0.072300449 1.2094381e-38 279 301
-0.047410134 0.676 -0.072300449 9.6987062e-39 280 301
-0.046224877 0.676 -0.072300449 8.6845528e-39 281 301
-0.045039624 0.676 -0.072300449 8.0424218e-39 282 301
-0.043854371 0.676 -0.072300449 8.1346161e-39 283 301
-0.042669121 0.676 -0.072300449 8.2239446e-39 284 301
-0.041483864 0.676 -0.072300449 8.3161403e-39 285 301
-0.040298611 0.676 -0.072300449 8.3172347e-39 286 301
-0.039229076 0.67799997 -0.072514355 8.225039e-39 287 301
-0.038040318 0.67799997 -0.072514355 7.9488221e-39 288 301
-0.036851559 0.67799997 -0.072514355 7.6722352e-39 289 301
-0.035715401 0.67900002 -0.072621316 7.6729611e-39 290 301
-0.034524884 0.67900002 -0.072621316 7.8569922e-39 291 301
-0.033383466 0.68000001 -0.072728261 8.1324903e-39 292 301
-0.032191198 0.68000001 -0.072728261 8.1324903e-39 293 301
-0.030998932 0.68000001 -0.072728261 8.2243174e-39 294 301
-0.029894331 0.68199998 -0.072942168 8.2243174e-39 295 301
-0.02869856 0.68199998 -0.072942168 8.4079828e-39 296 301
-0.027543113 0.68300003 -0.073049128 8.3157871e-39 297 301
-0.02638416 0.68400002 -0.073156074 8.5905762e-39 298 301
-0.025184879 0.68400002 -0.073156074 8.3139879e-39 299 301
-0.024055731 0.68599999 -0.073369987 7.8558838e-39 300 301
-0.022852944 0.68599999 -0.073369987 8.0402764e-39 301 301
-0.021713281 0.68800002 -0.073583893 8.2246677e-39 302 301
-0.020506985 0.68800002 -0.073583893 8.2246677e-39 303 301
-0.019300694 0.68800002 -0.073583893 8.2243174e-39 304 301
-0.0180944 0.68800002 -0.073583893 8.2243174e-39 305 301
-0.0169372 0.69 -0.0737978 8.2257579e-39 306 301
-0.015750192 0.69099998 -0.073904753 8.0417268e-39 307 301
-0.014580719 0.69300002 -0.074118659 8.5920237e-39 308 301
-0.01336566 0.69300002 -0.074118659 8.0392101e-39 309 301
-0.012150601 0.69300002 -0.074118659 7.209455e-39 310 301
-0.010935539 0.69300002 -0.074118659 6.9332282e-39 311 301
-0.0097204801 0.69300002 -0.074118659 6.8432004e-39 312 301
-0.054440998 0.69 -0.075007595 1.2369176e-38 275 302
-0.052999757 0.68699998 -0.074681476 1.190999e-38 276 302
-0.051493648 0.68300003 -0.074246652 1.1817795e-38 277 302
-0.049927916 0.67799997 -0.073703118 1.1909987e-38 278 302
-0.048595384 0.676 -0.073485702 1.1449368e-38 279 302
-0.047410134 0.676 -0.073485702 8.6874437e-39 280 302
-0.046224877 0.676 -0.073485702 8.5030525e-39 281 302
-0.045039624 0.676 -0.073485702 8.2260928e-39 282 302
-0.043854371 0.676 -0.073485702 8.1338986e-39 283 302
-0.042669121 0.676 -0.073485702 8.4079702e-39 284 302
-0.041483864 0.676 -0.073485702 8.4079702e-39 285 302
-0.040298611 0.676 -0.073485702 8.4083331e-39 286 302
-0.039229076 0.67799997 -0.073703118 8.4083331e-39 287 302
-0.038040318 0.67799997 -0.073703118 8.0399233e-39 288 302
-0.036905911 0.67900002 -0.073811822 8.0399233e-39 289 302
-0.035715401 0.67900002 -0.073811822 8.040645e-39 290 302
-0.034575731 0.68000001 -0.073920533 8.1328406e-39 291 302
-0.033383466 0.68000001 -0.073920533 8.315434e-39 292 302
-0.032191198 0.68000001 -0.073920533 8.2232384e-39 293 302
-0.031090107 0.68199998 -0.074137948 8.4076324e-39 294 302
-0.029894331 0.68199998 -0.074137948 8.5920237e-39 295 302
-0.028740639 0.68300003 -0.074246652 9.2359484e-39 296 302
-0.027583439 0.68400002 -0.074355356 9.328144e-39 297 302
-0.02638416 0.68400002 -0.074355356 8.868591e-39 298 302
-0.025258519 0.68599999 -0.074572764 8.223223e-39 299 302
-0.024055731 0.68599999 -0.074572764 8.0388345e-39 300 302
-0.022886258 0.68699998 -0.074681476 8.1310287e-39 301 302
-0.021713281 0.68800002 -0.074790187 8.039559e-39 302 302
-0.020506985 0.68800002 -0.074790187 8.039559e-39 303 302
-0.019300694 0.68800002 -0.074790187 8.2228852e-39 304 302
-0.018146999 0.69 -0.075007595 8.4076352e-39 305 302
-0.052999757 0.68699998 -0.075886011 1.1266417e-38 276 303
-0.051569041 0.68400002 -0.075554639 1.1451167e-38 277 303
-0.050001562 0.67900002 -0.075002335 1.1909993e-38 278 303
-0.048739154 0.67799997 -0.074891873 1.1449015e-38 279 303
-0.047410134 0.676 -0.074670963 8.963323e-39 280 303
-0.046224877 0.676 -0.074670963 8.3179535e-39 281 303
-0.045039624 0.676 -0.074670963 7.3055855e-39 282 303
-0.043854371 0.676 -0.074670963 7.5821696e-39 283 303
-0.042669121 0.676 -0.074670963 8.4090463e-39 284 303
-0.041483864 0.676 -0.074670963 8.4090463e-39 285 303
-0.040298611 0.676 -0.074670963 8.6841969e-39 286 303
-0.039229076 0.67799997 -0.074891873 8.4079702e-39 287 303
-0.038040318 0.67799997 -0.074891873 8.2232384e-39 288 303
-0.036905911 0.67900002 -0.075002335 8.2232384e-39 289 303
-0.035767999 0.68000001 -0.075112797 7.7651315e-39 290 303
-0.034575731 0.68000001 -0.075112797 7.7651315e-39 291 303
-0.033383466 0.68000001 -0.075112797 8.4061835e-39 292 303
-0.032285877 0.68199998 -0.075333714 8.3139879e-39 293 303
-0.031090107 0.68199998 -0.075333714 8.2232412e-39 294 303
-0.029938167 0.68300003 -0.075444184 8.4998281e-39 295 303
-0.02878272 0.68400002 -0.075554639 8.9575664e-39 296 303
-0.027664091 0.68599999 -0.075775556 8.9575664e-39 297 303
-0.026461305 0.68599999 -0.075775556 8.4058374e-39 298 303
-0.025258519 0.68599999 -0.075775556 8.0370549e-39 299 303
-0.024090799 0.68699998 -0.075886011 7.3016548e-39 300 303
-0.022886258 0.68699998 -0.075886011 7.2094578e-39 301 303
-0.021713281 0.68800002 -0.075996481 7.2098109e-39 302 303
-0.020506985 0.68800002 -0.075996481 7.3942036e-39 303 303
-0.019300694 0.68800002 -0.075996481 7.7626316e-39 304 303
-0.051569041 0.68400002 -0.076753922 1.1818145e-38 277 304
-0.050075196 0.68000001 -0.076305062 1.1909637e-38 278 304
-0.048739154 0.67799997 -0.076080635 1.1909637e-38 279 304
-0.047410134 0.676 -0.075856209 8.9629544e-39 280 304
-0.046224877 0.676 -0.075856209 8.0409981e-39 281 304
-0.045039624 0.676 -0.075856209 7.7654804e-39 282 304
-0.043854371 0.676 -0.075856209 8.0420631e-39 283 304
-0.042669121 0.676 -0.075856209 8.4090463e-39 284 304
-0.041483864 0.676 -0.075856209 8.5015993e-39 285 304
-0.040417835 0.67799997 -0.076080635 8.6841997e-39 286 304
-0.039229076 0.67799997 -0.076080635 8.6841997e-39 287 304
-0.038096428 0.67900002 -0.076192856 8.3157871e-39 288 304
-0.036960267 0.68000001 -0.076305062 8.3157871e-39 289 304
-0.035767999 0.68000001 -0.076305062 8.0406282e-39 290 304
-0.034677424 0.68199998 -0.076529488 7.9484339e-39 291 304
-0.03348165 0.68199998 -0.076529488 8.3136235e-39 292 304
-0.032333218 0.68300003 -0.076641709 8.4058178e-39 293 304
-0.031135695 0.68300003 -0.076641709 8.1299694e-39 294 304
-0.029982001 0.68400002 -0.076753922 8.0377737e-39 295 304
-0.02886688 0.68599999 -0.076978341 7.6664899e-39 296 304
-0.027664091 0.68599999 -0.076978341 7.5742943e-39 297 304
-0.026461305 0.68599999 -0.076978341 7.2991521e-39 298 304
