# .PCD v.7 - Point Cloud Data file format
FIELDS x y z rgb imX imY
SIZE 4 4 4 4 4 4
TYPE F F F F F F
COUNT 1 1 1 1 1 1
WIDTH 841
HEIGHT 1
VIEWPOINT 0 0 0 1 0 0 0
POINTS 841
DATA ascii
0.054921411 0.764 -0.034828212 2.2555782e-38 361 266
0.056408234 0.76599997 -0.034919381 2.1377804e-38 362 266
-0.0526 0.75 -0.035505001 2.2386564e-38 280 267
-0.051284999 0.75 -0.035505001 2.1280217e-38 281 267
-0.04990337 0.74900001 -0.03545766 2.2741991e-38 282 267
-0.048590127 0.74900001 -0.03545766 2.1819676e-38 283 267
-0.047339998 0.75 -0.035505001 2.3468362e-38 284 267
-0.04614773 0.75199997 -0.035599679 2.3468362e-38 285 267
-0.044829223 0.75199997 -0.035599679 2.3469074e-38 286 267
-0.043394998 0.75 -0.035505001 2.3468355e-38 287 267
-0.04208 0.75 -0.035505001 2.3468358e-38 288 267
-0.040873703 0.75199997 -0.035599679 2.3468718e-38 289 267
-0.039555199 0.75199997 -0.035599679 2.346872e-38 290 267
-0.038236689 0.75199997 -0.035599679 2.3468358e-38 291 267
-0.036918186 0.75199997 -0.035599679 2.3466925e-38 292 267
-0.035599679 0.75199997 -0.035599679 2.3467286e-38 293 267
-0.034281172 0.75199997 -0.035599679 2.3467997e-38 294 267
-0.032962665 0.75199997 -0.035599679 2.3467636e-38 295 267
-0.031644158 0.75199997 -0.035599679 2.3467278e-38 296 267
-0.030325651 0.75199997 -0.035599679 2.3466918e-38 297 267
-0.029007144 0.75199997 -0.035599679 2.3466562e-38 298 267
-0.027688639 0.75199997 -0.035599679 2.3465843e-38 299 267
-0.02637013 0.75199997 -0.035599679 2.3466556e-38 300 267
-0.025051624 0.75199997 -0.035599679 2.3466556e-38 301 267
-0.023733119 0.75199997 -0.035599679 2.3467628e-38 302 267
-0.022414612 0.75199997 -0.035599679 2.3467988e-38 303 267
-0.021096105 0.75199997 -0.035599679 2.3467994e-38 304 267
-0.019830201 0.75400001 -0.035694357 2.3468355e-38 305 267
-0.018508185 0.75400001 -0.035694357 2.3467997e-38 306 267
-0.017186172 0.75400001 -0.035694357 2.3467997e-38 307 267
-0.01586416 0.75400001 -0.035694357 2.3466909e-38 308 267
-0.014542146 0.75400001 -0.035694357 2.3466189e-38 309 267
-0.013220133 0.75400001 -0.035694357 2.3467971e-38 310 267
-0.011866559 0.75199997 -0.035599679 2.3468332e-38 311 267
-0.010548052 0.75199997 -0.035599679 2.3469053e-38 312 267
-0.0092049995 0.75 -0.035505001 2.3469775e-38 313 267
-0.00789 0.75 -0.035505001 2.346798e-38 314 267
-0.0065662335 0.74900001 -0.03545766 2.3098837e-38 315 267
-0.0052529867 0.74900001 -0.03545766 2.3463305e-38 316 267
-0.003945 0.75 -0.035505001 2.3464384e-38 317 267
-0.0026370131 0.75199997 -0.035599679 2.3466189e-38 318 267
-0.0013185065 0.75199997 -0.035599679 2.3467629e-38 319 267
0 0.75400001 -0.035694357 2.3467991e-38 320 267
0.0013220133 0.75400001 -0.035694357 2.3467991e-38 321 267
0.0026440267 0.75400001 -0.035694357 2.3467628e-38 322 267
0.00396604 0.75400001 -0.035694357 2.3467988e-38 323 267
0.0052529867 0.74900001 -0.03545766 2.3467984e-38 324 267
0.0065662335 0.74900001 -0.03545766 2.3468344e-38 325 267
0.0078794798 0.74900001 -0.03545766 2.3466906e-38 326 267
0.0091927266 0.74900001 -0.03545766 2.3466906e-38 327 267
0.010505973 0.74900001 -0.03545766 2.3466909e-38 328 267
0.01181922 0.74900001 -0.03545766 2.3466549e-38 329 267
0.013132467 0.74900001 -0.03545766 2.3467615e-38 330 267
0.014445714 0.74900001 -0.03545766 2.3466897e-38 331 267
0.01575896 0.74900001 -0.03545766 2.3466881e-38 332 267
0.017072206 0.74900001 -0.03545766 2.346652e-38 333 267
0.018385453 0.74900001 -0.03545766 2.3465445e-38 334 267
0.0196987 0.74900001 -0.03545766 2.3465085e-38 335 267
0.020955838 0.74699998 -0.035362978 2.3465456e-38 336 267
0.022265578 0.74699998 -0.035362978 2.3466176e-38 337 267
0.023575317 0.74699998 -0.035362978 2.3466901e-38 338 267
0.024885058 0.74699998 -0.035362978 2.346798e-38 339 267
0.026194798 0.74699998 -0.035362978 2.3467625e-38 340 267
0.027578179 0.74900001 -0.03545766 2.3467985e-38 341 267
0.028891427 0.74900001 -0.03545766 2.3467991e-38 342 267
0.030204674 0.74900001 -0.03545766 2.3468353e-38 343 267
0.031517919 0.74900001 -0.03545766 2.3468355e-38 344 267
0.032831166 0.74900001 -0.03545766 2.3468355e-38 345 267
0.034144413 0.74900001 -0.03545766 2.3469783e-38 346 267
0.03545766 0.74900001 -0.03545766 2.3470143e-38 347 267
0.036770906 0.74900001 -0.03545766 2.3470868e-38 348 267
0.038135 0.75 -0.035505001 2.3470868e-38 349 267
0.039449997 0.75 -0.035505001 2.2641829e-38 350 267
0.040873703 0.75199997 -0.035599679 2.0981947e-38 351 267
0.042304426 0.75400001 -0.035694357 2.1341354e-38 352 267
0.043684296 0.755 -0.035741698 2.0327572e-38 353 267
0.045127295 0.75700003 -0.03583638 2.0143901e-38 354 267
0.046700031 0.76099998 -0.036025736 1.9959871e-38 355 267
0.048034318 0.76099998 -0.036025736 1.9777288e-38 356 267
0.049433477 0.76200002 -0.036073081 1.9962038e-38 357 267
0.050769519 0.76200002 -0.036073081 1.9408157e-38 358 267
0.052242316 0.764 -0.036167759 1.9408157e-38 359 267
0.053722132 0.76599997 -0.036262438 2.0440337e-38 360 267
0.055065181 0.76599997 -0.036262438 2.2468642e-38 361 267
0.056997359 0.77399999 -0.036641158 2.1376734e-38 362 267
-0.053914998 0.75 -0.036819998 2.1927391e-38 279 268
-0.052529868 0.74900001 -0.036770906 2.3388453e-38 280 268
-0.051216617 0.74900001 -0.036770906 2.2558691e-38 281 268
-0.049770117 0.74699998 -0.036672719 2.3286858e-38 282 268
-0.048460379 0.74699998 -0.036672719 2.2734043e-38 283 268
-0.047276881 0.74900001 -0.036770906 2.3467268e-38 284 268
-0.045963634 0.74900001 -0.036770906 2.3467988e-38 285 268
-0.044650383 0.74900001 -0.036770906 2.3468708e-38 286 268
-0.043221418 0.74699998 -0.036672719 2.3468708e-38 287 268
-0.041911677 0.74699998 -0.036672719 2.3469783e-38 288 268
-0.040601939 0.74699998 -0.036672719 2.3469783e-38 289 268
-0.0393974 0.74900001 -0.036770906 2.3469073e-38 290 268
-0.038084153 0.74900001 -0.036770906 2.3468711e-38 291 268
-0.036770906 0.74900001 -0.036770906 2.3466923e-38 292 268
-0.03545766 0.74900001 -0.036770906 2.3466923e-38 293 268
-0.034189999 0.75 -0.036819998 2.3467283e-38 294 268
-0.032874998 0.75 -0.036819998 2.3467645e-38 295 268
-0.03156 0.75 -0.036819998 2.3466562e-38 296 268
-0.030204674 0.74900001 -0.036770906 2.3465843e-38 297 268
-0.028891427 0.74900001 -0.036770906 2.3465843e-38 298 268
-0.027578179 0.74900001 -0.036770906 2.3465843e-38 299 268
-0.0263 0.75 -0.036819998 2.3466196e-38 300 268
-0.024951685 0.74900001 -0.036770906 2.3466556e-38 301 268
-0.02363844 0.74900001 -0.036770906 2.3466556e-38 302 268
-0.022325192 0.74900001 -0.036770906 2.3466916e-38 303 268
-0.02104 0.75 -0.036819998 2.3467997e-38 304 268
-0.019724999 0.75 -0.036819998 2.3468358e-38 305 268
-0.018409999 0.75 -0.036819998 2.3467997e-38 306 268
-0.017095 0.75 -0.036819998 2.3467636e-38 307 268
-0.01578 0.75 -0.036819998 2.3466906e-38 308 268
-0.014445714 0.74900001 -0.036770906 2.3466906e-38 309 268
-0.013132467 0.74900001 -0.036770906 2.3468332e-38 310 268
-0.01181922 0.74900001 -0.036770906 2.3468692e-38 311 268
-0.010505973 0.74900001 -0.036770906 2.3469415e-38 312 268
-0.0091927266 0.74900001 -0.036770906 2.3469053e-38 313 268
-0.0078794798 0.74900001 -0.036770906 2.3467262e-38 314 268
-0.0065662335 0.74900001 -0.036770906 2.3466542e-38 315 268
-0.0052529867 0.74900001 -0.036770906 2.346582e-38 316 268
-0.0039397399 0.74900001 -0.036770906 2.3466181e-38 317 268
-0.0026264933 0.74900001 -0.036770906 2.3466912e-38 318 268
-0.001315 0.75 -0.036819998 2.3466912e-38 319 268
0 0.75 -0.036819998 2.3466916e-38 320 268
0.001315 0.75 -0.036819998 2.3466916e-38 321 268
0.00263 0.75 -0.036819998 2.3467631e-38 322 268
0.003945 0.75 -0.036819998 2.3467991e-38 323 268
0.0052389596 0.74699998 -0.036672719 2.3467628e-38 324 268
0.0065486995 0.74699998 -0.036672719 2.3467268e-38 325 268
0.0078584393 0.74699998 -0.036672719 2.346655e-38 326 268
0.0091681797 0.74699998 -0.036672719 2.346655e-38 327 268
0.010477919 0.74699998 -0.036672719 2.3466906e-38 328 268
0.011787659 0.74699998 -0.036672719 2.3466906e-38 329 268
0.013079867 0.74599999 -0.036623627 2.346726e-38 330 268
0.014387853 0.74599999 -0.036623627 2.3466899e-38 331 268
0.015695838 0.74599999 -0.036623627 2.3467604e-38 332 268
0.017003827 0.74599999 -0.036623627 2.3466884e-38 333 268
0.018311813 0.74599999 -0.036623627 2.3466155e-38 334 268
0.019619798 0.74599999 -0.036623627 2.3465795e-38 335 268
0.020927785 0.74599999 -0.036623627 2.3465449e-38 336 268
0.022176161 0.74400002 -0.036525439 2.3466171e-38 337 268
0.023480639 0.74400002 -0.036525439 2.3466543e-38 338 268
0.024718491 0.74199998 -0.036427252 2.3466543e-38 339 268
0.026019465 0.74199998 -0.036427252 2.3466912e-38 340 268
0.027467718 0.74599999 -0.036623627 2.3467272e-38 341 268
0.028775707 0.74599999 -0.036623627 2.3467631e-38 342 268
0.03008369 0.74599999 -0.036623627 2.3467991e-38 343 268
0.031433757 0.74699998 -0.036672719 2.3467994e-38 344 268
0.032743499 0.74699998 -0.036672719 2.3467994e-38 345 268
0.034144413 0.74900001 -0.036770906 2.3470142e-38 346 268
0.03545766 0.74900001 -0.036770906 2.3377946e-38 347 268
0.036770906 0.74900001 -0.036770906 2.3192456e-38 348 268
0.038084153 0.74900001 -0.036770906 2.2731478e-38 349 268
0.039449997 0.75 -0.036819998 2.1443263e-38 350 268
0.040764999 0.75 -0.036819998 2.005997e-38 351 268
0.04219221 0.75199997 -0.036918186 2.0146053e-38 352 268
0.043684296 0.755 -0.037065465 1.9962024e-38 353 268
0.045127295 0.75700003 -0.037163652 1.9780146e-38 354 268
0.046700031 0.76099998 -0.037360024 1.9687952e-38 355 268
0.048034318 0.76099998 -0.037360024 1.9503224e-38 356 268
0.049433477 0.76200002 -0.037409119 1.9595779e-38 357 268
0.050769519 0.76200002 -0.037409119 1.9225215e-38 358 268
0.052242316 0.764 -0.037507307 1.9317411e-38 359 268
0.053792264 0.76700002 -0.037654586 2.0072649e-38 360 268
0.055280842 0.76899999 -0.03775277 2.2470096e-38 361 268
-0.05739712 0.74400002 -0.037829921 2.1929201e-38 276 269
-0.056243423 0.74599999 -0.03793161 2.1376028e-38 277 269
-0.054935437 0.74599999 -0.03793161 2.2470827e-38 278 269
-0.053627454 0.74599999 -0.03793161 2.0903861e-38 279 269
-0.052389596 0.74699998 -0.03798246 2.3004531e-38 280 269
-0.051079858 0.74699998 -0.03798246 2.3465869e-38 281 269
-0.049770117 0.74699998 -0.03798246 2.3468376e-38 282 269
-0.048460379 0.74699998 -0.03798246 2.3468376e-38 283 269
-0.047087517 0.74599999 -0.03793161 2.3466571e-38 284 269
-0.045779534 0.74599999 -0.03793161 2.3466571e-38 285 269
-0.044471547 0.74599999 -0.03793161 2.3467635e-38 286 269
-0.04316356 0.74599999 -0.03793161 2.3467635e-38 287 269
-0.04174336 0.74400002 -0.037829921 2.3470149e-38 288 269
-0.040438879 0.74400002 -0.037829921 2.3470149e-38 289 269
-0.039239597 0.74599999 -0.03793161 2.3469073e-38 290 269
-0.03798246 0.74699998 -0.03798246 2.3376516e-38 291 269
-0.036672719 0.74699998 -0.03798246 2.3466915e-38 292 269
-0.035362978 0.74699998 -0.03798246 2.3467275e-38 293 269
-0.034053236 0.74699998 -0.03798246 2.3468355e-38 294 269
-0.032743499 0.74699998 -0.03798246 2.3468717e-38 295 269
-0.031433757 0.74699998 -0.03798246 2.3467631e-38 296 269
-0.030124018 0.74699998 -0.03798246 2.3467271e-38 297 269
-0.028814279 0.74699998 -0.03798246 2.3467268e-38 298 269
-0.027504537 0.74699998 -0.03798246 2.3467268e-38 299 269
-0.026194798 0.74699998 -0.03798246 2.3467631e-38 300 269
-0.024851745 0.74599999 -0.03793161 2.3467631e-38 301 269
-0.023480639 0.74400002 -0.037829921 2.3467275e-38 302 269
-0.022176161 0.74400002 -0.037829921 2.3467275e-38 303 269
-0.020927785 0.74599999 -0.03793161 2.3467278e-38 304 269
-0.019646099 0.74699998 -0.03798246 2.3467638e-38 305 269
-0.018336359 0.74699998 -0.03798246 2.3467278e-38 306 269
-0.017026618 0.74699998 -0.03798246 2.3466918e-38 307 269
-0.015716879 0.74699998 -0.03798246 2.3466193e-38 308 269
-0.014407139 0.74699998 -0.03798246 2.3466553e-38 309 269
-0.013097399 0.74699998 -0.03798246 2.3468344e-38 310 269
-0.011771879 0.74599999 -0.03793161 2.3468344e-38 311 269
-0.010463892 0.74599999 -0.03793161 2.3467994e-38 312 269
-0.0091559067 0.74599999 -0.03793161 2.3467994e-38 313 269
-0.0078479191 0.74599999 -0.03793161 2.3467987e-38 314 269
-0.0065399334 0.74599999 -0.03793161 2.3467987e-38 315 269
-0.0052389596 0.74699998 -0.03798246 2.3468334e-38 316 269
-0.0039292197 0.74699998 -0.03798246 2.3469053e-38 317 269
-0.0026194798 0.74699998 -0.03798246 2.3468337e-38 318 269
-0.0013097399 0.74699998 -0.03798246 2.3468337e-38 319 269
0 0.74699998 -0.03798246 2.3468344e-38 320 269
0.0013097399 0.74699998 -0.03798246 2.3467625e-38 321 269
0.0026194798 0.74699998 -0.03798246 2.3467631e-38 322 269
0.0039292197 0.74699998 -0.03798246 2.3467991e-38 323 269
0.0052319462 0.74599999 -0.03793161 2.3466916e-38 324 269
0.0065399334 0.74599999 -0.03793161 2.3466556e-38 325 269
0.0078479191 0.74599999 -0.03793161 2.3466906e-38 326 269
0.0091559067 0.74599999 -0.03793161 2.3466906e-38 327 269
0.010463892 0.74599999 -0.03793161 2.3466897e-38 328 269
0.011740319 0.74400002 -0.037829921 2.3466897e-38 329 269
0.013009733 0.74199998 -0.037728224 2.3466906e-38 330 269
0.014310705 0.74199998 -0.037728224 2.3466906e-38 331 269
0.015611678 0.74199998 -0.037728224 2.3467978e-38 332 269
0.016912652 0.74199998 -0.037728224 2.3467978e-38 333 269
0.018213626 0.74199998 -0.037728224 2.3467607e-38 334 269
0.0195146 0.74199998 -0.037728224 2.3466887e-38 335 269
0.020815572 0.74199998 -0.037728224 2.3466172e-38 336 269
0.022116546 0.74199998 -0.037728224 2.3466891e-38 337 269
0.023385961 0.741 -0.037677377 2.3466906e-38 338 269
0.024685178 0.741 -0.037677377 2.3466546e-38 339 269
0.025984399 0.741 -0.037677377 2.3467268e-38 340 269
0.027283618 0.741 -0.037677377 2.3467268e-38 341 269
0.028582839 0.741 -0.037677377 2.3467987e-38 342 269
0.029922385 0.74199998 -0.037728224 2.3467987e-38 343 269
0.031307522 0.74400002 -0.037829921 2.3467275e-38 344 269
0.032612 0.74400002 -0.037829921 2.3467635e-38 345 269
0.034007654 0.74599999 -0.03793161 2.3469779e-38 346 269
0.035362978 0.74699998 -0.03798246 2.2823689e-38 347 269
0.036672719 0.74699998 -0.03798246 2.1991027e-38 348 269
0.03798246 0.74699998 -0.03798246 2.1161266e-38 349 269
0.0393974 0.74900001 -0.038084153 2.0422995e-38 350 269
0.040710647 0.74900001 -0.038084153 2.0238247e-38 351 269
0.04208 0.75 -0.038135 1.9779429e-38 352 269
0.043684296 0.755 -0.038389232 1.9779429e-38 353 269
0.045127295 0.75700003 -0.038490929 1.9595758e-38 354 269
0.046700031 0.76099998 -0.038694311 1.9411369e-38 355 269
0.048097439 0.76200002 -0.038745161 1.9228067e-38 356 269
0.049563225 0.764 -0.038846854 1.9412098e-38 357 269
0.050902773 0.764 -0.038846854 1.9135168e-38 358 269
0.052379075 0.76599997 -0.038948543 1.8858579e-38 359 269
0.053932533 0.76899999 -0.039101087 1.9333997e-38 360 269
-0.058701597 0.74400002 -0.039134398 2.1376753e-38 275 270
-0.05739712 0.74400002 -0.039134398 2.265739e-38 276 270
-0.05594185 0.74199998 -0.0390292 2.1643238e-38 277 270
-0.054640878 0.74199998 -0.0390292 2.3288322e-38 278 270
-0.05348368 0.74400002 -0.039134398 2.2182333e-38 279 270
-0.052179199 0.74400002 -0.039134398 2.3097064e-38 280 270
-0.050874721 0.74400002 -0.039134398 2.3466567e-38 281 270
-0.049436983 0.74199998 -0.0390292 2.3468367e-38 282 270
-0.048136011 0.74199998 -0.0390292 2.3468006e-38 283 270
-0.046961278 0.74400002 -0.039134398 2.3466927e-38 284 270
-0.0456568 0.74400002 -0.039134398 2.3466927e-38 285 270
-0.044352323 0.74400002 -0.039134398 2.3467281e-38 286 270
-0.043047838 0.74400002 -0.039134398 2.3467641e-38 287 270
-0.041631144 0.74199998 -0.0390292 2.3468721e-38 288 270
-0.040330172 0.74199998 -0.0390292 2.3468721e-38 289 270
-0.0390292 0.74199998 -0.0390292 2.3469074e-38 290 270
-0.037829921 0.74400002 -0.039134398 2.3469074e-38 291 270
-0.036525439 0.74400002 -0.039134398 2.3468706e-38 292 270
-0.035220962 0.74400002 -0.039134398 2.3468346e-38 293 270
-0.033916477 0.74400002 -0.039134398 2.346835e-38 294 270
-0.032612 0.74400002 -0.039134398 2.346835e-38 295 270
-0.031223357 0.74199998 -0.0390292 2.3467987e-38 296 270
-0.029922385 0.74199998 -0.0390292 2.3468347e-38 297 270
-0.028582839 0.741 -0.038976599 2.3468344e-38 298 270
-0.027283618 0.741 -0.038976599 2.3469064e-38 299 270
-0.025984399 0.741 -0.038976599 2.3467987e-38 300 270
-0.024685178 0.741 -0.038976599 2.3467987e-38 301 270
-0.023417519 0.74199998 -0.0390292 2.3466556e-38 302 270
-0.022116546 0.74199998 -0.0390292 2.3466916e-38 303 270
-0.020815572 0.74199998 -0.0390292 2.3466916e-38 304 270
-0.019567199 0.74400002 -0.039134398 2.3466916e-38 305 270
-0.01826272 0.74400002 -0.039134398 2.3466553e-38 306 270
-0.016958239 0.74400002 -0.039134398 2.3466553e-38 307 270
-0.015695838 0.74599999 -0.039239597 2.3466549e-38 308 270
-0.01434928 0.74400002 -0.039134398 2.3466549e-38 309 270
-0.013009733 0.74199998 -0.0390292 2.3467631e-38 310 270
-0.01169298 0.741 -0.038976599 2.3467631e-38 311 270
-0.010393759 0.741 -0.038976599 2.3468355e-38 312 270
-0.0090945391 0.741 -0.038976599 2.3468355e-38 313 270
-0.0078058392 0.74199998 -0.0390292 2.3468347e-38 314 270
-0.0065048663 0.74199998 -0.0390292 2.3468347e-38 315 270
-0.0052179201 0.74400002 -0.039134398 2.3468697e-38 316 270
-0.0039134403 0.74400002 -0.039134398 2.3468697e-38 317 270
-0.00260896 0.74400002 -0.039134398 2.3468337e-38 318 270
-0.00130448 0.74400002 -0.039134398 2.3467977e-38 319 270
0 0.74400002 -0.039134398 2.3467262e-38 320 270
0.00130448 0.74400002 -0.039134398 2.3467622e-38 321 270
0.00260896 0.74400002 -0.039134398 2.3467622e-38 322 270
0.0039134403 0.74400002 -0.039134398 2.3467983e-38 323 270
0.0052038929 0.74199998 -0.0390292 2.3467983e-38 324 270
0.0065048663 0.74199998 -0.0390292 2.3467983e-38 325 270
0.0078058392 0.74199998 -0.0390292 2.346762e-38 326 270
0.009106813 0.74199998 -0.0390292 2.346762e-38 327 270
0.010407786 0.74199998 -0.0390292 2.346762e-38 328 270
0.01170876 0.74199998 -0.0390292 2.346726e-38 329 270
0.0129922 0.741 -0.038976599 2.3467269e-38 330 270
0.01429142 0.741 -0.038976599 2.3466909e-38 331 270
0.01559064 0.741 -0.038976599 2.3467625e-38 332 270
0.016889861 0.741 -0.038976599 2.3467625e-38 333 270
0.018189078 0.741 -0.038976599 2.3467254e-38 334 270
0.0194357 0.73900002 -0.0388714 2.3466894e-38 335 270
0.020731414 0.73900002 -0.0388714 2.3465825e-38 336 270
0.02208674 0.741 -0.038976599 2.3465464e-38 337 270
0.023322839 0.73900002 -0.0388714 2.3467271e-38 338 270
0.024618553 0.73900002 -0.0388714 2.3467631e-38 339 270
0.025914267 0.73900002 -0.0388714 2.3467984e-38 340 270
0.027209979 0.73900002 -0.0388714 2.3467984e-38 341 270
0.028505694 0.73900002 -0.0388714 2.3467987e-38 342 270
0.029882059 0.741 -0.038976599 2.3467627e-38 343 270
0.031223357 0.74199998 -0.0390292 2.3374722e-38 344 270
0.032524332 0.74199998 -0.0390292 2.3374722e-38 345 270
0.033916477 0.74400002 -0.039134398 2.2452746e-38 346 270
0.03531564 0.74599999 -0.039239597 2.153079e-38 347 270
0.036672719 0.74699998 -0.039292198 2.0699219e-38 348 270
0.03798246 0.74699998 -0.039292198 2.0146053e-38 349 270
0.039292198 0.74699998 -0.039292198 1.950177e-38 350 270
0.040710647 0.74900001 -0.0393974 1.9962741e-38 351 270
0.04208 0.75 -0.039449997 1.9686893e-38 352 270
0.043684296 0.755 -0.039712999 1.931847e-38 353 270
0.045127295 0.75700003 -0.039818201 1.9409584e-38 354 270
0.046700031 0.76099998 -0.040028598 1.950178e-38 355 270
0.048097439 0.76200002 -0.040081199 1.9227719e-38 356 270
0.049563225 0.764 -0.040186398 1.9227719e-38 357 270
0.051036026 0.76599997 -0.040291596 1.9135168e-38 358 270
0.052447457 0.76700002 -0.040344197 1.8766384e-38 359 270
-0.060006075 0.74400002 -0.040438879 2.3028341e-38 274 271
-0.058543798 0.74199998 -0.040330172 2.219858e-38 275 271
-0.057242822 0.74199998 -0.040330172 2.3110062e-38 276 271
-0.05594185 0.74199998 -0.040330172 2.1911877e-38 277 271
-0.054640878 0.74199998 -0.040330172 2.3468004e-38 278 271
-0.053339902 0.74199998 -0.040330172 2.3098501e-38 279 271
-0.05203893 0.74199998 -0.040330172 2.3466552e-38 280 271
-0.050737958 0.74199998 -0.040330172 2.3467631e-38 281 271
-0.049370356 0.741 -0.04027582 2.3467645e-38 282 271
-0.048071139 0.741 -0.04027582 2.3467645e-38 283 271
-0.046771921 0.741 -0.04027582 2.3467281e-38 284 271
-0.045472696 0.741 -0.04027582 2.3467281e-38 285 271
-0.044233091 0.74199998 -0.040330172 2.3467275e-38 286 271
-0.042932119 0.74199998 -0.040330172 2.3467635e-38 287 271
-0.041575037 0.741 -0.04027582 2.3468718e-38 288 271
-0.04027582 0.741 -0.04027582 2.3468718e-38 289 271
-0.038976599 0.741 -0.04027582 2.3469797e-38 290 271
-0.037728224 0.74199998 -0.040330172 2.3469437e-38 291 271
-0.036378156 0.741 -0.04027582 2.3469067e-38 292 271
-0.034984261 0.73900002 -0.040167112 2.3468706e-38 293 271
-0.033688545 0.73900002 -0.040167112 2.3468346e-38 294 271
-0.032392833 0.73900002 -0.040167112 2.3468346e-38 295 271
-0.03109712 0.73900002 -0.040167112 2.3468347e-38 296 271
-0.029801406 0.73900002 -0.040167112 2.3468708e-38 297 271
-0.028582839 0.741 -0.04027582 2.3469067e-38 298 271
-0.027283618 0.741 -0.04027582 2.3469067e-38 299 271
-0.025914267 0.73900002 -0.040167112 2.3467275e-38 300 271
-0.024618553 0.73900002 -0.040167112 2.3466915e-38 301 271
-0.023385961 0.741 -0.04027582 2.3465843e-38 302 271
-0.02208674 0.741 -0.04027582 2.3465843e-38 303 271
-0.020787518 0.741 -0.04027582 2.3466199e-38 304 271
-0.0195146 0.74199998 -0.040330172 2.3466199e-38 305 271
-0.018213626 0.74199998 -0.040330172 2.3466552e-38 306 271
-0.016912652 0.74199998 -0.040330172 2.3465833e-38 307 271
-0.015611678 0.74199998 -0.040330172 2.3466549e-38 308 271
-0.01429142 0.741 -0.04027582 2.3466549e-38 309 271
-0.012939599 0.73799998 -0.040112756 2.3467987e-38 310 271
-0.011645639 0.73799998 -0.040112756 2.3467987e-38 311 271
-0.010351679 0.73799998 -0.040112756 2.346835e-38 312 271
-0.0090699932 0.73900002 -0.040167112 2.346835e-38 313 271
-0.0077953199 0.741 -0.04027582 2.3468344e-38 314 271
-0.0064960998 0.741 -0.04027582 2.3468344e-38 315 271
-0.0051968796 0.741 -0.04027582 2.346834e-38 316 271
-0.0039029196 0.74199998 -0.040330172 2.346798e-38 317 271
-0.0026019465 0.74199998 -0.040330172 2.3466546e-38 318 271
-0.0013009732 0.74199998 -0.040330172 2.3465826e-38 319 271
0 0.74199998 -0.040330172 2.3465833e-38 320 271
0.0013009732 0.74199998 -0.040330172 2.3466553e-38 321 271
0.0026019465 0.74199998 -0.040330172 2.3467627e-38 322 271
0.0039029196 0.74199998 -0.040330172 2.3468348e-38 323 271
0.0051968796 0.741 -0.04027582 2.3469419e-38 324 271
0.0064960998 0.741 -0.04027582 2.3469059e-38 325 271
0.0077953199 0.741 -0.04027582 2.3467983e-38 326 271
0.0090945391 0.741 -0.04027582 2.3468344e-38 327 271
0.010393759 0.741 -0.04027582 2.3467983e-38 328 271
0.01169298 0.741 -0.04027582 2.3467983e-38 329 271
0.0129922 0.741 -0.04027582 2.3467625e-38 330 271
0.01429142 0.741 -0.04027582 2.3466906e-38 331 271
0.01554856 0.73900002 -0.040167112 2.346619e-38 332 271
0.016821479 0.73799998 -0.040112756 2.346655e-38 333 271
0.018115439 0.73799998 -0.040112756 2.3466543e-38 334 271
0.019409399 0.73799998 -0.040112756 2.3466183e-38 335 271
0.020703359 0.73799998 -0.040112756 2.3464031e-38 336 271
0.021997318 0.73799998 -0.040112756 2.3464031e-38 337 271
0.023291279 0.73799998 -0.040112756 2.3466557e-38 338 271
0.024518613 0.736 -0.040004052 2.3467638e-38 339 271
0.025809066 0.736 -0.040004052 2.3468714e-38 340 271
0.02709952 0.736 -0.040004052 2.3375797e-38 341 271
0.028467119 0.73799998 -0.040112756 2.3467276e-38 342 271
0.029801406 0.73900002 -0.040167112 2.3374722e-38 343 271
0.03118128 0.741 -0.04027582 2.2914093e-38 344 271
0.032480497 0.741 -0.04027582 2.2360919e-38 345 271
0.033825304 0.74199998 -0.040330172 2.1436061e-38 346 271
0.035220962 0.74400002 -0.040438879 2.0513754e-38 347 271
0.036623627 0.74599999 -0.040547583 2.0053859e-38 348 271
0.03798246 0.74699998 -0.040601939 1.9777276e-38 349 271
0.039292198 0.74699998 -0.040601939 1.9041516e-38 350 271
0.040710647 0.74900001 -0.040710647 1.950213e-38 351 271
0.04219221 0.75199997 -0.040873703 1.9318117e-38 352 271
0.043684296 0.755 -0.041036766 1.9133366e-38 353 271
0.045246519 0.759 -0.041254178 1.9316681e-38 354 271
0.046700031 0.76099998 -0.041362885 1.9501432e-38 355 271
0.048097439 0.76200002 -0.041417241 1.8860747e-38 356 271
0.049563225 0.764 -0.041525945 1.8860747e-38 357 271
0.051036026 0.76599997 -0.041634649 1.8490517e-38 358 271
-0.059764117 0.741 -0.041575037 2.3291937e-38 274 272
-0.0584649 0.741 -0.041575037 2.2646568e-38 275 272
-0.057165679 0.741 -0.041575037 2.347162e-38 276 272
-0.055866458 0.741 -0.041575037 2.3470539e-38 277 272
-0.054567236 0.741 -0.041575037 2.3470155e-38 278 272
-0.053268019 0.741 -0.041575037 2.3285043e-38 279 272
-0.051828533 0.73900002 -0.041462827 2.346835e-38 280 272
-0.050532822 0.73900002 -0.041462827 2.3467631e-38 281 272
-0.049237106 0.73900002 -0.041462827 2.3468347e-38 282 272
-0.047941394 0.73900002 -0.041462827 2.3468347e-38 283 272
-0.046645679 0.73900002 -0.041462827 2.3467269e-38 284 272
-0.045349967 0.73900002 -0.041462827 2.3466909e-38 285 272
-0.044054255 0.73900002 -0.041462827 2.3467981e-38 286 272
-0.042758539 0.73900002 -0.041462827 2.3468341e-38 287 272
-0.041575037 0.741 -0.041575037 2.34687e-38 288 272
-0.040167112 0.73900002 -0.041462827 2.34687e-38 289 272
-0.0388714 0.73900002 -0.041462827 2.3469071e-38 290 272
-0.037575684 0.73900002 -0.041462827 2.3468711e-38 291 272
-0.036279973 0.73900002 -0.041462827 2.3468711e-38 292 272
-0.034842238 0.736 -0.041294504 2.3467631e-38 293 272
-0.033551786 0.736 -0.041294504 2.3467271e-38 294 272
-0.032261331 0.736 -0.041294504 2.3467271e-38 295 272
-0.030970879 0.736 -0.041294504 2.3467631e-38 296 272
-0.029680425 0.736 -0.041294504 2.346835e-38 297 272
-0.028467119 0.73799998 -0.041406717 2.3468353e-38 298 272
-0.027173158 0.73799998 -0.041406717 2.3468353e-38 299 272
-0.025914267 0.73900002 -0.041462827 2.3465843e-38 300 272
-0.024618553 0.73900002 -0.041462827 2.3465123e-38 301 272
-0.023322839 0.73900002 -0.041462827 2.3464041e-38 302 272
-0.022027127 0.73900002 -0.041462827 2.3464402e-38 303 272
-0.020731414 0.73900002 -0.041462827 2.3464758e-38 304 272
-0.019488299 0.741 -0.041575037 2.3464397e-38 305 272
-0.018139986 0.73900002 -0.041462827 2.3464744e-38 306 272
-0.016844273 0.73900002 -0.041462827 2.3464744e-38 307 272
-0.015527519 0.73799998 -0.041406717 2.3465815e-38 308 272
-0.014233559 0.73799998 -0.041406717 2.3466535e-38 309 272
-0.012904533 0.736 -0.041294504 2.346834e-38 310 272
-0.01161408 0.736 -0.041294504 2.34687e-38 311 272
-0.010323626 0.736 -0.041294504 2.3468708e-38 312 272
-0.0090577193 0.73799998 -0.041406717 2.3468708e-38 313 272
-0.0077637597 0.73799998 -0.041406717 2.3469071e-38 314 272
-0.0064697997 0.73799998 -0.041406717 2.3468711e-38 315 272
-0.0051758396 0.73799998 -0.041406717 2.3468347e-38 316 272
-0.00388714 0.73900002 -0.041462827 2.3467627e-38 317 272
-0.0025914267 0.73900002 -0.041462827 2.3465827e-38 318 272
-0.0012992199 0.741 -0.041575037 2.3280714e-38 319 272
0 0.741 -0.041575037 2.3464384e-38 320 272
0.0012992199 0.741 -0.041575037 2.3464744e-38 321 272
0.0025984398 0.741 -0.041575037 2.3464739e-38 322 272
0.0038818798 0.73799998 -0.041406717 2.346582e-38 323 272
0.005161813 0.736 -0.041294504 2.3467977e-38 324 272
0.0064522666 0.736 -0.041294504 2.3467617e-38 325 272
0.0077427197 0.736 -0.041294504 2.3468344e-38 326 272
0.0090331733 0.736 -0.041294504 2.3468344e-38 327 272
0.010323626 0.736 -0.041294504 2.3468706e-38 328 272
0.01161408 0.736 -0.041294504 2.3468344e-38 329 272
0.012904533 0.736 -0.041294504 2.3467269e-38 330 272
0.014194986 0.736 -0.041294504 2.3466909e-38 331 272
0.015527519 0.73799998 -0.041406717 2.3466909e-38 332 272
0.016775893 0.736 -0.041294504 2.3466909e-38 333 272
0.018066347 0.736 -0.041294504 2.3466901e-38 334 272
0.019356798 0.736 -0.041294504 2.3466181e-38 335 272
0.020647252 0.736 -0.041294504 2.3465097e-38 336 272
0.021937706 0.736 -0.041294504 2.3465097e-38 337 272
0.023228159 0.736 -0.041294504 2.3466174e-38 338 272
0.024518613 0.736 -0.041294504 2.3188866e-38 339 272
0.025809066 0.736 -0.041294504 2.3464021e-38 340 272
0.02709952 0.736 -0.041294504 2.3464741e-38 341 272
0.028467119 0.73799998 -0.041406717 2.3282879e-38 342 272
0.029801406 0.73900002 -0.041462827 2.2729706e-38 343 272
0.03109712 0.73900002 -0.041462827 2.1714455e-38 344 272
0.032480497 0.741 -0.041575037 2.0515912e-38 345 272
0.033779722 0.741 -0.041575037 2.0141748e-38 346 272
0.03512628 0.74199998 -0.041631144 2.0233943e-38 347 272
0.036623627 0.74599999 -0.04185557 1.9777276e-38 348 272
0.03798246 0.74699998 -0.041911677 1.9592529e-38 349 272
0.039292198 0.74699998 -0.041911677 1.9041516e-38 350 272
0.040764999 0.75 -0.04208 1.931774e-38 351 272
0.042304426 0.75400001 -0.042304426 1.9133719e-38 352 272
0.043684296 0.755 -0.042360533 1.9041523e-38 353 272
0.045246519 0.759 -0.042584959 1.8948621e-38 354 272
0.046700031 0.76099998 -0.042697169 1.9133371e-38 355 272
0.048097439 0.76200002 -0.042753279 1.8675284e-38 356 272
-0.061436798 0.73000002 -0.0422378 2.3206226e-38 272 273
-0.060156867 0.73000002 -0.0422378 2.1270117e-38 273 273
-0.059199546 0.73400003 -0.042469237 2.3469467e-38 274 273
-0.057912603 0.73400003 -0.042469237 2.2823737e-38 275 273
-0.056934237 0.73799998 -0.042700678 2.3467295e-38 276 273
-0.055640277 0.73799998 -0.042700678 2.3468375e-38 277 273
-0.054346316 0.73799998 -0.042700678 2.346908e-38 278 273
-0.053052358 0.73799998 -0.042700678 2.3467999e-38 279 273
-0.051758397 0.73799998 -0.042700678 2.3467981e-38 280 273
-0.050464436 0.73799998 -0.042700678 2.3468341e-38 281 273
-0.049037226 0.736 -0.042584959 2.3467984e-38 282 273
-0.047746774 0.736 -0.042584959 2.3467984e-38 283 273
-0.046456318 0.736 -0.042584959 2.3467262e-38 284 273
-0.045165867 0.736 -0.042584959 2.3467622e-38 285 273
-0.043994635 0.73799998 -0.042700678 2.3469053e-38 286 273
-0.042700678 0.73799998 -0.042700678 2.3468334e-38 287 273
-0.041406717 0.73799998 -0.042700678 2.3468347e-38 288 273
-0.040112756 0.73799998 -0.042700678 2.3468347e-38 289 273
-0.038818799 0.73799998 -0.042700678 2.3467645e-38 290 273
-0.037524838 0.73799998 -0.042700678 2.3467645e-38 291 273
-0.036132693 0.736 -0.042584959 2.3467281e-38 292 273
-0.034842238 0.736 -0.042584959 2.346692e-38 293 273
-0.033460613 0.73400003 -0.042469237 2.3466557e-38 294 273
-0.032173667 0.73400003 -0.042469237 2.3466557e-38 295 273
-0.030886721 0.73400003 -0.042469237 2.3466915e-38 296 273
-0.029599773 0.73400003 -0.042469237 2.3467275e-38 297 273
-0.028312827 0.73400003 -0.042469237 2.3466916e-38 298 273
-0.02709952 0.736 -0.042584959 2.3466556e-38 299 273
-0.025809066 0.736 -0.042584959 2.3465114e-38 300 273
-0.024518613 0.736 -0.042584959 2.3464034e-38 301 273
-0.023291279 0.73799998 -0.042700678 2.3464394e-38 302 273
-0.021997318 0.73799998 -0.042700678 2.3464755e-38 303 273
-0.020703359 0.73799998 -0.042700678 2.3464397e-38 304 273
-0.019409399 0.73799998 -0.042700678 2.3464037e-38 305 273
-0.018066347 0.736 -0.042584959 2.3463311e-38 306 273
-0.016775893 0.736 -0.042584959 2.3463671e-38 307 273
-0.015485439 0.736 -0.042584959 2.346474e-38 308 273
-0.014194986 0.736 -0.042584959 2.3466182e-38 309 273
-0.012904533 0.736 -0.042584959 2.3467981e-38 310 273
-0.01161408 0.736 -0.042584959 2.3468341e-38 311 273
-0.010323626 0.736 -0.042584959 2.3468358e-38 312 273
-0.0090331733 0.736 -0.042584959 2.3468358e-38 313 273
-0.0077427197 0.736 -0.042584959 2.3468361e-38 314 273
-0.0064522666 0.736 -0.042584959 2.3467641e-38 315 273
-0.005161813 0.736 -0.042584959 2.3467991e-38 316 273
-0.0038818798 0.73799998 -0.042700678 2.3467991e-38 317 273
-0.0025879198 0.73799998 -0.042700678 2.3466172e-38 318 273
-0.0012957134 0.73900002 -0.042758539 2.346545e-38 319 273
0 0.73900002 -0.042758539 2.3464366e-38 320 273
0.0012957134 0.73900002 -0.042758539 2.3464366e-38 321 273
0.0025914267 0.73900002 -0.042758539 2.346366e-38 322 273
0.0038555798 0.73299998 -0.042411376 2.34651e-38 323 273
0.005140773 0.73299998 -0.042411376 2.3466901e-38 324 273
0.0064259665 0.73299998 -0.042411376 2.346798e-38 325 273
0.0077111595 0.73299998 -0.042411376 2.3468344e-38 326 273
0.0089963535 0.73299998 -0.042411376 2.3468344e-38 327 273
0.010281546 0.73299998 -0.042411376 2.346835e-38 328 273
0.011566739 0.73299998 -0.042411376 2.3467988e-38 329 273
0.012851933 0.73299998 -0.042411376 2.3467272e-38 330 273
0.014156413 0.73400003 -0.042469237 2.3466912e-38 331 273
0.01544336 0.73400003 -0.042469237 2.3467269e-38 332 273
0.016730307 0.73400003 -0.042469237 2.3466909e-38 333 273
0.017992707 0.73299998 -0.042411376 2.3466901e-38 334 273
0.019277899 0.73299998 -0.042411376 2.3466181e-38 335 273
0.020563092 0.73299998 -0.042411376 2.3465097e-38 336 273
0.021848286 0.73299998 -0.042411376 2.3464377e-38 337 273
0.023165042 0.73400003 -0.042469237 2.3462592e-38 338 273
0.024451986 0.73400003 -0.042469237 2.3369676e-38 339 273
0.025738932 0.73400003 -0.042469237 2.3095967e-38 340 273
0.02702588 0.73400003 -0.042469237 2.2911575e-38 341 273
0.028389972 0.736 -0.042584959 2.2270859e-38 342 273
0.029761078 0.73799998 -0.042700678 2.1256348e-38 343 273
0.03109712 0.73900002 -0.042758539 2.0699219e-38 344 273
0.032480497 0.741 -0.042874258 1.9961665e-38 345 273
0.033779722 0.741 -0.042874258 1.968293e-38 346 273
0.03512628 0.74199998 -0.042932119 1.9775124e-38 347 273
0.036525439 0.74400002 -0.043047838 1.9317023e-38 348 273
0.03798246 0.74699998 -0.043221418 1.9224828e-38 349 273
0.0393974 0.74900001 -0.04333714 1.904152e-38 350 273
0.040764999 0.75 -0.043394998 1.904152e-38 351 273
0.042304426 0.75400001 -0.043626439 1.904152e-38 352 273
0.043800019 0.75700003 -0.043800019 1.8949325e-38 353 273
0.045246519 0.759 -0.043915741 1.8766734e-38 354 273
-0.065097757 0.72799999 -0.043398503 2.1649725e-38 269 274
-0.063821331 0.72799999 -0.043398503 2.2470093e-38 270 274
-0.062544905 0.72799999 -0.043398503 2.1087158e-38 271 274
-0.061268479 0.72799999 -0.043398503 2.3469451e-38 272 274
-0.059992049 0.72799999 -0.043398503 2.3376895e-38 273 274
-0.058876935 0.73000002 -0.043517731 2.3466203e-38 274 274
-0.057675898 0.73100001 -0.043577347 2.3465843e-38 275 274
-0.056394216 0.73100001 -0.043577347 2.3466207e-38 276 274
-0.055338707 0.73400003 -0.043756187 2.3467288e-38 277 274
-0.054051761 0.73400003 -0.043756187 2.3467286e-38 278 274
-0.052908584 0.736 -0.043875411 2.3466925e-38 279 274
-0.051477864 0.73400003 -0.043756187 2.3467281e-38 280 274
-0.050190922 0.73400003 -0.043756187 2.3467281e-38 281 274
-0.048903972 0.73400003 -0.043756187 2.3467272e-38 282 274
-0.047617026 0.73400003 -0.043756187 2.3467632e-38 283 274
-0.046330083 0.73400003 -0.043756187 2.346762e-38 284 274
-0.045043133 0.73400003 -0.043756187 2.346762e-38 285 274
-0.043756187 0.73400003 -0.043756187 2.34687e-38 286 274
-0.042469237 0.73400003 -0.043756187 2.34687e-38 287 274
-0.041182294 0.73400003 -0.043756187 2.3466556e-38 288 274
-0.040004052 0.736 -0.043875411 2.3466196e-38 289 274
-0.038608398 0.73400003 -0.043756187 2.346584e-38 290 274
-0.037321456 0.73400003 -0.043756187 2.346584e-38 291 274
-0.036034506 0.73400003 -0.043756187 2.3466912e-38 292 274
-0.034700219 0.73299998 -0.043696571 2.3466552e-38 293 274
-0.033415023 0.73299998 -0.043696571 2.3466549e-38 294 274
-0.032129832 0.73299998 -0.043696571 2.3466189e-38 295 274
-0.030844638 0.73299998 -0.043696571 2.3466552e-38 296 274
-0.029559445 0.73299998 -0.043696571 2.3467272e-38 297 274
-0.028274251 0.73299998 -0.043696571 2.3466919e-38 298 274
-0.026989058 0.73299998 -0.043696571 2.3466919e-38 299 274
-0.025703866 0.73299998 -0.043696571 2.3466195e-38 300 274
-0.024418673 0.73299998 -0.043696571 2.3466195e-38 301 274
-0.023038799 0.73000002 -0.043517731 2.3466183e-38 302 274
-0.021758866 0.73000002 -0.043517731 2.3466183e-38 303 274
-0.020563092 0.73299998 -0.043696571 2.3465826e-38 304 274
-0.019277899 0.73299998 -0.043696571 2.3281433e-38 305 274
-0.017992707 0.73299998 -0.043696571 2.3464377e-38 306 274
-0.016707512 0.73299998 -0.043696571 2.318779e-38 307 274
-0.015422319 0.73299998 -0.043696571 2.3463297e-38 308 274
-0.014137126 0.73299998 -0.043696571 2.3464739e-38 309 274
-0.012869466 0.73400003 -0.043756187 2.3466909e-38 310 274
-0.011582521 0.73400003 -0.043756187 2.3467629e-38 311 274
-0.010295574 0.73400003 -0.043756187 2.3467994e-38 312 274
-0.0090086265 0.73400003 -0.043756187 2.3468355e-38 313 274
-0.0077216802 0.73400003 -0.043756187 2.346583e-38 314 274
-0.006434733 0.73400003 -0.043756187 2.346619e-38 315 274
-0.0051477868 0.73400003 -0.043756187 2.3467615e-38 316 274
-0.0038608401 0.73400003 -0.043756187 2.3467615e-38 317 274
-0.0025738934 0.73400003 -0.043756187 2.3467963e-38 318 274
-0.0012869467 0.73400003 -0.043756187 2.3467603e-38 319 274
0 0.73400003 -0.043756187 2.3467247e-38 320 274
0.0012869467 0.73400003 -0.043756187 2.3467247e-38 321 274
0.0025598668 0.73000002 -0.043517731 2.346761e-38 322 274
0.0038397999 0.73000002 -0.043517731 2.346761e-38 323 274
0.0051197335 0.73000002 -0.043517731 2.3468329e-38 324 274
0.0063996664 0.73000002 -0.043517731 2.3468689e-38 325 274
0.00769012 0.73100001 -0.043577347 2.3469778e-38 326 274
0.0089718066 0.73100001 -0.043577347 2.3469059e-38 327 274
0.010253493 0.73100001 -0.043577347 2.3468347e-38 328 274
0.01153518 0.73100001 -0.043577347 2.3468347e-38 329 274
0.012851933 0.73299998 -0.043696571 2.3466909e-38 330 274
0.014137126 0.73299998 -0.043696571 2.3467269e-38 331 274
0.015422319 0.73299998 -0.043696571 2.3467628e-38 332 274
0.016661927 0.73100001 -0.043577347 2.3466548e-38 333 274
0.017943613 0.73100001 -0.043577347 2.3464747e-38 334 274
0.019225299 0.73100001 -0.043577347 2.3464387e-38 335 274
0.020506985 0.73100001 -0.043577347 2.3463309e-38 336 274
0.021788673 0.73100001 -0.043577347 2.3462949e-38 337 274
0.02307036 0.73100001 -0.043577347 2.3279267e-38 338 274
0.024418673 0.73299998 -0.043696571 2.3279267e-38 339 274
0.025703866 0.73299998 -0.043696571 2.25442e-38 340 274
0.02702588 0.73400003 -0.043756187 2.1622243e-38 341 274
0.028389972 0.736 -0.043875411 2.0796795e-38 342 274
0.029761078 0.73799998 -0.043994635 1.8952909e-38 343 274
0.03109712 0.73900002 -0.044054255 1.9682212e-38 344 274
0.032480497 0.741 -0.044173479 2.0050989e-38 345 274
0.033779722 0.741 -0.044173479 1.9502487e-38 346 274
0.03512628 0.74199998 -0.044233091 1.9318099e-38 347 274
0.036525439 0.74400002 -0.044352323 1.9409576e-38 348 274
0.03798246 0.74699998 -0.044531155 1.9317381e-38 349 274
0.0393974 0.74900001 -0.044650383 1.8858921e-38 350 274
0.040873703 0.75199997 -0.044829223 1.8766727e-38 351 274
0.042360533 0.755 -0.045008067 1.8766368e-38 352 274
0.043800019 0.75700003 -0.045127295 1.8766368e-38 353 274
-0.067557678 0.727 -0.044613566 2.2020305e-38 267 275
-0.06628301 0.727 -0.044613566 2.3209097e-38 268 275
-0.065008335 0.727 -0.044613566 2.2287499e-38 269 275
-0.06373366 0.727 -0.044613566 2.3199697e-38 270 275
-0.062458992 0.727 -0.044613566 2.2278101e-38 271 275
-0.061268479 0.72799999 -0.044674929 2.3470871e-38 272 275
-0.059992049 0.72799999 -0.044674929 2.3009532e-38 273 275
-0.058715623 0.72799999 -0.044674929 2.3465848e-38 274 275
-0.057597004 0.73000002 -0.044797666 2.3465848e-38 275 275
-0.056317069 0.73000002 -0.044797666 2.3466209e-38 276 275
-0.055112526 0.73100001 -0.044859033 2.346693e-38 277 275
-0.053830836 0.73100001 -0.044859033 2.3466922e-38 278 275
-0.052692924 0.73299998 -0.044981763 2.3466922e-38 279 275
-0.051267464 0.73100001 -0.044859033 2.3466203e-38 280 275
-0.049985781 0.73100001 -0.044859033 2.3466203e-38 281 275
-0.048704091 0.73100001 -0.044859033 2.3466916e-38 282 275
-0.047422405 0.73100001 -0.044859033 2.3466916e-38 283 275
-0.046140719 0.73100001 -0.044859033 2.3467981e-38 284 275
-0.044859033 0.73100001 -0.044859033 2.3468341e-38 285 275
-0.043517731 0.73000002 -0.044797666 2.3468347e-38 286 275
-0.0422378 0.73000002 -0.044797666 2.3467987e-38 287 275
-0.040957868 0.73000002 -0.044797666 2.3466199e-38 288 275
-0.039732285 0.73100001 -0.044859033 2.3466559e-38 289 275
-0.038398001 0.73000002 -0.044797666 2.3467271e-38 290 275
-0.037118066 0.73000002 -0.044797666 2.3467271e-38 291 275
-0.035838135 0.73000002 -0.044797666 2.3467265e-38 292 275
-0.034605537 0.73100001 -0.044859033 2.3466905e-38 293 275
-0.033323854 0.73100001 -0.044859033 2.3466546e-38 294 275
-0.032042164 0.73100001 -0.044859033 2.3466546e-38 295 275
-0.03076048 0.73100001 -0.044859033 2.3466199e-38 296 275
-0.029478792 0.73100001 -0.044859033 2.3465839e-38 297 275
-0.028197108 0.73100001 -0.044859033 2.3465124e-38 298 275
-0.026915418 0.73100001 -0.044859033 2.3466203e-38 299 275
-0.025598666 0.73000002 -0.044797666 2.3466904e-38 300 275
-0.024252106 0.72799999 -0.044674929 2.3466904e-38 301 275
-0.022975679 0.72799999 -0.044674929 2.3465462e-38 302 275
-0.021699252 0.72799999 -0.044674929 2.34651e-38 303 275
-0.020478934 0.73000002 -0.044797666 2.3464387e-38 304 275
-0.019199001 0.73000002 -0.044797666 2.3464387e-38 305 275
-0.017919067 0.73000002 -0.044797666 2.346366e-38 306 275
-0.016639132 0.73000002 -0.044797666 2.3464378e-38 307 275
-0.01538024 0.73100001 -0.044859033 2.346545e-38 308 275
-0.014098554 0.73100001 -0.044859033 2.3466891e-38 309 275
-0.012816866 0.73100001 -0.044859033 2.3467981e-38 310 275
-0.01153518 0.73100001 -0.044859033 2.3468703e-38 311 275
-0.010253493 0.73100001 -0.044859033 2.346907e-38 312 275
-0.0089718066 0.73100001 -0.044859033 2.346799e-38 313 275
-0.00769012 0.73100001 -0.044859033 2.3373979e-38 314 275
-0.006408433 0.73100001 -0.044859033 2.3281784e-38 315 275
-0.0051267464 0.73100001 -0.044859033 2.3466522e-38 316 275
-0.00384506 0.73100001 -0.044859033 2.3467604e-38 317 275
-0.0025633732 0.73100001 -0.044859033 2.3467604e-38 318 275
-0.0012816866 0.73100001 -0.044859033 2.3467604e-38 319 275
0 0.73100001 -0.044859033 2.3468326e-38 320 275
0.0012816866 0.73100001 -0.044859033 2.3467966e-38 321 275
0.0025528532 0.72799999 -0.044674929 2.3469053e-38 322 275
0.0038292799 0.72799999 -0.044674929 2.3469053e-38 323 275
0.0051197335 0.73000002 -0.044797666 2.34687e-38 324 275
0.0063996664 0.73000002 -0.044797666 2.3469062e-38 325 275
0.0076795998 0.73000002 -0.044797666 2.3469064e-38 326 275
0.0089595336 0.73000002 -0.044797666 2.3469064e-38 327 275
0.010239467 0.73000002 -0.044797666 2.3469064e-38 328 275
0.011519399 0.73000002 -0.044797666 2.3468703e-38 329 275
0.012799333 0.73000002 -0.044797666 2.3467987e-38 330 275
0.014079267 0.73000002 -0.044797666 2.3467987e-38 331 275
0.0153592 0.73000002 -0.044797666 2.3465833e-38 332 275
0.016639132 0.73000002 -0.044797666 2.3464392e-38 333 275
0.017919067 0.73000002 -0.044797666 2.3463671e-38 334 275
0.019199001 0.73000002 -0.044797666 2.3464031e-38 335 275
0.020478934 0.73000002 -0.044797666 2.34651e-38 336 275
0.021788673 0.73100001 -0.044859033 2.346474e-38 337 275
0.02307036 0.73100001 -0.044859033 2.2915144e-38 338 275
0.024418673 0.73299998 -0.044981763 2.1716601e-38 339 275
0.025703866 0.73299998 -0.044981763 2.1621878e-38 340 275
0.026989058 0.73299998 -0.044981763 2.1253101e-38 341 275
0.028389972 0.736 -0.045165867 2.0424071e-38 342 275
0.029761078 0.73799998 -0.0452886 1.9409934e-38 343 275
0.03109712 0.73900002 -0.045349967 1.9592179e-38 344 275
0.032480497 0.741 -0.045472696 1.9776571e-38 345 275
0.033779722 0.741 -0.045472696 1.931847e-38 346 275
0.03512628 0.74199998 -0.045534063 1.9225916e-38 347 275
0.036525439 0.74400002 -0.0456568 1.9043669e-38 348 275
0.03798246 0.74699998 -0.045840897 1.8951116e-38 349 275
0.039449997 0.75 -0.046024997 1.8583774e-38 350 275
0.040982414 0.75400001 -0.046270464 1.8583774e-38 351 275
0.042360533 0.755 -0.04633183 1.8399756e-38 352 275
-0.06883236 0.727 -0.045888241 2.2749939e-38 266 276
-0.067557678 0.727 -0.045888241 2.1551396e-38 267 276
-0.06628301 0.727 -0.045888241 2.2921688e-38 268 276
-0.065008335 0.727 -0.045888241 2.2553264e-38 269 276
-0.06373366 0.727 -0.045888241 2.3470871e-38 270 276
-0.062458992 0.727 -0.045888241 2.3470511e-38 271 276
-0.061184317 0.727 -0.045888241 2.3469064e-38 272 276
-0.059909642 0.727 -0.045888241 2.3467624e-38 273 276
-0.058634974 0.727 -0.045888241 2.3466183e-38 274 276
-0.057439197 0.72799999 -0.045951359 2.3466183e-38 275 276
-0.056162767 0.72799999 -0.045951359 2.3466552e-38 276 276
-0.054810952 0.727 -0.045888241 2.3466912e-38 277 276
-0.053536277 0.727 -0.045888241 2.3467638e-38 278 276
-0.052333489 0.72799999 -0.045951359 2.3467278e-38 279 276
-0.051057063 0.72799999 -0.045951359 2.3466556e-38 280 276
-0.0499174 0.73000002 -0.046077598 2.3466196e-38 281 276
-0.048504211 0.72799999 -0.045951359 2.3466912e-38 282 276
-0.047227785 0.72799999 -0.045951359 2.3466912e-38 283 276
-0.045951359 0.72799999 -0.045951359 2.3467625e-38 284 276
-0.044674929 0.72799999 -0.045951359 2.3468344e-38 285 276
-0.043398503 0.72799999 -0.045951359 2.3468708e-38 286 276
-0.042122077 0.72799999 -0.045951359 2.3468347e-38 287 276
-0.040845651 0.72799999 -0.045951359 2.3467275e-38 288 276
-0.039569225 0.72799999 -0.045951359 2.3467275e-38 289 276
-0.038292799 0.72799999 -0.045951359 2.3467268e-38 290 276
-0.037016369 0.72799999 -0.045951359 2.3467628e-38 291 276
-0.035739943 0.72799999 -0.045951359 2.3467981e-38 292 276
-0.034558199 0.73000002 -0.046077598 2.3467261e-38 293 276
-0.033278264 0.73000002 -0.046077598 2.3466539e-38 294 276
-0.031998333 0.73000002 -0.046077598 2.3466539e-38 295 276
-0.030718399 0.73000002 -0.046077598 2.3465829e-38 296 276
-0.029438468 0.73000002 -0.046077598 2.3373273e-38 297 276
-0.028158534 0.73000002 -0.046077598 2.3464399e-38 298 276
-0.026878599 0.73000002 -0.046077598 2.3464399e-38 299 276
-0.025528532 0.72799999 -0.045951359 2.3463665e-38 300 276
-0.024252106 0.72799999 -0.045951359 2.3463665e-38 301 276
-0.022944121 0.727 -0.045888241 2.3464369e-38 302 276
-0.021669446 0.727 -0.045888241 2.346365e-38 303 276
-0.020422826 0.72799999 -0.045951359 2.3464016e-38 304 276
-0.019199001 0.73000002 -0.046077598 2.3464376e-38 305 276
-0.017869972 0.72799999 -0.045951359 2.346545e-38 306 276
-0.016593546 0.72799999 -0.045951359 2.3466172e-38 307 276
-0.0153592 0.73000002 -0.046077598 2.346761e-38 308 276
-0.014079267 0.73000002 -0.046077598 2.346761e-38 309 276
-0.012799333 0.73000002 -0.046077598 2.3467984e-38 310 276
-0.011519399 0.73000002 -0.046077598 2.3468344e-38 311 276
-0.010239467 0.73000002 -0.046077598 2.346835e-38 312 276
-0.0089595336 0.73000002 -0.046077598 2.3467271e-38 313 276
-0.0076795998 0.73000002 -0.046077598 2.3465826e-38 314 276
-0.0063996664 0.73000002 -0.046077598 2.3281433e-38 315 276
-0.0051197335 0.73000002 -0.046077598 2.3466186e-38 316 276
-0.0038397999 0.73000002 -0.046077598 2.3467625e-38 317 276
-0.0025598668 0.73000002 -0.046077598 2.3467631e-38 318 276
-0.0012799334 0.73000002 -0.046077598 2.3467271e-38 319 276
0 0.73000002 -0.046077598 2.3467635e-38 320 276
0.0012764266 0.72799999 -0.045951359 2.3467275e-38 321 276
0.0025493465 0.727 -0.045888241 2.3467638e-38 322 276
0.0038240198 0.727 -0.045888241 2.3467638e-38 323 276
0.0051057064 0.72799999 -0.045951359 2.3467635e-38 324 276
0.0063821329 0.72799999 -0.045951359 2.3467275e-38 325 276
0.0076480396 0.727 -0.045888241 2.3467275e-38 326 276
0.0089227129 0.727 -0.045888241 2.3467635e-38 327 276
0.010197386 0.727 -0.045888241 2.346835e-38 328 276
0.01148784 0.72799999 -0.045951359 2.346835e-38 329 276
0.012746733 0.727 -0.045888241 2.3468347e-38 330 276
0.013982833 0.72500002 -0.045761999 2.3375431e-38 331 276
0.015254001 0.72500002 -0.045761999 2.3464387e-38 332 276
0.016570752 0.727 -0.045888241 2.3279635e-38 333 276
0.017845426 0.727 -0.045888241 2.346438e-38 334 276
0.0191464 0.72799999 -0.045951359 2.3465462e-38 335 276
0.020422826 0.72799999 -0.045951359 2.346834e-38 336 276
0.021758866 0.73000002 -0.046077598 2.3191753e-38 337 276
0.023038799 0.73000002 -0.046077598 2.2086115e-38 338 276
0.024352046 0.73100001 -0.046140719 1.9689028e-38 339 276
0.025703866 0.73299998 -0.046266954 2.0328289e-38 340 276
0.026989058 0.73299998 -0.046266954 2.0420484e-38 341 276
0.028389972 0.736 -0.046456318 1.9869489e-38 342 276
0.029761078 0.73799998 -0.046582557 1.9869489e-38 343 276
0.03109712 0.73900002 -0.046645679 1.9593996e-38 344 276
0.032480497 0.741 -0.046771921 1.9409606e-38 345 276
0.033825304 0.74199998 -0.046835039 1.9318483e-38 346 276
