# .PCD v.7 - Point Cloud Data file format
FIELDS x y z rgb imX imY
SIZE 4 4 4 4 4 4
TYPE F F F F F F
COUNT 1 1 1 1 1 1
WIDTH 835
HEIGHT 1
VIEWPOINT 0 0 0 1 0 0 0
POINTS 835
DATA ascii
-0.022344479 0.708 -0.023585839 3.0399573e-39 302 259
-0.021192541 0.71100003 -0.023685781 2.9477616e-39 303 259
-0.020002026 0.713 -0.023752406 2.8555688e-39 304 259
-0.018751899 0.713 -0.023752406 2.8555688e-39 305 259
-0.017526319 0.71399999 -0.02378572 2.6708216e-39 306 259
-0.016274439 0.71399999 -0.02378572 2.6708216e-39 307 259
-0.01506464 0.71600002 -0.023852346 2.5786232e-39 308 259
-0.013828539 0.71700001 -0.02388566 2.5786232e-39 309 259
-0.0125714 0.71700001 -0.02388566 2.6704531e-39 310 259
-0.01131426 0.71700001 -0.02388566 2.5782561e-39 311 259
-0.010085173 0.71899998 -0.023952285 2.4853416e-39 312 259
-0.0088367993 0.72000003 -0.0239856 2.4853416e-39 313 259
-0.0075954394 0.722 -0.024052227 2.393862e-39 314 259
-0.0063295332 0.722 -0.024052227 2.393862e-39 315 259
-0.0050706398 0.72299999 -0.024085538 2.393862e-39 316 259
-0.0038029798 0.72299999 -0.024085538 2.393862e-39 317 259
-0.0025353199 0.72299999 -0.024085538 2.2105469e-39 318 259
-0.0012676599 0.72299999 -0.024085538 2.2105469e-39 319 259
0 0.72299999 -0.024085538 2.3020167e-39 320 259
0.0012676599 0.72299999 -0.024085538 2.3942123e-39 321 259
0.0025353199 0.72299999 -0.024085538 2.1187044e-39 322 259
0.0038135003 0.72500002 -0.024152167 2.1187044e-39 323 259
0.0050986931 0.727 -0.024218792 2.1187016e-39 324 259
0.0063821329 0.72799999 -0.024252106 2.2108973e-39 325 259
0.0076585598 0.72799999 -0.024252106 2.1187016e-39 326 259
0.0089349858 0.72799999 -0.024252106 2.026506e-39 327 259
0.010211413 0.72799999 -0.024252106 2.1190576e-39 328 259
0.011519399 0.73000002 -0.024318734 2.1190576e-39 329 259
0.012799333 0.73000002 -0.024318734 1.8431909e-39 330 259
0.014079267 0.73000002 -0.024318734 1.8431909e-39 331 259
0.015422319 0.73299998 -0.024418673 1.8431937e-39 332 259
0.016707512 0.73299998 -0.024418673 1.8431937e-39 333 259
0.017992707 0.73299998 -0.024418673 1.8431937e-39 334 259
0.019304199 0.73400003 -0.024451986 1.8431937e-39 335 259
0.020591147 0.73400003 -0.024451986 1.9343062e-39 336 259
0.021878093 0.73400003 -0.024451986 1.9343062e-39 337 259
0.023165042 0.73400003 -0.024451986 1.7509967e-39 338 259
0.024518613 0.736 -0.024518613 1.7509967e-39 339 259
0.025809066 0.736 -0.024518613 1.7509967e-39 340 259
0.027209979 0.73900002 -0.024618553 1.7509967e-39 341 259
0.028505694 0.73900002 -0.024618553 1.7509967e-39 342 259
0.029882059 0.741 -0.024685178 1.7509967e-39 343 259
0.031223357 0.74199998 -0.024718491 1.9343062e-39 344 259
0.032524332 0.74199998 -0.024718491 1.9343062e-39 345 259
0.033825304 0.74199998 -0.024718491 1.9335873e-39 346 259
0.03512628 0.74199998 -0.024718491 1.9335873e-39 347 259
0.036525439 0.74400002 -0.02478512 1.750275e-39 348 259
0.03793161 0.74599999 -0.024851745 1.750275e-39 349 259
0.039239597 0.74599999 -0.024851745 1.9335873e-39 350 259
0.040601939 0.74699998 -0.024885058 2.0257829e-39 351 259
0.042023893 0.74900001 -0.024951685 2.0261389e-39 352 259
0.04333714 0.74900001 -0.024951685 2.0261389e-39 353 259
0.044650383 0.74900001 -0.024951685 2.0268591e-39 354 259
0.04614773 0.75199997 -0.025051624 2.0268591e-39 355 259
0.04759248 0.75400001 -0.025118252 1.7517142e-39 356 259
0.048914492 0.75400001 -0.025118252 1.7517142e-39 357 259
0.050236505 0.75400001 -0.025118252 2.2112504e-39 358 259
0.051558517 0.75400001 -0.025118252 2.3956416e-39 359 259
0.052880533 0.75400001 -0.025118252 3.2221653e-39 360 259
-0.034561705 0.704 -0.024686933 3.7746314e-39 292 260
-0.03332736 0.704 -0.024686933 3.6824358e-39 293 260
-0.032093015 0.704 -0.024686933 3.407288e-39 294 260
-0.030946331 0.70599997 -0.024757065 3.1310613e-39 295 260
-0.029750559 0.70700002 -0.024792133 3.4976858e-39 296 260
-0.028510952 0.70700002 -0.024792133 3.3136547e-39 297 260
-0.027271347 0.70700002 -0.024792133 2.94667e-39 298 260
-0.026068559 0.708 -0.024827199 2.94667e-39 299 260
-0.024827199 0.708 -0.024827199 2.8541143e-39 300 260
-0.023585839 0.708 -0.024827199 2.8541143e-39 301 260
-0.022344479 0.708 -0.024827199 2.7622746e-39 302 260
-0.021192541 0.71100003 -0.024932399 2.8544702e-39 303 260
-0.01994592 0.71100003 -0.024932399 2.6700761e-39 304 260
-0.018751899 0.713 -0.025002534 2.6700761e-39 305 260
-0.017501773 0.713 -0.025002534 2.486045e-39 306 260
-0.016274439 0.71399999 -0.025037598 2.6700761e-39 307 260
-0.01506464 0.71600002 -0.025107734 2.3945682e-39 308 260
-0.013828539 0.71700001 -0.0251428 2.3945682e-39 309 260
-0.0125714 0.71700001 -0.0251428 2.4860422e-39 310 260
-0.01131426 0.71700001 -0.0251428 2.3938466e-39 311 260
-0.01005712 0.71700001 -0.0251428 2.3938466e-39 312 260
-0.0088245263 0.71899998 -0.025212931 2.3938466e-39 313 260
-0.0075954394 0.722 -0.025318133 2.3938494e-39 314 260
-0.0063295332 0.722 -0.025318133 2.3938494e-39 315 260
-0.0050636264 0.722 -0.025318133 2.3020139e-39 316 260
-0.0037977197 0.722 -0.025318133 2.3020139e-39 317 260
-0.0025353199 0.72299999 -0.025353199 2.1187016e-39 318 260
-0.0012676599 0.72299999 -0.025353199 2.1187016e-39 319 260
0 0.72299999 -0.025353199 2.1187016e-39 320 260
0.0012676599 0.72299999 -0.025353199 2.1187016e-39 321 260
0.0025353199 0.72299999 -0.025353199 2.3020139e-39 322 260
0.0038135003 0.72500002 -0.025423333 2.3020139e-39 323 260
0.0050846669 0.72500002 -0.025423333 2.1187044e-39 324 260
0.0063821329 0.72799999 -0.025528532 2.1187044e-39 325 260
0.0076585598 0.72799999 -0.025528532 2.1187016e-39 326 260
0.0089349858 0.72799999 -0.025528532 2.026506e-39 327 260
0.010211413 0.72799999 -0.025528532 1.8431909e-39 328 260
0.011519399 0.73000002 -0.025598666 1.9353866e-39 329 260
0.012799333 0.73000002 -0.025598666 1.8431909e-39 330 260
0.014079267 0.73000002 -0.025598666 1.7509939e-39 331 260
0.015422319 0.73299998 -0.025703866 1.7509939e-39 332 260
0.016707512 0.73299998 -0.025703866 1.7509939e-39 333 260
0.017992707 0.73299998 -0.025703866 1.8431909e-39 334 260
0.019304199 0.73400003 -0.025738932 1.7509939e-39 335 260
0.020591147 0.73400003 -0.025738932 1.9343062e-39 336 260
0.021878093 0.73400003 -0.025738932 1.9343062e-39 337 260
0.023228159 0.736 -0.025809066 1.934309e-39 338 260
0.024518613 0.736 -0.025809066 1.934309e-39 339 260
0.025879199 0.73799998 -0.025879199 1.7509967e-39 340 260
0.027209979 0.73900002 -0.025914267 1.6584423e-39 341 260
0.028505694 0.73900002 -0.025914267 1.750275e-39 342 260
0.029882059 0.741 -0.025984399 1.9343062e-39 343 260
0.031223357 0.74199998 -0.026019465 1.7509939e-39 344 260
0.032524332 0.74199998 -0.026019465 1.7509939e-39 345 260
0.033825304 0.74199998 -0.026019465 1.9335873e-39 346 260
0.035220962 0.74400002 -0.026089599 1.9335873e-39 347 260
0.036525439 0.74400002 -0.026089599 1.750275e-39 348 260
0.03793161 0.74599999 -0.026159734 1.9343062e-39 349 260
0.039239597 0.74599999 -0.026159734 2.0257829e-39 350 260
0.040710647 0.74900001 -0.026264934 2.0257829e-39 351 260
0.042023893 0.74900001 -0.026264934 2.0268591e-39 352 260
0.043394998 0.75 -0.0263 2.0268591e-39 353 260
0.044829223 0.75199997 -0.02637013 1.7509911e-39 354 260
0.046270464 0.75400001 -0.026440267 1.7509911e-39 355 260
0.04759248 0.75400001 -0.026440267 1.7509911e-39 356 260
0.048914492 0.75400001 -0.026440267 1.9357425e-39 357 260
0.050236505 0.75400001 -0.026440267 2.6707796e-39 358 260
0.051558517 0.75400001 -0.026440267 3.4083446e-39 359 260
0.052880533 0.75400001 -0.026440267 3.2261016e-39 360 260
-0.034561705 0.704 -0.02592128 2.7615683e-39 292 261
-0.03332736 0.704 -0.02592128 2.8537653e-39 293 261
-0.032093015 0.704 -0.02592128 2.5782561e-39 294 261
-0.030858666 0.704 -0.02592128 2.4860604e-39 295 261
-0.029708479 0.70599997 -0.025994917 2.4860576e-39 296 261
-0.028510952 0.70700002 -0.02603174 2.393862e-39 297 261
-0.027271347 0.70700002 -0.02603174 2.2105469e-39 298 261
-0.026068559 0.708 -0.026068559 2.2105469e-39 299 261
-0.024827199 0.708 -0.026068559 2.3942151e-39 300 261
-0.023585839 0.708 -0.026068559 2.3942151e-39 301 261
-0.022344479 0.708 -0.026068559 2.3942151e-39 302 261
-0.021192541 0.71100003 -0.026179021 2.4864107e-39 303 261
-0.01994592 0.71100003 -0.026179021 2.2109001e-39 304 261
-0.018751899 0.713 -0.026252659 2.1187044e-39 305 261
-0.017501773 0.713 -0.026252659 2.1187044e-39 306 261
-0.016274439 0.71399999 -0.026289478 2.2109001e-39 307 261
-0.015022559 0.71399999 -0.026289478 2.3945682e-39 308 261
-0.013809253 0.71600002 -0.026363119 2.3945682e-39 309 261
-0.0125714 0.71700001 -0.02639994 2.3938466e-39 310 261
-0.01131426 0.71700001 -0.02639994 2.3938466e-39 311 261
-0.01005712 0.71700001 -0.02639994 2.3938466e-39 312 261
-0.0088245263 0.71899998 -0.02647358 2.3938466e-39 313 261
-0.0075954394 0.722 -0.026584039 2.1190576e-39 314 261
-0.0063295332 0.722 -0.026584039 2.1190576e-39 315 261
-0.0050636264 0.722 -0.026584039 2.3938466e-39 316 261
-0.0037977197 0.722 -0.026584039 2.4860422e-39 317 261
-0.0025353199 0.72299999 -0.026620859 2.1190576e-39 318 261
-0.0012676599 0.72299999 -0.026620859 2.1190576e-39 319 261
0 0.72299999 -0.026620859 2.3020139e-39 320 261
0.0012676599 0.72299999 -0.026620859 2.3020139e-39 321 261
0.0025353199 0.72299999 -0.026620859 2.3020167e-39 322 261
0.0038135003 0.72500002 -0.026694499 2.3020167e-39 323 261
0.0050846669 0.72500002 -0.026694499 2.1187044e-39 324 261
0.0063821329 0.72799999 -0.026804959 2.0265088e-39 325 261
0.0076585598 0.72799999 -0.026804959 2.1187016e-39 326 261
0.0089595336 0.73000002 -0.026878599 2.026506e-39 327 261
0.010239467 0.73000002 -0.026878599 2.1183387e-39 328 261
0.011519399 0.73000002 -0.026878599 2.1183387e-39 329 261
0.012816866 0.73100001 -0.026915418 2.0265032e-39 330 261
0.014098554 0.73100001 -0.026915418 2.0265032e-39 331 261
0.015422319 0.73299998 -0.026989058 1.7509939e-39 332 261
0.016707512 0.73299998 -0.026989058 1.7509939e-39 333 261
0.017992707 0.73299998 -0.026989058 1.7509939e-39 334 261
0.019304199 0.73400003 -0.02702588 1.7509939e-39 335 261
0.020591147 0.73400003 -0.02702588 1.9335873e-39 336 261
0.021878093 0.73400003 -0.02702588 2.0257829e-39 337 261
0.023228159 0.736 -0.02709952 1.9335873e-39 338 261
0.024585238 0.73799998 -0.027173158 2.0257829e-39 339 261
0.025914267 0.73900002 -0.027209979 1.9343062e-39 340 261
0.027209979 0.73900002 -0.027209979 1.750275e-39 341 261
0.028582839 0.741 -0.027283618 1.750275e-39 342 261
0.029922385 0.74199998 -0.027320439 1.9343062e-39 343 261
0.031223357 0.74199998 -0.027320439 1.9343062e-39 344 261
0.032524332 0.74199998 -0.027320439 1.9343062e-39 345 261
0.033916477 0.74400002 -0.027394081 1.9339432e-39 346 261
0.035220962 0.74400002 -0.027394081 2.0261389e-39 347 261
0.036525439 0.74400002 -0.027394081 2.0261389e-39 348 261
0.03793161 0.74599999 -0.027467718 2.0261389e-39 349 261
0.039292198 0.74699998 -0.027504537 1.9335873e-39 350 261
0.040710647 0.74900001 -0.027578179 1.9335873e-39 351 261
0.04208 0.75 -0.027615 1.9335873e-39 352 261
0.04351072 0.75199997 -0.027688639 2.1183387e-39 353 261
0.044829223 0.75199997 -0.027688639 2.0268591e-39 354 261
0.046270464 0.75400001 -0.027762281 2.0268591e-39 355 261
0.04759248 0.75400001 -0.027762281 2.0257829e-39 356 261
0.048914492 0.75400001 -0.027762281 2.3023698e-39 357 261
0.050236505 0.75400001 -0.027762281 2.6715055e-39 358 261
0.051558517 0.75400001 -0.027762281 3.2246792e-39 359 261
0.052880533 0.75400001 -0.027762281 3.9611499e-39 360 261
-0.068558842 0.68599999 -0.026461305 3.4998396e-39 263 262
-0.06735605 0.68599999 -0.026461305 3.4987676e-39 264 262
-0.066153266 0.68599999 -0.026461305 3.406572e-39 265 262
-0.064950474 0.68599999 -0.026461305 3.4062161e-39 266 262
-0.063747689 0.68599999 -0.026461305 3.3140204e-39 267 262
-0.06152096 0.68800002 -0.026538454 3.2221779e-39 269 262
-0.060226995 0.68699998 -0.026499879 3.0388629e-39 270 262
-0.059022456 0.68699998 -0.026499879 2.9466672e-39 271 262
-0.039442986 0.70300001 -0.027117053 2.6700733e-39 288 262
-0.038210396 0.70300001 -0.027117053 2.762269e-39 289 262
-0.036977798 0.70300001 -0.027117053 2.8537485e-39 290 262
-0.035745207 0.70300001 -0.027117053 2.7615529e-39 291 262
-0.034512613 0.70300001 -0.027117053 2.7615529e-39 292 262
-0.03332736 0.704 -0.027155625 2.6693573e-39 293 262
-0.032093015 0.704 -0.027155625 2.486045e-39 294 262
-0.030858666 0.704 -0.027155625 2.486045e-39 295 262
-0.029708479 0.70599997 -0.027232772 2.4860422e-39 296 262
-0.028510952 0.70700002 -0.027271347 2.4860422e-39 297 262
-0.027271347 0.70700002 -0.027271347 2.3023698e-39 298 262
-0.026068559 0.708 -0.027309919 2.3023698e-39 299 262
-0.024827199 0.708 -0.027309919 2.2112532e-39 300 262
-0.023585839 0.708 -0.027309919 2.2112532e-39 301 262
-0.022344479 0.708 -0.027309919 2.3020139e-39 302 262
-0.021192541 0.71100003 -0.027425639 2.3945682e-39 303 262
-0.020002026 0.713 -0.027502786 2.3938494e-39 304 262
-0.018751899 0.713 -0.027502786 2.486045e-39 305 262
-0.017526319 0.71399999 -0.02754136 2.1187016e-39 306 262
-0.016274439 0.71399999 -0.02754136 2.2108973e-39 307 262
-0.015022559 0.71399999 -0.02754136 2.3945654e-39 308 262
-0.013809253 0.71600002 -0.027618507 2.3023698e-39 309 262
-0.0125714 0.71700001 -0.027657079 2.302367e-39 310 262
-0.01131426 0.71700001 -0.027657079 2.302367e-39 311 262
-0.01005712 0.71700001 -0.027657079 2.3945654e-39 312 262
-0.0088245263 0.71899998 -0.027734226 2.3023698e-39 313 262
-0.0075743999 0.72000003 -0.027772799 2.3020139e-39 314 262
-0.0063295332 0.722 -0.027849946 2.3020139e-39 315 262
-0.0050636264 0.722 -0.027849946 2.3938494e-39 316 262
-0.0038029798 0.72299999 -0.02788852 2.3938494e-39 317 262
-0.0025353199 0.72299999 -0.02788852 2.1190576e-39 318 262
-0.0012676599 0.72299999 -0.02788852 2.1190576e-39 319 262
0 0.72299999 -0.02788852 2.3023698e-39 320 262
0.0012711667 0.72500002 -0.027965667 2.1183387e-39 321 262
0.0025423334 0.72500002 -0.027965667 2.1179828e-39 322 262
0.0038240198 0.727 -0.028042812 2.3020139e-39 323 262
0.0050986931 0.727 -0.028042812 2.3020139e-39 324 262
0.0063821329 0.72799999 -0.028081384 2.1179828e-39 325 262
0.0076795998 0.73000002 -0.028158534 2.1183387e-39 326 262
0.0089595336 0.73000002 -0.028158534 2.1183387e-39 327 262
0.010239467 0.73000002 -0.028158534 2.2094511e-39 328 262
0.011519399 0.73000002 -0.028158534 2.3016481e-39 329 262
0.012816866 0.73100001 -0.028197108 2.0261389e-39 330 262
0.014098554 0.73100001 -0.028197108 2.1183359e-39 331 262
0.015422319 0.73299998 -0.028274251 1.9346621e-39 332 262
0.016707512 0.73299998 -0.028274251 1.9346621e-39 333 262
0.018017253 0.73400003 -0.028312827 1.9343062e-39 334 262
0.019304199 0.73400003 -0.028312827 1.750275e-39 335 262
0.020591147 0.73400003 -0.028312827 1.9335901e-39 336 262
0.021937706 0.736 -0.028389972 1.9335901e-39 337 262
0.023228159 0.736 -0.028389972 1.9343062e-39 338 262
0.024618553 0.73900002 -0.028505694 1.9343062e-39 339 262
0.025914267 0.73900002 -0.028505694 1.9346621e-39 340 262
0.027283618 0.741 -0.028582839 1.7502722e-39 341 262
0.028582839 0.741 -0.028582839 1.750275e-39 342 262
0.029922385 0.74199998 -0.028621411 1.9343062e-39 343 262
0.031223357 0.74199998 -0.028621411 1.934309e-39 344 262
0.032612 0.74400002 -0.02869856 1.934309e-39 345 262
0.033916477 0.74400002 -0.02869856 2.0257829e-39 346 262
0.035220962 0.74400002 -0.02869856 1.9335873e-39 347 262
0.036525439 0.74400002 -0.02869856 2.1172555e-39 348 262
0.03793161 0.74599999 -0.028775707 2.1172555e-39 349 262
0.039292198 0.74699998 -0.028814279 1.9335873e-39 350 262
0.040710647 0.74900001 -0.028891427 1.9335873e-39 351 262
0.04208 0.75 -0.028929999 1.9335873e-39 352 262
0.04351072 0.75199997 -0.029007144 1.9335873e-39 353 262
0.044829223 0.75199997 -0.029007144 2.0257829e-39 354 262
0.046270464 0.75400001 -0.029084291 2.0257829e-39 355 262
0.04759248 0.75400001 -0.029084291 2.0257829e-39 356 262
0.048914492 0.75400001 -0.029084291 2.3023698e-39 357 262
0.050236505 0.75400001 -0.029084291 2.7619032e-39 358 262
0.051558517 0.75400001 -0.029084291 3.2228814e-39 359 262
-0.068358958 0.68400002 -0.027583439 2.6715251e-39 263 263
-0.067061491 0.68300003 -0.027543113 2.8541213e-39 264 263
-0.065863967 0.68300003 -0.027543113 2.8541213e-39 265 263
-0.064761117 0.68400002 -0.027583439 2.7615655e-39 266 263
-0.063561834 0.68400002 -0.027583439 2.7615655e-39 267 263
-0.062362559 0.68400002 -0.027583439 2.5786064e-39 268 263
-0.061431535 0.68699998 -0.027704418 2.4864107e-39 269 263
-0.060226995 0.68699998 -0.027704418 2.3952913e-39 270 263
-0.059022456 0.68699998 -0.027704418 2.3030957e-39 271 263
-0.057902083 0.68800002 -0.027744746 2.3952913e-39 272 263
-0.056695789 0.68800002 -0.027744746 2.3030957e-39 273 263
-0.055489492 0.68800002 -0.027744746 2.3952913e-39 274 263
-0.054519895 0.69099998 -0.027865725 2.3030957e-39 275 263
-0.053462639 0.69300002 -0.027946379 2.3038145e-39 276 263
-0.05224758 0.69300002 -0.027946379 2.1194233e-39 277 263
-0.039442986 0.70300001 -0.028349647 2.4867611e-39 288 263
-0.038210396 0.70300001 -0.028349647 2.4867611e-39 289 263
-0.036977798 0.70300001 -0.028349647 2.4867639e-39 290 263
-0.035745207 0.70300001 -0.028349647 2.4867639e-39 291 263
-0.034512613 0.70300001 -0.028349647 2.3945682e-39 292 263
-0.03332736 0.704 -0.028389972 2.3945682e-39 293 263
-0.032093015 0.704 -0.028389972 2.3945682e-39 294 263
-0.030946331 0.70599997 -0.028470624 2.3945682e-39 295 263
-0.029708479 0.70599997 -0.028470624 2.3945654e-39 296 263
-0.028510952 0.70700002 -0.028510952 2.3023698e-39 297 263
-0.027271347 0.70700002 -0.028510952 2.1190576e-39 298 263
-0.026068559 0.708 -0.02855128 2.2112532e-39 299 263
-0.024897331 0.70999998 -0.028631933 2.3945654e-39 300 263
-0.023652466 0.70999998 -0.028631933 2.3023698e-39 301 263
-0.022407599 0.70999998 -0.028631933 2.3945682e-39 302 263
-0.021192541 0.71100003 -0.028672259 2.3945682e-39 303 263
-0.020002026 0.713 -0.028752912 2.3020139e-39 304 263
-0.018778199 0.71399999 -0.028793238 2.3020139e-39 305 263
-0.017526319 0.71399999 -0.028793238 2.1187016e-39 306 263
-0.016274439 0.71399999 -0.028793238 2.1187016e-39 307 263
-0.01506464 0.71600002 -0.028873893 2.486045e-39 308 263
-0.013809253 0.71600002 -0.028873893 2.3938494e-39 309 263
-0.0125714 0.71700001 -0.028914221 2.4860422e-39 310 263
-0.01131426 0.71700001 -0.028914221 2.4860422e-39 311 263
-0.01005712 0.71700001 -0.028914221 2.3945682e-39 312 263
-0.0088245263 0.71899998 -0.028994869 2.3020139e-39 313 263
-0.0075743999 0.72000003 -0.029035201 2.3020139e-39 314 263
-0.0063295332 0.722 -0.029115854 2.3020139e-39 315 263
-0.0050636264 0.722 -0.029115854 2.3020139e-39 316 263
-0.0038029798 0.72299999 -0.029156178 2.3020139e-39 317 263
-0.0025353199 0.72299999 -0.029156178 2.3020139e-39 318 263
-0.0012676599 0.72299999 -0.029156178 2.3020139e-39 319 263
0 0.72500002 -0.029236834 2.1183387e-39 320 263
0.0012711667 0.72500002 -0.029236834 2.1183387e-39 321 263
0.0025423334 0.72500002 -0.029236834 2.3938494e-39 322 263
0.0038240198 0.727 -0.029317487 2.3938494e-39 323 263
0.0051057064 0.72799999 -0.029357811 2.026506e-39 324 263
0.0063821329 0.72799999 -0.029357811 2.026506e-39 325 263
0.0076795998 0.73000002 -0.029438468 2.1183387e-39 326 263
0.0089595336 0.73000002 -0.029438468 2.0257829e-39 327 263
0.010239467 0.73000002 -0.029438468 2.0257829e-39 328 263
0.011519399 0.73000002 -0.029438468 2.0257829e-39 329 263
0.012816866 0.73100001 -0.029478792 2.1183387e-39 330 263
0.014137126 0.73299998 -0.029559445 2.1183387e-39 331 263
0.015422319 0.73299998 -0.029559445 1.9346621e-39 332 263
0.016730307 0.73400003 -0.029599773 1.9346621e-39 333 263
0.018017253 0.73400003 -0.029599773 2.0257829e-39 334 263
0.019356798 0.736 -0.029680425 1.9335873e-39 335 263
0.020647252 0.736 -0.029680425 1.9335901e-39 336 263
0.021937706 0.736 -0.029680425 2.0257857e-39 337 263
0.023291279 0.73799998 -0.029761078 1.9343062e-39 338 263
0.024618553 0.73900002 -0.029801406 1.9343062e-39 339 263
0.025984399 0.741 -0.029882059 1.9343062e-39 340 263
0.027283618 0.741 -0.029882059 1.750275e-39 341 263
0.02869856 0.74400002 -0.030003037 1.934309e-39 342 263
0.030003037 0.74400002 -0.030003037 1.934309e-39 343 263
0.031307522 0.74400002 -0.030003037 2.0257857e-39 344 263
0.032612 0.74400002 -0.030003037 2.0257857e-39 345 263
0.034007654 0.74599999 -0.03008369 2.0261389e-39 346 263
0.03531564 0.74599999 -0.03008369 2.0261389e-39 347 263
0.036623627 0.74599999 -0.03008369 2.026136e-39 348 263
0.03798246 0.74699998 -0.030124018 2.026136e-39 349 263
0.0393974 0.74900001 -0.030204674 1.9346621e-39 350 263
0.040764999 0.75 -0.030244999 1.7502722e-39 351 263
0.04208 0.75 -0.030244999 1.9335873e-39 352 263
0.04351072 0.75199997 -0.030325651 1.9335873e-39 353 263
0.044829223 0.75199997 -0.030325651 1.9335873e-39 354 263
0.046270464 0.75400001 -0.030406307 2.0257829e-39 355 263
0.04759248 0.75400001 -0.030406307 1.9335873e-39 356 263
0.048914492 0.75400001 -0.030406307 2.1183387e-39 357 263
0.050236505 0.75400001 -0.030406307 2.3938494e-39 358 263
0.051558517 0.75400001 -0.030406307 2.6700761e-39 359 263
-0.068259016 0.68300003 -0.028740639 2.2116189e-39 263 264
-0.067061491 0.68300003 -0.028740639 2.2109001e-39 264 264
-0.065863967 0.68300003 -0.028740639 2.2109001e-39 265 264
-0.064761117 0.68400002 -0.02878272 2.3942123e-39 266 264
-0.063561834 0.68400002 -0.02878272 2.4864079e-39 267 264
-0.062362559 0.68400002 -0.02878272 2.4867611e-39 268 264
-0.061431535 0.68699998 -0.028908957 2.4867611e-39 269 264
-0.060226995 0.68699998 -0.028908957 2.2112532e-39 270 264
-0.059022456 0.68699998 -0.028908957 2.3034488e-39 271 264
-0.057902083 0.68800002 -0.028951041 2.2116161e-39 272 264
-0.056695789 0.68800002 -0.028951041 2.1194205e-39 273 264
-0.055489492 0.68800002 -0.028951041 2.2116161e-39 274 264
-0.054519895 0.69099998 -0.029077278 2.2116161e-39 275 264
-0.053462639 0.69300002 -0.029161438 2.1197764e-39 276 264
-0.05224758 0.69300002 -0.029161438 2.211972e-39 277 264
-0.051106159 0.69400001 -0.029203519 2.2112532e-39 278 264
-0.050105009 0.69700003 -0.02932976 2.3034488e-39 279 264
-0.048882935 0.69700003 -0.02932976 2.303446e-39 280 264
-0.047660861 0.69700003 -0.02932976 2.303446e-39 281 264
-0.046505414 0.69800001 -0.029371841 2.303446e-39 282 264
-0.045281585 0.69800001 -0.029371841 2.2112504e-39 283 264
-0.040675577 0.70300001 -0.029582238 2.2119692e-39 287 264
-0.039442986 0.70300001 -0.029582238 2.3945654e-39 288 264
-0.038210396 0.70300001 -0.029582238 2.4867611e-39 289 264
-0.036977798 0.70300001 -0.029582238 2.3945654e-39 290 264
-0.035796054 0.704 -0.029624319 2.3945654e-39 291 264
-0.034561705 0.704 -0.029624319 2.3945626e-39 292 264
-0.03332736 0.704 -0.029624319 2.302367e-39 293 264
-0.032093015 0.704 -0.029624319 2.3945654e-39 294 264
-0.030946331 0.70599997 -0.029708479 2.3945654e-39 295 264
-0.029708479 0.70599997 -0.029708479 2.1187016e-39 296 264
-0.028510952 0.70700002 -0.029750559 2.2108973e-39 297 264
-0.027309919 0.708 -0.02979264 1.9353894e-39 298 264
-0.026068559 0.708 -0.02979264 1.9353894e-39 299 264
-0.024897331 0.70999998 -0.029876797 2.1190576e-39 300 264
-0.023652466 0.70999998 -0.029876797 2.2112532e-39 301 264
-0.022407599 0.70999998 -0.029876797 2.3945654e-39 302 264
-0.021192541 0.71100003 -0.029918881 2.3023698e-39 303 264
-0.020002026 0.713 -0.030003037 2.1187016e-39 304 264
-0.018778199 0.71399999 -0.030045118 2.1187016e-39 305 264
-0.017526319 0.71399999 -0.030045118 2.1187044e-39 306 264
-0.016320027 0.71600002 -0.03012928 2.1187044e-39 307 264
-0.01506464 0.71600002 -0.03012928 2.1187044e-39 308 264
-0.013828539 0.71700001 -0.030171359 2.1187044e-39 309 264
-0.0125714 0.71700001 -0.030171359 2.3020139e-39 310 264
-0.01131426 0.71700001 -0.030171359 2.3020139e-39 311 264
-0.010085173 0.71899998 -0.030255521 2.3020139e-39 312 264
-0.0088245263 0.71899998 -0.030255521 2.3020139e-39 313 264
-0.0075743999 0.72000003 -0.0302976 2.1190576e-39 314 264
-0.0063295332 0.722 -0.030381758 2.1190576e-39 315 264
-0.0050636264 0.722 -0.030381758 2.1187016e-39 316 264
-0.0038029798 0.72299999 -0.030423839 2.1187016e-39 317 264
-0.0025353199 0.72299999 -0.030423839 2.1190576e-39 318 264
-0.0012711667 0.72500002 -0.030508002 2.1190576e-39 319 264
0 0.72500002 -0.030508002 2.1183387e-39 320 264
0.0012711667 0.72500002 -0.030508002 2.1183387e-39 321 264
0.0025493465 0.727 -0.030592158 2.1190576e-39 322 264
0.0038292799 0.72799999 -0.030634239 2.0265032e-39 323 264
0.0051057064 0.72799999 -0.030634239 1.8431909e-39 324 264
0.0063996664 0.73000002 -0.030718399 1.8431909e-39 325 264
0.0076795998 0.73000002 -0.030718399 2.1183387e-39 326 264
0.0089595336 0.73000002 -0.030718399 2.0257829e-39 327 264
0.010239467 0.73000002 -0.030718399 2.026506e-39 328 264
0.01153518 0.73100001 -0.03076048 1.934309e-39 329 264
0.012816866 0.73100001 -0.03076048 1.9343062e-39 330 264
0.014137126 0.73299998 -0.030844638 1.9343062e-39 331 264
0.01544336 0.73400003 -0.030886721 1.9346621e-39 332 264
0.016730307 0.73400003 -0.030886721 1.9346621e-39 333 264
0.018066347 0.736 -0.030970879 1.9343062e-39 334 264
0.019356798 0.736 -0.030970879 1.750275e-39 335 264
0.020647252 0.736 -0.030970879 1.9335873e-39 336 264
0.021997318 0.73799998 -0.031055039 2.1183387e-39 337 264
0.023322839 0.73900002 -0.03109712 1.7509911e-39 338 264
0.024685178 0.741 -0.03118128 1.7509911e-39 339 264
0.025984399 0.741 -0.03118128 1.7509939e-39 340 264
0.027283618 0.741 -0.03118128 1.6587983e-39 341 264
0.02869856 0.74400002 -0.031307522 1.7502778e-39 342 264
0.030003037 0.74400002 -0.031307522 1.934309e-39 343 264
0.031391677 0.74599999 -0.031391677 1.9343062e-39 344 264
0.032699663 0.74599999 -0.031391677 1.9343062e-39 345 264
0.034007654 0.74599999 -0.031391677 1.9346621e-39 346 264
0.035362978 0.74699998 -0.031433757 1.9346621e-39 347 264
0.036672719 0.74699998 -0.031433757 2.026136e-39 348 264
0.03798246 0.74699998 -0.031433757 2.026136e-39 349 264
0.0393974 0.74900001 -0.031517919 1.9339404e-39 350 264
0.040764999 0.75 -0.03156 2.026136e-39 351 264
0.04208 0.75 -0.03156 2.026136e-39 352 264
0.043626439 0.75400001 -0.03172832 2.026136e-39 353 264
0.044948451 0.75400001 -0.03172832 2.0261389e-39 354 264
0.046270464 0.75400001 -0.03172832 2.0261389e-39 355 264
0.04759248 0.75400001 -0.03172832 1.9346621e-39 356 264
0.048979364 0.755 -0.031770397 1.9346621e-39 357 264
0.050303131 0.755 -0.031770397 2.0265032e-39 358 264
-0.069456547 0.68300003 -0.029938167 1.8439126e-39 262 265
-0.068259016 0.68300003 -0.029938167 1.9361082e-39 263 265
-0.067061491 0.68300003 -0.029938167 2.1197764e-39 264 265
-0.065863967 0.68300003 -0.029938167 2.1197764e-39 265 265
-0.064761117 0.68400002 -0.029982001 2.3034488e-39 266 265
-0.063561834 0.68400002 -0.029982001 2.3034488e-39 267 265
-0.062362559 0.68400002 -0.029982001 2.303446e-39 268 265
-0.061431535 0.68699998 -0.030113498 2.303446e-39 269 265
-0.060314666 0.68800002 -0.030157333 2.303446e-39 270 265
-0.059108373 0.68800002 -0.030157333 2.303446e-39 271 265
-0.058070395 0.69 -0.030244999 2.211972e-39 272 265
-0.0568606 0.69 -0.030244999 2.1197764e-39 273 265
-0.055650797 0.69 -0.030244999 2.2108973e-39 274 265
-0.054677699 0.69300002 -0.0303765 2.2108973e-39 275 265
-0.053462639 0.69300002 -0.0303765 2.1194205e-39 276 265
-0.05224758 0.69300002 -0.0303765 2.1194205e-39 277 265
-0.051106159 0.69400001 -0.030420333 2.2108973e-39 278 265
-0.050033119 0.69599998 -0.030507999 2.2108973e-39 279 265
-0.048882935 0.69700003 -0.030551834 2.2108973e-39 280 265
-0.047660861 0.69700003 -0.030551834 2.2108973e-39 281 265
-0.046505414 0.69800001 -0.030595668 2.3945654e-39 282 265
-0.045281585 0.69800001 -0.030595668 2.4867611e-39 283 265
-0.044183996 0.69999999 -0.030683333 2.2112504e-39 284 265
-0.043018032 0.70099998 -0.030727165 2.2112504e-39 285 265
-0.041908171 0.70300001 -0.030814834 2.4867611e-39 286 265
-0.040675577 0.70300001 -0.030814834 2.4867611e-39 287 265
-0.039442986 0.70300001 -0.030814834 2.4867611e-39 288 265
-0.038210396 0.70300001 -0.030814834 2.4867611e-39 289 265
-0.037030395 0.704 -0.030858666 2.4867611e-39 290 265
-0.035796054 0.704 -0.030858666 2.3945654e-39 291 265
-0.034561705 0.704 -0.030858666 2.3945654e-39 292 265
-0.03332736 0.704 -0.030858666 2.3945654e-39 293 265
-0.032184184 0.70599997 -0.030946331 2.3945654e-39 294 265
-0.030946331 0.70599997 -0.030946331 2.3945654e-39 295 265
-0.029708479 0.70599997 -0.030946331 2.1187016e-39 296 265
-0.028510952 0.70700002 -0.030990168 2.2108973e-39 297 265
-0.027309919 0.708 -0.031034 2.1187044e-39 298 265
-0.026068559 0.708 -0.031034 2.1187044e-39 299 265
-0.024897331 0.70999998 -0.031121666 2.3020139e-39 300 265
-0.023652466 0.70999998 -0.031121666 2.3945682e-39 301 265
-0.022407599 0.70999998 -0.031121666 2.3945682e-39 302 265
-0.021192541 0.71100003 -0.031165501 2.3020139e-39 303 265
-0.020030079 0.71399999 -0.031296998 2.3020167e-39 304 265
-0.018778199 0.71399999 -0.031296998 2.3020167e-39 305 265
-0.017575413 0.71600002 -0.031384666 2.1187044e-39 306 265
-0.016320027 0.71600002 -0.031384666 2.1187044e-39 307 265
-0.01506464 0.71600002 -0.031384666 2.3012978e-39 308 265
-0.013828539 0.71700001 -0.031428497 2.3934934e-39 309 265
-0.012606465 0.71899998 -0.031516165 2.3020139e-39 310 265
-0.01134582 0.71899998 -0.031516165 2.3020139e-39 311 265
-0.010085173 0.71899998 -0.031516165 2.1187044e-39 312 265
-0.0088367993 0.72000003 -0.03156 2.1187044e-39 313 265
-0.0075743999 0.72000003 -0.03156 2.026506e-39 314 265
-0.0063295332 0.722 -0.031647664 2.026506e-39 315 265
-0.0050636264 0.722 -0.031647664 2.1190576e-39 316 265
-0.0038029798 0.72299999 -0.031691495 2.1190576e-39 317 265
-0.0025353199 0.72299999 -0.031691495 2.1190547e-39 318 265
-0.0012711667 0.72500002 -0.031779166 2.1190547e-39 319 265
0 0.72500002 -0.031779166 2.1190547e-39 320 265
0.0012746733 0.727 -0.03186683 2.1190547e-39 321 265
0.0025493465 0.727 -0.03186683 1.8431937e-39 322 265
0.0038292799 0.72799999 -0.031910665 1.8431937e-39 323 265
0.0051057064 0.72799999 -0.031910665 1.8431937e-39 324 265
0.0063996664 0.73000002 -0.031998333 1.8431937e-39 325 265
0.0076795998 0.73000002 -0.031998333 2.0265032e-39 326 265
0.0089595336 0.73000002 -0.031998333 2.0265032e-39 327 265
0.010253493 0.73100001 -0.032042164 1.7509939e-39 328 265
0.01153518 0.73100001 -0.032042164 1.8431909e-39 329 265
0.012816866 0.73100001 -0.032042164 1.9343062e-39 330 265
0.014137126 0.73299998 -0.032129832 1.9343062e-39 331 265
0.01544336 0.73400003 -0.032173667 1.9343062e-39 332 265
0.016775893 0.736 -0.032261331 1.9343062e-39 333 265
0.018066347 0.736 -0.032261331 1.9343062e-39 334 265
0.019409399 0.73799998 -0.032348998 1.9343062e-39 335 265
0.020703359 0.73799998 -0.032348998 1.9346621e-39 336 265
0.021997318 0.73799998 -0.032348998 2.0268591e-39 337 265
0.023322839 0.73900002 -0.032392833 1.7517114e-39 338 265
0.024685178 0.741 -0.032480497 1.7517114e-39 339 265
0.026019465 0.74199998 -0.032524332 1.6587983e-39 340 265
0.027320439 0.74199998 -0.032524332 1.6587983e-39 341 265
0.02869856 0.74400002 -0.032612 1.7502778e-39 342 265
0.030003037 0.74400002 -0.032612 1.934309e-39 343 265
0.031391677 0.74599999 -0.032699663 1.7509967e-39 344 265
0.032699663 0.74599999 -0.032699663 1.7509967e-39 345 265
0.034053236 0.74699998 -0.032743499 1.9343062e-39 346 265
0.035362978 0.74699998 -0.032743499 1.750275e-39 347 265
0.036672719 0.74699998 -0.032743499 1.9339432e-39 348 265
0.03798246 0.74699998 -0.032743499 1.8413889e-39 349 265
0.039292198 0.74699998 -0.032743499 1.5658838e-39 350 265
0.040601939 0.74699998 -0.032743499 1.4736881e-39 351 265
0.041911677 0.74699998 -0.032743499 1.565881e-39 352 265
0.043626439 0.75400001 -0.033050332 1.7502722e-39 353 265
-0.070757523 0.68400002 -0.03118128 1.9361054e-39 261 266
-0.069456547 0.68300003 -0.031135695 1.9357425e-39 262 266
-0.068259016 0.68300003 -0.031135695 2.1197736e-39 263 266
-0.067061491 0.68300003 -0.031135695 2.1197764e-39 264 266
-0.065863967 0.68300003 -0.031135695 2.1197764e-39 265 266
-0.064950474 0.68599999 -0.031272452 2.2112532e-39 266 266
-0.063747689 0.68599999 -0.031272452 2.3034488e-39 267 266
-0.062544905 0.68599999 -0.031272452 2.303446e-39 268 266
-0.061431535 0.68699998 -0.031318039 2.303446e-39 269 266
-0.060314666 0.68800002 -0.031363625 2.3034488e-39 270 266
-0.059108373 0.68800002 -0.031363625 2.2112532e-39 271 266
-0.058154557 0.69099998 -0.031500384 2.2108973e-39 272 266
-0.056942999 0.69099998 -0.031500384 2.1187016e-39 273 266
-0.055731449 0.69099998 -0.031500384 2.2109001e-39 274 266
-0.054677699 0.69300002 -0.031591557 2.2109001e-39 275 266
-0.053539783 0.69400001 -0.031637147 2.2109001e-39 276 266
-0.052322973 0.69400001 -0.031637147 2.2109001e-39 277 266
-0.051106159 0.69400001 -0.031637147 2.2109001e-39 278 266
-0.050033119 0.69599998 -0.031728316 2.1187044e-39 279 266
-0.048882935 0.69700003 -0.03177391 2.3945682e-39 280 266
-0.047660861 0.69700003 -0.03177391 2.3945682e-39 281 266
-0.046505414 0.69800001 -0.031819493 2.3034488e-39 282 266
-0.045281585 0.69800001 -0.031819493 2.3034488e-39 283 266
-0.044183996 0.69999999 -0.031910665 2.3034488e-39 284 266
-0.043018032 0.70099998 -0.031956252 2.2112532e-39 285 266
-0.041908171 0.70300001 -0.032047424 2.2109001e-39 286 266
-0.040675577 0.70300001 -0.032047424 2.2109001e-39 287 266
-0.039442986 0.70300001 -0.032047424 2.2109001e-39 288 266
-0.038210396 0.70300001 -0.032047424 2.2109001e-39 289 266
-0.037030395 0.704 -0.032093015 2.2108973e-39 290 266
-0.035796054 0.704 -0.032093015 2.2108973e-39 291 266
-0.034561705 0.704 -0.032093015 2.3945654e-39 292 266
-0.033422034 0.70599997 -0.032184184 2.3945654e-39 293 266
-0.032184184 0.70599997 -0.032184184 2.3945654e-39 294 266
-0.030946331 0.70599997 -0.032184184 2.3945654e-39 295 266
-0.029750559 0.70700002 -0.032229774 2.1187016e-39 296 266
-0.02855128 0.708 -0.03227536 2.026506e-39 297 266
-0.027309919 0.708 -0.03227536 2.1187044e-39 298 266
-0.026068559 0.708 -0.03227536 2.1187044e-39 299 266
-0.024897331 0.70999998 -0.032366529 2.3020139e-39 300 266
-0.023652466 0.70999998 -0.032366529 2.3020139e-39 301 266
-0.022407599 0.70999998 -0.032366529 2.3020139e-39 302 266
-0.021252153 0.713 -0.032503292 2.3020139e-39 303 266
-0.020030079 0.71399999 -0.032548878 2.3020167e-39 304 266
-0.0188308 0.71600002 -0.032640055 2.3020167e-39 305 266
-0.017575413 0.71600002 -0.032640055 2.1187044e-39 306 266
-0.016320027 0.71600002 -0.032640055 2.1187044e-39 307 266
-0.015085679 0.71700001 -0.032685637 2.3938494e-39 308 266
-0.013828539 0.71700001 -0.032685637 2.3938494e-39 309 266
-0.012606465 0.71899998 -0.032776814 2.3020139e-39 310 266
-0.01134582 0.71899998 -0.032776814 2.3020139e-39 311 266
-0.010099201 0.72000003 -0.0328224 2.1187016e-39 312 266
-0.0088367993 0.72000003 -0.0328224 2.1187016e-39 313 266
-0.0075954394 0.722 -0.032913569 2.3020139e-39 314 266
-0.0063295332 0.722 -0.032913569 2.1179828e-39 315 266
-0.0050706398 0.72299999 -0.032959159 2.1179828e-39 316 266
-0.0038029798 0.72299999 -0.032959159 2.3020139e-39 317 266
-0.0025353199 0.72299999 -0.032959159 2.1190576e-39 318 266
-0.0012711667 0.72500002 -0.033050332 2.1190576e-39 319 266
0 0.72500002 -0.033050332 2.3023698e-39 320 266
0.0012711667 0.72500002 -0.033050332 2.3023698e-39 321 266
0.0025493465 0.727 -0.033141505 2.2112504e-39 322 266
0.0038292799 0.72799999 -0.033187091 2.2112504e-39 323 266
0.0051197335 0.73000002 -0.033278264 2.3945626e-39 324 266
0.0063996664 0.73000002 -0.033278264 2.302367e-39 325 266
0.0076795998 0.73000002 -0.033278264 2.302367e-39 326 266
0.0089595336 0.73000002 -0.033278264 2.0261389e-39 327 266
0.010253493 0.73100001 -0.033323854 1.7509967e-39 328 266
0.01153518 0.73100001 -0.033323854 1.7509967e-39 329 266
0.012851933 0.73299998 -0.033415023 1.9343062e-39 330 266
0.014156413 0.73400003 -0.033460613 1.9343062e-39 331 266
0.015485439 0.736 -0.033551786 2.0257829e-39 332 266
0.016775893 0.736 -0.033551786 2.0257829e-39 333 266
0.018066347 0.736 -0.033551786 2.0257829e-39 334 266
0.019409399 0.73799998 -0.033642959 2.0257829e-39 335 266
0.020703359 0.73799998 -0.033642959 1.9346621e-39 336 266
0.022027127 0.73900002 -0.033688545 1.9346621e-39 337 266
0.023322839 0.73900002 -0.033688545 1.7509911e-39 338 266
0.024685178 0.741 -0.033779722 1.8435469e-39 339 266
0.026019465 0.74199998 -0.033825304 2.0261389e-39 340 266
0.027320439 0.74199998 -0.033825304 2.0261389e-39 341 266
0.028775707 0.74599999 -0.034007654 2.1183359e-39 342 266
0.03008369 0.74599999 -0.034007654 2.302367e-39 343 266
0.031433757 0.74699998 -0.034053236 2.3941997e-39 344 266
0.032743499 0.74699998 -0.034053236 2.3941997e-39 345 266
0.034053236 0.74699998 -0.034053236 3.128162e-39 346 266
0.035362978 0.74699998 -0.034053236 2.6675426e-39 347 266
0.036672719 0.74699998 -0.034053236 2.1165338e-39 348 266
0.03798246 0.74699998 -0.034053236 2.3012838e-39 349 266
0.039292198 0.74699998 -0.034053236 2.4842457e-39 350 266
0.040601939 0.74699998 -0.034053236 2.5764428e-39 351 266
0.041911677 0.74699998 -0.034053236 2.7615529e-39 352 266
-0.072167195 0.68599999 -0.032475237 1.9364614e-39 260 267
-0.070757523 0.68400002 -0.032380559 1.9364614e-39 261 267
-0.06955824 0.68400002 -0.032380559 1.9364614e-39 262 267
-0.068358958 0.68400002 -0.032380559 1.9364614e-39 263 267
-0.067159683 0.68400002 -0.032380559 2.1197764e-39 264 267
-0.066153266 0.68599999 -0.032475237 2.211972e-39 265 267
-0.065045156 0.68699998 -0.032522578 2.303446e-39 266 267
-0.06384062 0.68699998 -0.032522578 2.303446e-39 267 267
-0.062636077 0.68699998 -0.032522578 2.303446e-39 268 267
-0.06152096 0.68800002 -0.032569919 2.303446e-39 269 267
-0.060489997 0.69 -0.032664597 2.3945626e-39 270 267
-0.059280202 0.69 -0.032664597 2.4867583e-39 271 267
-0.058154557 0.69099998 -0.032711938 2.3945654e-39 272 267
-0.056942999 0.69099998 -0.032711938 2.3023698e-39 273 267
-0.055892758 0.69300002 -0.03280662 2.1187044e-39 274 267
-0.054756597 0.69400001 -0.032853961 2.1187044e-39 275 267
-0.053539783 0.69400001 -0.032853961 2.1187044e-39 276 267
-0.052473757 0.69599998 -0.032948639 2.1187044e-39 277 267
-0.051253434 0.69599998 -0.032948639 2.3020139e-39 278 267
-0.050105009 0.69700003 -0.03299598 2.3945682e-39 279 267
-0.048882935 0.69700003 -0.03299598 2.3938466e-39 280 267
-0.047729239 0.69800001 -0.033043321 2.4860422e-39 281 267
-0.046505414 0.69800001 -0.033043321 2.3945654e-39 282 267
-0.04541133 0.69999999 -0.033137999 2.4867611e-39 283 267
-0.044183996 0.69999999 -0.033137999 2.2112532e-39 284 267
-0.043018032 0.70099998 -0.03318534 2.3034488e-39 285 267
-0.041908171 0.70300001 -0.033280019 2.1190576e-39 286 267
-0.040675577 0.70300001 -0.033280019 2.2112532e-39 287 267
-0.039442986 0.70300001 -0.033280019 2.1197764e-39 288 267
-0.038264744 0.704 -0.03332736 2.211972e-39 289 267
-0.037030395 0.704 -0.03332736 2.3034488e-39 290 267
-0.035796054 0.704 -0.03332736 2.2112532e-39 291 267
-0.034659892 0.70599997 -0.033422034 2.3945654e-39 292 267
-0.033422034 0.70599997 -0.033422034 2.3023698e-39 293 267
-0.032184184 0.70599997 -0.033422034 2.3938466e-39 294 267
-0.030990168 0.70700002 -0.033469379 2.4860422e-39 295 267
-0.029750559 0.70700002 -0.033469379 2.1187016e-39 296 267
-0.02855128 0.708 -0.033516716 2.026506e-39 297 267
-0.027309919 0.708 -0.033516716 2.026506e-39 298 267
-0.026142199 0.70999998 -0.033611398 2.1187016e-39 299 267
-0.024897331 0.70999998 -0.033611398 2.3020139e-39 300 267
-0.023685781 0.71100003 -0.033658739 2.3020139e-39 301 267
-0.022439159 0.71100003 -0.033658739 2.026506e-39 302 267
-0.021281958 0.71399999 -0.033800758 2.1187016e-39 303 267
-0.020086186 0.71600002 -0.03389544 2.3020139e-39 304 267
-0.0188308 0.71600002 -0.03389544 2.3020139e-39 305 267
-0.017599959 0.71700001 -0.033942781 2.3020139e-39 306 267
-0.016342819 0.71700001 -0.033942781 2.3020139e-39 307 267
-0.015085679 0.71700001 -0.033942781 2.3945682e-39 308 267
-0.013828539 0.71700001 -0.033942781 2.3020139e-39 309 267
-0.012606465 0.71899998 -0.03403746 2.3020139e-39 310 267
-0.01134582 0.71899998 -0.03403746 2.3945682e-39 311 267
-0.010099201 0.72000003 -0.034084801 2.3945654e-39 312 267
-0.0088367993 0.72000003 -0.034084801 2.3945654e-39 313 267
-0.0075954394 0.722 -0.034179479 2.3938466e-39 314 267
-0.0063295332 0.722 -0.034179479 2.3016509e-39 315 267
-0.0050706398 0.72299999 -0.03422682 2.2083791e-39 316 267
-0.0038029798 0.72299999 -0.03422682 1.9317922e-39 317 267
-0.0025353199 0.72299999 -0.03422682 1.6570004e-39 318 267
-0.0012711667 0.72500002 -0.034321502 1.749196e-39 319 267
0 0.72500002 -0.034321502 1.4736853e-39 320 267
0.0012711667 0.72500002 -0.034321502 1.9346621e-39 321 267
0.0025493465 0.727 -0.03441618 2.1197736e-39 322 267
0.0038292799 0.72799999 -0.034463517 2.2119692e-39 323 267
0.0051197335 0.73000002 -0.034558199 2.303446e-39 324 267
0.0063996664 0.73000002 -0.034558199 2.5800315e-39 325 267
0.0076795998 0.73000002 -0.034558199 2.302367e-39 326 267
0.0089718066 0.73100001 -0.034605537 2.0261389e-39 327 267
0.010281546 0.73299998 -0.034700219 1.7509911e-39 328 267
0.011566739 0.73299998 -0.034700219 1.7509911e-39 329 267
0.012851933 0.73299998 -0.034700219 1.9339432e-39 330 267
0.014156413 0.73400003 -0.03474756 2.0261389e-39 331 267
0.015485439 0.736 -0.034842238 2.1183359e-39 332 267
0.016821479 0.73799998 -0.034936916 2.0261389e-39 333 267
0.018139986 0.73900002 -0.034984261 2.0261389e-39 334 267
0.0194357 0.73900002 -0.034984261 2.0261389e-39 335 267
0.020787518 0.741 -0.035078939 1.6587983e-39 336 267
0.02208674 0.741 -0.035078939 1.2900171e-39 337 267
0.023385961 0.741 -0.035078939 1.5655306e-39 338 267
0.024718491 0.74199998 -0.03512628 1.3811394e-39 339 267
0.026019465 0.74199998 -0.03512628 1.4733322e-39 340 267
0.027467718 0.74599999 -0.03531564 1.3811366e-39 341 267
0.028814279 0.74699998 -0.035362978 1.5666026e-39 342 267
0.030124018 0.74699998 -0.035362978 1.7509939e-39 343 267
0.031517919 0.74900001 -0.03545766 1.9364614e-39 344 267
0.032831166 0.74900001 -0.03545766 2.4896351e-39 345 267
0.034144413 0.74900001 -0.03545766 2.7665723e-39 346 267
0.03545766 0.74900001 -0.03545766 3.9651155e-39 347 267
0.036770906 0.74900001 -0.03545766 5.3430123e-39 348 267
0.03798246 0.74699998 -0.035362978 6.1727716e-39 349 267
0.039292198 0.74699998 -0.035362978 7.1851284e-39 350 267
0.040601939 0.74699998 -0.035362978 7.6457479e-39 351 267
-0.072167195 0.68599999 -0.033678025 2.1197708e-39 260 268
-0.070757523 0.68400002 -0.033579841 2.1197708e-39 261 268
-0.06955824 0.68400002 -0.033579841 2.1197736e-39 262 268
-0.068358958 0.68400002 -0.033579841 2.2119692e-39 263 268
-0.06735605 0.68599999 -0.033678025 2.3945626e-39 264 268
-0.066153266 0.68599999 -0.033678025 2.3945626e-39 265 268
-0.065045156 0.68699998 -0.033727121 2.3945626e-39 266 268
-0.06384062 0.68699998 -0.033727121 2.3945626e-39 267 268
-0.062636077 0.68699998 -0.033727121 2.1190576e-39 268 268
-0.06152096 0.68800002 -0.033776212 2.1190576e-39 269 268
-0.060489997 0.69 -0.0338744 2.1190576e-39 270 268
-0.059366114 0.69099998 -0.033923492 2.1190576e-39 271 268
-0.058154557 0.69099998 -0.033923492 2.1187016e-39 272 268
-0.057107817 0.69300002 -0.034021679 2.1187016e-39 273 268
-0.055973411 0.69400001 -0.034070771 2.1187044e-39 274 268
-0.054756597 0.69400001 -0.034070771 2.0265088e-39 275 268
-0.053694077 0.69599998 -0.034168959 2.1187044e-39 276 268
-0.052473757 0.69599998 -0.034168959 2.1187044e-39 277 268
-0.051253434 0.69599998 -0.034168959 2.3020167e-39 278 268
-0.050105009 0.69700003 -0.034218054 2.3020167e-39 279 268
-0.048953064 0.69800001 -0.034267146 2.3945682e-39 280 268
-0.047729239 0.69800001 -0.034267146 2.3945682e-39 281 268
-0.046505414 0.69800001 -0.034267146 2.3938466e-39 282 268
-0.04541133 0.69999999 -0.034365334 2.4860422e-39 283 268
-0.044247117 0.70099998 -0.034414422 2.1190576e-39 284 268
-0.043018032 0.70099998 -0.034414422 2.2112532e-39 285 268
-0.041908171 0.70300001 -0.034512613 2.1197764e-39 286 268
-0.040675577 0.70300001 -0.034512613 1.9353866e-39 287 268
-0.039499093 0.704 -0.034561705 2.1197764e-39 288 268
-0.038264744 0.704 -0.034561705 2.1197764e-39 289 268
-0.037030395 0.704 -0.034561705 2.2112532e-39 290 268
-0.035897743 0.70599997 -0.034659892 2.2112532e-39 291 268
-0.034659892 0.70599997 -0.034659892 2.3938466e-39 292 268
-0.033469379 0.70700002 -0.034708988 2.3938466e-39 293 268
-0.032229774 0.70700002 -0.034708988 2.3938466e-39 294 268
-0.030990168 0.70700002 -0.034708988 2.4860422e-39 295 268
-0.029750559 0.70700002 -0.034708988 2.3938494e-39 296 268
-0.02855128 0.708 -0.034758076 2.3938494e-39 297 268
-0.027309919 0.708 -0.034758076 2.3020139e-39 298 268
-0.026142199 0.70999998 -0.034856264 2.3020139e-39 299 268
-0.024932399 0.71100003 -0.034905359 2.3020139e-39 300 268
-0.023685781 0.71100003 -0.034905359 2.1179828e-39 301 268
-0.022439159 0.71100003 -0.034905359 2.026506e-39 302 268
-0.021281958 0.71399999 -0.035052639 2.026506e-39 303 268
-0.020086186 0.71600002 -0.035150826 2.0265032e-39 304 268
-0.0188308 0.71600002 -0.035150826 1.9343062e-39 305 268
-0.017599959 0.71700001 -0.035199918 2.3023698e-39 306 268
-0.016342819 0.71700001 -0.035199918 2.3023698e-39 307 268
-0.015085679 0.71700001 -0.035199918 2.3938466e-39 308 268
-0.013867113 0.71899998 -0.035298105 2.3938466e-39 309 268
-0.012624 0.72000003 -0.035347197 2.6704265e-39 310 268
-0.011361601 0.72000003 -0.035347197 2.6704265e-39 311 268
-0.010099201 0.72000003 -0.035347197 2.9470035e-39 312 268
-0.0088613462 0.722 -0.035445385 3.2232317e-39 313 268
-0.0075954394 0.722 -0.035445385 3.4973019e-39 314 268
-0.0063295332 0.722 -0.035445385 3.6816917e-39 315 268
-0.0050706398 0.72299999 -0.035494477 3.6824176e-39 316 268
-0.0038029798 0.72299999 -0.035494477 4.0508414e-39 317 268
-0.0025353199 0.72299999 -0.035494477 4.7855253e-39 318 268
-0.0012711667 0.72500002 -0.035592668 5.2465035e-39 319 268
0 0.72500002 -0.035592668 5.5220086e-39 320 268
0.0012746733 0.727 -0.035690852 6.167378e-39 321 268
0.0025528532 0.72799999 -0.035739943 6.9045773e-39 322 268
0.0038397999 0.73000002 -0.035838135 6.8123803e-39 323 268
0.0051197335 0.73000002 -0.035838135 6.9002571e-39 324 268
0.0063996664 0.73000002 -0.035838135 5.6095183e-39 325 268
0.0076795998 0.73000002 -0.035838135 2.9455686e-39 326 268
0.0089595336 0.73000002 -0.035838135 2.6693419e-39 327 268
0.016889861 0.741 -0.036378156 2.4863953e-39 333 268
0.018189078 0.741 -0.036378156 2.7626221e-39 334 268
0.019488299 0.741 -0.036378156 3.0395691e-39 335 268
0.027504537 0.74699998 -0.036672719 5.1546708e-39 341 268
0.028814279 0.74699998 -0.036672719 5.9847874e-39 342 268
0.031517919 0.74900001 -0.036770906 7.0904091e-39 344 268
0.032831166 0.74900001 -0.036770906 7.2748017e-39 345 268
0.034144413 0.74900001 -0.036770906 8.19387e-39 346 268
0.03545766 0.74900001 -0.036770906 8.3782612e-39 347 268
0.036770906 0.74900001 -0.036770906 8.471896e-39 348 268
0.038084153 0.74900001 -0.036770906 8.471896e-39 349 268
-0.070964411 0.68599999 -0.034880809 2.2112532e-39 261 269
-0.069761619 0.68599999 -0.034880809 2.3945654e-39 262 269
-0.068558842 0.68599999 -0.034880809 2.3945654e-39 263 269
-0.06735605 0.68599999 -0.034880809 2.3945654e-39 264 269
-0.066249698 0.68699998 -0.034931656 2.3945654e-39 265 269
-0.065045156 0.68699998 -0.034931656 2.3945626e-39 266 269
-0.063933544 0.68800002 -0.03498251 2.3945626e-39 267 269
-0.06272725 0.68800002 -0.03498251 2.2116063e-39 268 269
-0.061699796 0.69 -0.035084199 2.2116063e-39 269 269
-0.060489997 0.69 -0.035084199 2.3023698e-39 270 269
-0.059366114 0.69099998 -0.035135046 2.3023698e-39 271 269
-0.058322877 0.69300002 -0.035236739 2.1187016e-39 272 269
-0.057107817 0.69300002 -0.035236739 2.026506e-39 273 269
-0.055973411 0.69400001 -0.035287585 2.026506e-39 274 269
-0.054756597 0.69400001 -0.035287585 2.026506e-39 275 269
-0.053694077 0.69599998 -0.035389278 2.026506e-39 276 269
-0.052549154 0.69700003 -0.035440128 2.026506e-39 277 269
-0.051327083 0.69700003 -0.035440128 2.3020139e-39 278 269
-0.050105009 0.69700003 -0.035440128 2.3020139e-39 279 269
-0.048953064 0.69800001 -0.035490975 2.3938494e-39 280 269
-0.047729239 0.69800001 -0.035490975 2.3938494e-39 281 269
-0.046505414 0.69800001 -0.035490975 2.3938466e-39 282 269
-0.04541133 0.69999999 -0.035592664 2.4860422e-39 283 269
