# .PCD v.7 - Point Cloud Data file format
FIELDS x y z rgb imX imY
SIZE 4 4 4 4 4 4
TYPE F F F F F F
COUNT 1 1 1 1 1 1
WIDTH 817
HEIGHT 1
VIEWPOINT 0 0 0 1 0 0 0
POINTS 817
DATA ascii
-0.00130448 0.74400002 -0.01043584 1.6271418e-38 319 248
0 0.74199998 -0.010407786 1.7650021e-38 320 248
0.0012957134 0.73900002 -0.010365707 1.8203195e-38 321 248
0.0025914267 0.73900002 -0.010365707 1.7835151e-38 322 248
0.00388714 0.73900002 -0.010365707 1.7558923e-38 323 248
0.0051828534 0.73900002 -0.010365707 1.7287404e-38 324 248
0.0064785667 0.73900002 -0.010365707 1.903912e-38 325 248
-0.0064960998 0.741 -0.01169298 1.6300969e-38 315 249
-0.0051968796 0.741 -0.01169298 1.7853843e-38 316 249
-0.0038976599 0.741 -0.01169298 1.5733343e-38 317 249
-0.0025984398 0.741 -0.01169298 1.7190832e-38 318 249
-0.0012992199 0.741 -0.01169298 1.7098635e-38 319 249
0 0.74199998 -0.01170876 1.8205356e-38 320 249
0.0012957134 0.73900002 -0.01166142 1.8850725e-38 321 249
0.0025914267 0.73900002 -0.01166142 1.8298277e-38 322 249
0.00388714 0.73900002 -0.01166142 1.7745103e-38 323 249
0.0051828534 0.73900002 -0.01166142 1.7282327e-38 324 249
0.0064697997 0.73799998 -0.011645639 1.6821708e-38 325 249
0.0077427197 0.736 -0.01161408 1.5915641e-38 326 249
-0.0078058392 0.74199998 -0.013009733 1.7024109e-38 314 250
-0.0065048663 0.74199998 -0.013009733 1.3797262e-38 315 250
-0.0051968796 0.741 -0.0129922 1.7190838e-38 316 250
-0.0038976599 0.741 -0.0129922 1.7836207e-38 317 250
-0.0025984398 0.741 -0.0129922 1.8112091e-38 318 250
-0.0012992199 0.741 -0.0129922 1.8388318e-38 319 250
0 0.741 -0.0129922 1.8297205e-38 320 250
0.0012957134 0.73900002 -0.012957133 1.8758182e-38 321 250
0.0025914267 0.73900002 -0.012957133 1.8208233e-38 322 250
0.00388714 0.73900002 -0.012957133 1.7839452e-38 323 250
0.0051828534 0.73900002 -0.012957133 1.7835498e-38 324 250
0.0064697997 0.73799998 -0.012939599 1.672951e-38 325 250
0.0077427197 0.736 -0.012904533 1.626892e-38 326 250
0.0090331733 0.736 -0.012904533 1.7006485e-38 327 250
-0.009106813 0.74199998 -0.014310705 1.3715881e-38 313 251
-0.0078058392 0.74199998 -0.014310705 1.7564309e-38 314 251
-0.0065048663 0.74199998 -0.014310705 1.6826743e-38 315 251
-0.0051968796 0.741 -0.01429142 1.7835501e-38 316 251
-0.0038976599 0.741 -0.01429142 1.7835501e-38 317 251
-0.0025984398 0.741 -0.01429142 1.8109221e-38 318 251
-0.0012992199 0.741 -0.01429142 1.8109221e-38 319 251
0 0.741 -0.01429142 1.7558567e-38 320 251
0.0012957134 0.73900002 -0.014252847 1.8019545e-38 321 251
0.0025914267 0.73900002 -0.014252847 1.7838018e-38 322 251
0.00388714 0.73900002 -0.014252847 1.7377041e-38 323 251
0.0051828534 0.73900002 -0.014252847 1.7557475e-38 324 251
0.0064697997 0.73799998 -0.014233559 1.7280528e-38 325 251
0.0077427197 0.736 -0.014194986 1.6451847e-38 326 251
0.0090331733 0.736 -0.014194986 1.53455e-38 327 251
0.010393759 0.741 -0.01429142 1.555477e-38 328 251
-0.0090945391 0.741 -0.01559064 1.5726527e-38 313 252
-0.0077953199 0.741 -0.01559064 1.8207514e-38 314 252
-0.0064960998 0.741 -0.01559064 1.7930567e-38 315 252
-0.0051968796 0.741 -0.01559064 1.8019898e-38 316 252
-0.0038976599 0.741 -0.01559064 1.7742952e-38 317 252
-0.0025914267 0.73900002 -0.01554856 1.8017024e-38 318 252
-0.0012957134 0.73900002 -0.01554856 1.8017024e-38 319 252
0 0.73900002 -0.01554856 1.7466021e-38 320 252
0.0012957134 0.73900002 -0.01554856 1.7742249e-38 321 252
0.0025914267 0.73900002 -0.01554856 1.7742249e-38 322 252
0.00388714 0.73900002 -0.01554856 1.7466021e-38 323 252
0.0051828534 0.73900002 -0.01554856 1.7464217e-38 324 252
0.0064960998 0.741 -0.01559064 1.7095794e-38 325 252
0.0077953199 0.741 -0.01559064 1.645257e-38 326 252
0.0090945391 0.741 -0.01559064 1.5069275e-38 327 252
0.010393759 0.741 -0.01559064 1.4802447e-38 328 252
0.01169298 0.741 -0.01559064 1.9780652e-38 329 252
-0.0090945391 0.741 -0.016889861 1.811965e-38 313 253
-0.0077953199 0.741 -0.016889861 1.8024567e-38 314 253
-0.0064960998 0.741 -0.016889861 1.7655425e-38 315 253
-0.0051968796 0.741 -0.016889861 1.7927334e-38 316 253
-0.00388714 0.73900002 -0.016844273 1.7742583e-38 317 253
-0.0025914267 0.73900002 -0.016844273 1.755927e-38 318 253
-0.0012957134 0.73900002 -0.016844273 1.7374879e-38 319 253
0 0.73900002 -0.016844273 1.7649315e-38 320 253
0.0012939599 0.73799998 -0.016821479 1.7741869e-38 321 253
0.0025879198 0.73799998 -0.016821479 1.7742588e-38 322 253
0.0038818798 0.73799998 -0.016821479 1.7650034e-38 323 253
0.0051758396 0.73799998 -0.016821479 1.7279456e-38 324 253
0.0064785667 0.73900002 -0.016844273 1.7002869e-38 325 253
0.0077742799 0.73900002 -0.016844273 1.6634811e-38 326 253
0.0090945391 0.741 -0.016889861 1.6358226e-38 327 253
0.010393759 0.741 -0.016889861 1.497785e-38 328 253
0.01170876 0.74199998 -0.016912652 1.6268589e-38 329 253
0.013009733 0.74199998 -0.016912652 1.6491512e-38 330 253
-0.0090699932 0.73900002 -0.018139986 1.7840539e-38 313 254
-0.0077742799 0.73900002 -0.018139986 1.802132e-38 314 254
-0.0064785667 0.73900002 -0.018139986 1.7468147e-38 315 254
-0.0051828534 0.73900002 -0.018139986 1.7833684e-38 316 254
-0.00388714 0.73900002 -0.018139986 1.7649293e-38 317 254
-0.0025879198 0.73799998 -0.018115439 1.7742567e-38 318 254
-0.0012939599 0.73799998 -0.018115439 1.7742567e-38 319 254
0 0.73799998 -0.018115439 1.7650387e-38 320 254
0.0012939599 0.73799998 -0.018115439 1.7558191e-38 321 254
0.0025879198 0.73799998 -0.018115439 1.7650034e-38 322 254
0.0038818798 0.73799998 -0.018115439 1.7189416e-38 323 254
0.0051758396 0.73799998 -0.018115439 1.6635889e-38 324 254
0.0064785667 0.73900002 -0.018139986 1.6543693e-38 325 254
0.0077742799 0.73900002 -0.018139986 1.626748e-38 326 254
0.0090945391 0.741 -0.018189078 1.6451513e-38 327 254
0.010393759 0.741 -0.018189078 1.5529929e-38 328 254
0.01169298 0.741 -0.018189078 1.3686017e-38 329 254
0.013009733 0.74199998 -0.018213626 1.5645546e-38 330 254
-0.010365707 0.73900002 -0.0194357 1.7468892e-38 312 255
-0.0090699932 0.73900002 -0.0194357 1.6270349e-38 313 255
-0.0077742799 0.73900002 -0.0194357 1.6815235e-38 314 255
-0.0064785667 0.73900002 -0.0194357 1.6354616e-38 315 255
-0.0051828534 0.73900002 -0.0194357 1.7088218e-38 316 255
-0.0038818798 0.73799998 -0.019409399 1.7641389e-38 317 255
-0.0025879198 0.73799998 -0.019409399 1.7740422e-38 318 255
-0.0012939599 0.73799998 -0.019409399 1.820104e-38 319 255
0 0.736 -0.019356798 1.7743304e-38 320 255
0.0012904532 0.736 -0.019356798 1.7467077e-38 321 255
0.0025809065 0.736 -0.019356798 1.7374879e-38 322 255
0.0038713599 0.736 -0.019356798 1.6913901e-38 323 255
0.0051758396 0.73799998 -0.019409399 1.6727361e-38 324 255
0.0064697997 0.73799998 -0.019409399 1.6634806e-38 325 255
0.0077742799 0.73900002 -0.0194357 1.5991604e-38 326 255
0.0090699932 0.73900002 -0.0194357 1.60838e-38 327 255
0.010365707 0.73900002 -0.0194357 1.5715746e-38 328 255
0.01166142 0.73900002 -0.0194357 1.4609398e-38 329 255
0.0129922 0.741 -0.019488299 1.4996574e-38 330 255
0.01429142 0.741 -0.019488299 1.9883303e-38 331 255
-0.010365707 0.73900002 -0.020731414 1.7751606e-38 312 256
-0.0090699932 0.73900002 -0.020731414 1.8028194e-38 313 256
-0.0077742799 0.73900002 -0.020731414 1.8304783e-38 314 256
-0.0064785667 0.73900002 -0.020731414 1.9226738e-38 315 256
-0.0051828534 0.73900002 -0.020731414 2.0697187e-38 316 256
-0.0038818798 0.73799998 -0.020703359 2.0697187e-38 317 256
-0.0025809065 0.736 -0.020647252 2.0042811e-38 318 256
-0.0012904532 0.736 -0.020647252 1.8290734e-38 319 256
0 0.736 -0.020647252 1.8109926e-38 320 256
0.0012904532 0.736 -0.020647252 1.7925535e-38 321 256
0.0025809065 0.736 -0.020647252 1.7374879e-38 322 256
0.0038713599 0.736 -0.020647252 1.6821705e-38 323 256
0.005161813 0.736 -0.020647252 1.6543693e-38 324 256
0.0064522666 0.736 -0.020647252 1.6266746e-38 325 256
0.0077637597 0.73799998 -0.020703359 1.5807576e-38 326 256
0.0090577193 0.73799998 -0.020703359 1.5991607e-38 327 256
0.010351679 0.73799998 -0.020703359 1.5532797e-38 328 256
0.01166142 0.73900002 -0.020731414 1.4795231e-38 329 256
0.0129922 0.741 -0.020787518 1.4529119e-38 330 256
0.014252847 0.73900002 -0.020731414 1.9231096e-38 331 256
0.01554856 0.73900002 -0.020731414 1.8249712e-38 332 256
-0.010323626 0.736 -0.021937706 1.9608511e-38 312 257
-0.0090331733 0.736 -0.021937706 2.2650608e-38 313 257
-0.0077427197 0.736 -0.021937706 2.3488285e-38 314 257
-0.0064522666 0.736 -0.021937706 2.3491166e-38 315 257
-0.005161813 0.736 -0.021937706 2.3493282e-38 316 257
-0.0038713599 0.736 -0.021937706 2.348896e-38 317 257
-0.0025809065 0.736 -0.021937706 2.115996e-38 318 257
-0.0012904532 0.736 -0.021937706 1.6826407e-38 319 257
0 0.73400003 -0.021878093 1.7926277e-38 320 257
0.0012869467 0.73400003 -0.021878093 1.7741885e-38 321 257
0.0025738934 0.73400003 -0.021878093 1.6914268e-38 322 257
0.0038608401 0.73400003 -0.021878093 1.6361453e-38 323 257
0.0051477868 0.73400003 -0.021878093 1.608379e-38 324 257
0.0064522666 0.736 -0.021937706 1.5991236e-38 325 257
0.0077637597 0.73799998 -0.021997318 1.5532428e-38 326 257
0.0090577193 0.73799998 -0.021997318 1.5532428e-38 327 257
0.010351679 0.73799998 -0.021997318 1.5440954e-38 328 257
0.01166142 0.73900002 -0.022027127 1.488778e-38 329 257
0.0129922 0.741 -0.02208674 1.3972699e-38 330 257
0.014252847 0.73900002 -0.022027127 1.8121503e-38 331 257
0.01554856 0.73900002 -0.022027127 1.7971684e-38 332 257
-0.011582521 0.73400003 -0.023165042 2.1064904e-38 311 258
-0.010295574 0.73400003 -0.023165042 2.1631427e-38 312 258
-0.0090331733 0.736 -0.023228159 2.3484343e-38 313 258
-0.0077427197 0.736 -0.023228159 2.3491529e-38 314 258
-0.006434733 0.73400003 -0.023165042 2.3488648e-38 315 258
-0.0051477868 0.73400003 -0.023165042 2.3478547e-38 316 258
-0.0038608401 0.73400003 -0.023165042 2.1539558e-38 317 258
-0.0025738934 0.73400003 -0.023165042 1.8943322e-38 318 258
-0.0012869467 0.73400003 -0.023165042 1.7283441e-38 319 258
0 0.73400003 -0.023165042 1.7467093e-38 320 258
0.0012869467 0.73400003 -0.023165042 1.6821723e-38 321 258
0.0025738934 0.73400003 -0.023165042 1.6542247e-38 322 258
0.0038608401 0.73400003 -0.023165042 1.6449693e-38 323 258
0.0051477868 0.73400003 -0.023165042 1.5624254e-38 324 258
0.006434733 0.73400003 -0.023165042 1.5624254e-38 325 258
0.0077427197 0.736 -0.023228159 1.5165087e-38 326 258
0.0090331733 0.736 -0.023228159 1.5165087e-38 327 258
0.010351679 0.73799998 -0.023291279 1.516509e-38 328 258
0.011645639 0.73799998 -0.023291279 1.4980698e-38 329 258
0.0129922 0.741 -0.023385961 1.3602469e-38 330 258
0.01429142 0.741 -0.023385961 1.6553089e-38 331 258
0.01559064 0.741 -0.023385961 1.7324865e-38 332 258
-0.01153518 0.73100001 -0.024352046 1.894404e-38 311 259
-0.010253493 0.73100001 -0.024352046 1.9684513e-38 312 259
-0.0089963535 0.73299998 -0.024418673 2.1620621e-38 313 259
-0.0077111595 0.73299998 -0.024418673 2.024884e-38 314 259
-0.006408433 0.73100001 -0.024352046 1.9511275e-38 315 259
-0.0051267464 0.73100001 -0.024352046 2.0142919e-38 316 259
-0.00384506 0.73100001 -0.024352046 1.7008267e-38 317 259
-0.0025703865 0.73299998 -0.024418673 1.7555673e-38 318 259
-0.0012851933 0.73299998 -0.024418673 1.8477631e-38 319 259
0 0.73299998 -0.024418673 1.7098665e-38 320 259
0.0012851933 0.73299998 -0.024418673 1.6268904e-38 321 259
0.0025703865 0.73299998 -0.024418673 1.6081989e-38 322 259
0.0038608401 0.73400003 -0.024451986 1.626638e-38 323 259
0.0051477868 0.73400003 -0.024451986 1.5439867e-38 324 259
0.006434733 0.73400003 -0.024451986 1.5623898e-38 325 259
0.0077427197 0.736 -0.024518613 1.5073974e-38 326 259
0.0090331733 0.736 -0.024518613 1.5073974e-38 327 259
0.010323626 0.736 -0.024518613 1.489103e-38 328 259
0.011645639 0.73799998 -0.024585238 1.4798475e-38 329 259
0.0129922 0.741 -0.024685178 1.3601024e-38 330 259
0.01429142 0.741 -0.024685178 1.4983958e-38 331 259
0.01559064 0.741 -0.024685178 1.6860276e-38 332 259
-0.016661927 0.73100001 -0.025633732 1.5080135e-38 307 260
-0.01538024 0.73100001 -0.025633732 1.7563256e-38 308 260
-0.014079267 0.73000002 -0.025598666 1.7655451e-38 309 260
-0.012799333 0.73000002 -0.025598666 1.8206823e-38 310 260
-0.011519399 0.73000002 -0.025598666 1.7377062e-38 311 260
-0.010239467 0.73000002 -0.025598666 1.7183337e-38 312 260
-0.0089595336 0.73000002 -0.025598666 1.5984794e-38 313 260
-0.0076795998 0.73000002 -0.025598666 1.6441802e-38 314 260
-0.0063996664 0.73000002 -0.025598666 1.7271921e-38 315 260
-0.0051197335 0.73000002 -0.025598666 1.7186542e-38 316 260
-0.0038397999 0.73000002 -0.025598666 1.8385085e-38 317 260
-0.0025598668 0.73000002 -0.025598666 1.755927e-38 318 260
-0.0012816866 0.73100001 -0.025633732 1.6913901e-38 319 260
0 0.73100001 -0.025633732 1.6357853e-38 320 260
0.0012816866 0.73100001 -0.025633732 1.6081266e-38 321 260
0.0025633732 0.73100001 -0.025633732 1.5806124e-38 322 260
0.00384506 0.73100001 -0.025633732 1.5898321e-38 323 260
0.005140773 0.73299998 -0.025703866 1.5257273e-38 324 260
0.0064259665 0.73299998 -0.025703866 1.5441304e-38 325 260
0.0077111595 0.73299998 -0.025703866 1.4799182e-38 326 260
0.0090086265 0.73400003 -0.025738932 1.4799182e-38 327 260
0.010295574 0.73400003 -0.025738932 1.4706999e-38 328 260
0.01161408 0.736 -0.025809066 1.4891749e-38 329 260
0.012957133 0.73900002 -0.025914267 1.4155996e-38 330 260
0.01429142 0.741 -0.025984399 1.4432582e-38 331 260
0.01559064 0.741 -0.025984399 1.6304937e-38 332 260
-0.016661927 0.73100001 -0.026915418 1.6551655e-38 307 261
-0.01538024 0.73100001 -0.026915418 1.7840189e-38 308 261
-0.014079267 0.73000002 -0.026878599 1.802458e-38 309 261
-0.012799333 0.73000002 -0.026878599 1.8114624e-38 310 261
-0.011519399 0.73000002 -0.026878599 1.7838398e-38 311 261
-0.010239467 0.73000002 -0.026878599 1.77444e-38 312 261
-0.0089595336 0.73000002 -0.026878599 1.77444e-38 313 261
-0.0076585598 0.72799999 -0.026804959 1.7472126e-38 314 261
-0.0063821329 0.72799999 -0.026804959 1.7933465e-38 315 261
-0.0050986931 0.727 -0.026768139 1.7656173e-38 316 261
-0.0038240198 0.727 -0.026768139 1.7102999e-38 317 261
-0.0025528532 0.72799999 -0.026804959 1.6914992e-38 318 261
-0.0012764266 0.72799999 -0.026804959 1.6269623e-38 319 261
0 0.73000002 -0.026878599 1.5899393e-38 320 261
0.0012799334 0.73000002 -0.026878599 1.5991589e-38 321 261
0.0025598668 0.73000002 -0.026878599 1.5624251e-38 322 261
0.0038397999 0.73000002 -0.026878599 1.5624251e-38 323 261
0.0051267464 0.73100001 -0.026915418 1.5165441e-38 324 261
0.006408433 0.73100001 -0.026915418 1.5350191e-38 325 261
0.00769012 0.73100001 -0.026915418 1.4798829e-38 326 261
0.0089963535 0.73299998 -0.026989058 1.4706633e-38 327 261
0.010281546 0.73299998 -0.026989058 1.4615532e-38 328 261
0.011582521 0.73400003 -0.02702588 1.489176e-38 329 261
0.012939599 0.73799998 -0.027173158 1.3973399e-38 330 261
0.014252847 0.73900002 -0.027209979 1.4157791e-38 331 261
0.01554856 0.73900002 -0.027209979 1.6948495e-38 332 261
-0.017943613 0.73100001 -0.028197108 1.6825703e-38 306 262
-0.016661927 0.73100001 -0.028197108 1.7840214e-38 307 262
-0.0153592 0.73000002 -0.028158534 1.7933467e-38 308 262
-0.014079267 0.73000002 -0.028158534 1.7933467e-38 309 262
-0.012799333 0.73000002 -0.028158534 1.7931312e-38 310 262
-0.011519399 0.73000002 -0.028158534 1.7931312e-38 311 262
-0.010239467 0.73000002 -0.028158534 1.7841988e-38 312 262
-0.0089595336 0.73000002 -0.028158534 1.839516e-38 313 262
-0.0076480396 0.727 -0.028042812 1.7939218e-38 314 262
-0.0063733663 0.727 -0.028042812 1.7847023e-38 315 262
-0.0050846669 0.72500002 -0.027965667 1.7471773e-38 316 262
-0.0038135003 0.72500002 -0.027965667 1.6365784e-38 317 262
-0.0025493465 0.727 -0.028042812 1.6085955e-38 318 262
-0.0012764266 0.72799999 -0.028081384 1.5624977e-38 319 262
0 0.72799999 -0.028081384 1.5716446e-38 320 262
0.0012764266 0.72799999 -0.028081384 1.5624251e-38 321 262
0.0025528532 0.72799999 -0.028081384 1.5439867e-38 322 262
0.0038397999 0.73000002 -0.028158534 1.5439867e-38 323 262
0.0051197335 0.73000002 -0.028158534 1.4981775e-38 324 262
0.0063996664 0.73000002 -0.028158534 1.5073971e-38 325 262
0.00769012 0.73100001 -0.028197108 1.4523324e-38 326 262
0.0089718066 0.73100001 -0.028197108 1.4523324e-38 327 262
0.010253493 0.73100001 -0.028197108 1.4523689e-38 328 262
0.011566739 0.73299998 -0.028274251 1.4708081e-38 329 262
0.012939599 0.73799998 -0.028467119 1.3605676e-38 330 262
0.014252847 0.73900002 -0.028505694 1.415885e-38 331 262
0.01554856 0.73900002 -0.028505694 1.7594933e-38 332 262
-0.017919067 0.73000002 -0.029438468 1.7288814e-38 306 263
-0.016639132 0.73000002 -0.029438468 1.7934183e-38 307 263
-0.0153592 0.73000002 -0.029438468 1.7934902e-38 308 263
-0.014040692 0.72799999 -0.029357811 1.7658676e-38 309 263
-0.012764266 0.72799999 -0.029357811 1.7839838e-38 310 263
-0.01148784 0.72799999 -0.029357811 1.7839838e-38 311 263
-0.010211413 0.72799999 -0.029357811 1.7659039e-38 312 263
-0.0088981669 0.72500002 -0.029236834 1.8396604e-38 313 263
-0.0076059597 0.72299999 -0.029156178 1.7755909e-38 314 263
-0.0063382997 0.72299999 -0.029156178 1.7110539e-38 315 263
-0.0050706398 0.72299999 -0.029156178 1.6918955e-38 316 263
-0.0038029798 0.72299999 -0.029156178 1.5812608e-38 317 263
-0.0025493465 0.727 -0.029317487 1.5810447e-38 318 263
-0.0012764266 0.72799999 -0.029357811 1.5441304e-38 319 263
0 0.72799999 -0.029357811 1.5715377e-38 320 263
0.0012764266 0.72799999 -0.029357811 1.5530985e-38 321 263
0.0025528532 0.72799999 -0.029357811 1.5164724e-38 322 263
0.0038397999 0.73000002 -0.029438468 1.525692e-38 323 263
0.0051197335 0.73000002 -0.029438468 1.4705914e-38 324 263
0.0063996664 0.73000002 -0.029438468 1.4705914e-38 325 263
0.00769012 0.73100001 -0.029478792 1.4338576e-38 326 263
0.0089718066 0.73100001 -0.029478792 1.4430772e-38 327 263
0.010253493 0.73100001 -0.029478792 1.4065585e-38 328 263
0.011566739 0.73299998 -0.029559445 1.4065585e-38 329 263
0.012939599 0.73799998 -0.029761078 1.3791863e-38 330 263
0.014252847 0.73900002 -0.029801406 1.5727971e-38 331 263
0.01554856 0.73900002 -0.029801406 1.8335019e-38 332 263
-0.017919067 0.73000002 -0.030718399 1.7749785e-38 306 264
-0.016639132 0.73000002 -0.030718399 1.7934537e-38 307 264
-0.0153592 0.73000002 -0.030718399 1.7841632e-38 308 264
-0.014040692 0.72799999 -0.030634239 1.7565404e-38 309 264
-0.012764266 0.72799999 -0.030634239 1.7563253e-38 310 264
-0.01148784 0.72799999 -0.030634239 1.7655448e-38 311 264
-0.010211413 0.72799999 -0.030634239 1.7476445e-38 312 264
-0.0088736191 0.72299999 -0.030423839 1.8029619e-38 313 264
-0.0076059597 0.72299999 -0.030423839 1.7753035e-38 314 264
-0.0063382997 0.72299999 -0.030423839 1.6831079e-38 315 264
-0.0050706398 0.72299999 -0.030423839 1.6550176e-38 316 264
-0.0038029798 0.72299999 -0.030423839 1.5720415e-38 317 264
-0.0025493465 0.727 -0.030592158 1.5993036e-38 318 264
-0.0012764266 0.72799999 -0.030634239 1.5716449e-38 319 264
0 0.72799999 -0.030634239 1.5439869e-38 320 264
0.0012764266 0.72799999 -0.030634239 1.5439869e-38 321 264
0.0025528532 0.72799999 -0.030634239 1.516509e-38 322 264
0.0038397999 0.73000002 -0.030718399 1.516509e-38 323 264
0.0051197335 0.73000002 -0.030718399 1.4614087e-38 324 264
0.0063996664 0.73000002 -0.030718399 1.4614087e-38 325 264
0.00769012 0.73100001 -0.03076048 1.4246746e-38 326 264
0.0089718066 0.73100001 -0.03076048 1.4431138e-38 327 264
0.010253493 0.73100001 -0.03076048 1.4066652e-38 328 264
0.01153518 0.73100001 -0.03076048 1.3329087e-38 329 264
0.012939599 0.73799998 -0.031055039 1.434828e-38 330 264
0.014233559 0.73799998 -0.031055039 1.8497084e-38 331 264
-0.019199001 0.73000002 -0.031998333 1.646376e-38 305 265
-0.017919067 0.73000002 -0.031998333 1.8027095e-38 306 265
-0.016593546 0.72799999 -0.031910665 1.79349e-38 307 265
-0.01531712 0.72799999 -0.031910665 1.7841984e-38 308 265
-0.014021406 0.727 -0.03186683 1.7381366e-38 309 265
-0.012711667 0.72500002 -0.031779166 1.7472129e-38 310 265
-0.0114405 0.72500002 -0.031779166 1.7564325e-38 311 265
-0.01014128 0.72299999 -0.031691495 1.7293133e-38 312 265
-0.0088736191 0.72299999 -0.031691495 1.7753752e-38 313 265
-0.0076059597 0.72299999 -0.031691495 1.7200937e-38 314 265
-0.0063382997 0.72299999 -0.031691495 1.5910198e-38 315 265
-0.0050706398 0.72299999 -0.031691495 1.6640573e-38 316 265
-0.0038029798 0.72299999 -0.031691495 1.5903008e-38 317 265
-0.0025353199 0.72299999 -0.031691495 1.5809008e-38 318 265
-0.0012746733 0.727 -0.03186683 1.5440585e-38 319 265
0 0.727 -0.03186683 1.5439869e-38 320 265
0.0012746733 0.727 -0.03186683 1.5439869e-38 321 265
0.0025528532 0.72799999 -0.031910665 1.4981422e-38 322 265
0.0038292799 0.72799999 -0.031910665 1.4889226e-38 323 265
0.0051197335 0.73000002 -0.031998333 1.4521891e-38 324 265
0.0063996664 0.73000002 -0.031998333 1.4429336e-38 325 265
0.0076795998 0.73000002 -0.031998333 1.3972318e-38 326 265
0.0089595336 0.73000002 -0.031998333 1.4248544e-38 327 265
0.010239467 0.73000002 -0.031998333 1.4065936e-38 328 265
0.01153518 0.73100001 -0.032042164 1.314362e-38 329 265
0.012816866 0.73100001 -0.032042164 1.5463275e-38 330 265
0.014098554 0.73100001 -0.032042164 2.0165252e-38 331 265
-0.017869972 0.72799999 -0.033187091 1.8028533e-38 306 266
-0.016593546 0.72799999 -0.033187091 1.7751587e-38 307 266
-0.015296079 0.727 -0.033141505 1.7749066e-38 308 266
-0.01394426 0.72299999 -0.032959159 1.7472479e-38 309 266
-0.012676599 0.72299999 -0.032959159 1.7288817e-38 310 266
-0.01140894 0.72299999 -0.032959159 1.7565404e-38 311 266
-0.01014128 0.72299999 -0.032959159 1.738425e-38 312 266
-0.0088736191 0.72299999 -0.032959159 1.7753032e-38 313 266
-0.0076059597 0.72299999 -0.032959159 1.7290259e-38 314 266
-0.0063382997 0.72299999 -0.032959159 1.6368303e-38 315 266
-0.0050636264 0.722 -0.032913569 1.6179598e-38 316 266
-0.0037977197 0.722 -0.032913569 1.5534229e-38 317 266
-0.0025353199 0.72299999 -0.032959159 1.5808292e-38 318 266
-0.0012676599 0.72299999 -0.032959159 1.5439869e-38 319 266
0 0.72500002 -0.033050332 1.534839e-38 320 266
0.0012746733 0.727 -0.033141505 1.5440585e-38 321 266
0.0025493465 0.727 -0.033141505 1.4705914e-38 322 266
0.0038292799 0.72799999 -0.033187091 1.4613718e-38 323 266
0.0051197335 0.73000002 -0.033278264 1.4246023e-38 324 266
0.0063996664 0.73000002 -0.033278264 1.4430775e-38 325 266
0.0076795998 0.73000002 -0.033278264 1.3790087e-38 326 266
0.0089595336 0.73000002 -0.033278264 1.4158511e-38 327 266
0.010239467 0.73000002 -0.033278264 1.3608194e-38 328 266
0.01153518 0.73100001 -0.033323854 1.3792586e-38 329 266
0.012816866 0.73100001 -0.033323854 1.6942726e-38 330 266
-0.0191464 0.72799999 -0.034463517 1.8487356e-38 305 267
-0.017869972 0.72799999 -0.034463517 1.7845937e-38 306 267
-0.01647958 0.72299999 -0.03422682 1.73846e-38 307 267
-0.015211919 0.72299999 -0.03422682 1.7656874e-38 308 267
-0.01394426 0.72299999 -0.03422682 1.71037e-38 309 267
-0.012676599 0.72299999 -0.03422682 1.7195545e-38 310 267
-0.01140894 0.72299999 -0.03422682 1.7471773e-38 311 267
-0.01014128 0.72299999 -0.03422682 1.729278e-38 312 267
-0.0088736191 0.72299999 -0.03422682 1.729278e-38 313 267
-0.0076059597 0.72299999 -0.03422682 1.6830357e-38 314 267
-0.0063382997 0.72299999 -0.03422682 1.6000595e-38 315 267
-0.0050636264 0.722 -0.034179479 1.6178506e-38 316 267
-0.0037977197 0.722 -0.034179479 1.5625333e-38 317 267
-0.0025353199 0.72299999 -0.03422682 1.5716093e-38 318 267
-0.0012676599 0.72299999 -0.03422682 1.5439867e-38 319 267
0 0.72299999 -0.03422682 1.525692e-38 320 267
0.0012711667 0.72500002 -0.034321502 1.5164724e-38 321 267
0.0025423334 0.72500002 -0.034321502 1.4613714e-38 322 267
0.0038240198 0.727 -0.03441618 1.4521519e-38 323 267
0.0051197335 0.73000002 -0.034558199 1.3879033e-38 324 267
0.0063996664 0.73000002 -0.034558199 1.4063785e-38 325 267
0.0076795998 0.73000002 -0.034558199 1.3607844e-38 326 267
0.0089595336 0.73000002 -0.034558199 1.3515648e-38 327 267
0.010239467 0.73000002 -0.034558199 1.4070287e-38 328 267
0.011519399 0.73000002 -0.034558199 1.674396e-38 329 267
0.012799333 0.73000002 -0.034558199 1.8331105e-38 330 267
-0.020198401 0.72000003 -0.035347197 1.802888e-38 304 268
-0.019014901 0.72299999 -0.035494477 1.8305467e-38 305 268
-0.017747238 0.72299999 -0.035494477 1.7936688e-38 306 268
-0.016456785 0.722 -0.035445385 1.7291318e-38 307 268
-0.015190879 0.722 -0.035445385 1.7286659e-38 308 268
-0.013924973 0.722 -0.035445385 1.7010432e-38 309 268
-0.012659066 0.722 -0.035445385 1.7103715e-38 310 268
-0.01139316 0.722 -0.035445385 1.7472858e-38 311 268
-0.010127253 0.722 -0.035445385 1.7108388e-38 312 268
-0.0088613462 0.722 -0.035445385 1.6831802e-38 313 268
-0.0076059597 0.72299999 -0.035494477 1.6920034e-38 314 268
-0.0063382997 0.72299999 -0.035494477 1.6182469e-38 315 268
-0.0050636264 0.722 -0.035445385 1.6270702e-38 316 268
-0.0037977197 0.722 -0.035445385 1.5809364e-38 317 268
-0.0025353199 0.72299999 -0.035494477 1.5532781e-38 318 268
-0.0012676599 0.72299999 -0.035494477 1.534839e-38 319 268
0 0.72299999 -0.035494477 1.4980695e-38 320 268
0.0012676599 0.72299999 -0.035494477 1.4796664e-38 321 268
0.0025353199 0.72299999 -0.035494477 1.4429689e-38 322 268
0.0038240198 0.727 -0.035690852 1.4429689e-38 323 268
0.0051197335 0.73000002 -0.035838135 1.378864e-38 324 268
0.0063996664 0.73000002 -0.035838135 1.3973031e-38 325 268
0.0076795998 0.73000002 -0.035838135 1.3607491e-38 326 268
0.0089718066 0.73100001 -0.035887226 1.4068469e-38 327 268
0.010253493 0.73100001 -0.035887226 1.361077e-38 328 268
0.01153518 0.73100001 -0.035887226 1.5731628e-38 329 268
-0.021460801 0.72000003 -0.036609601 1.7754496e-38 303 269
-0.020198401 0.72000003 -0.036609601 1.8031414e-38 304 269
-0.0189886 0.722 -0.03671129 1.7847023e-38 305 269
-0.017722692 0.722 -0.03671129 1.7843786e-38 306 269
-0.016456785 0.722 -0.03671129 1.7106221e-38 307 269
-0.015190879 0.722 -0.03671129 1.7010435e-38 308 269
-0.013924973 0.722 -0.03671129 1.6918239e-38 309 269
-0.012659066 0.722 -0.03671129 1.6919681e-38 310 269
-0.01139316 0.722 -0.03671129 1.7288464e-38 311 269
-0.010127253 0.722 -0.03671129 1.7015473e-38 312 269
-0.0088613462 0.722 -0.03671129 1.6830723e-38 313 269
-0.0075954394 0.722 -0.03671129 1.673529e-38 314 269
-0.0063295332 0.722 -0.03671129 1.6089921e-38 315 269
-0.0050636264 0.722 -0.03671129 1.6085958e-38 316 269
-0.0037977197 0.722 -0.03671129 1.562498e-38 317 269
-0.0025318132 0.722 -0.03671129 1.5440585e-38 318 269
-0.0012676599 0.72299999 -0.036762137 1.534839e-38 319 269
0 0.72299999 -0.036762137 1.4797385e-38 320 269
0.0012676599 0.72299999 -0.036762137 1.4612635e-38 321 269
0.0025353199 0.72299999 -0.036762137 1.4245658e-38 322 269
0.0038240198 0.727 -0.036965527 1.4245658e-38 323 269
0.0051197335 0.73000002 -0.037118066 1.3605327e-38 324 269
0.0063996664 0.73000002 -0.037118066 1.397375e-38 325 269
0.00769012 0.73100001 -0.037168913 1.3517095e-38 326 269
0.0089718066 0.73100001 -0.037168913 1.360929e-38 327 269
-0.022723202 0.72000003 -0.037871998 1.7475026e-38 302 270
-0.021460801 0.72000003 -0.037871998 1.8581013e-38 303 270
-0.020198401 0.72000003 -0.037871998 1.7847751e-38 304 270
-0.0189886 0.722 -0.0379772 1.7294578e-38 305 270
-0.017673599 0.72000003 -0.037871998 1.710587e-38 306 270
-0.0164112 0.72000003 -0.037871998 1.6644892e-38 307 270
-0.0151488 0.72000003 -0.037871998 1.6825688e-38 308 270
-0.0138864 0.72000003 -0.037871998 1.6733491e-38 309 270
-0.012624 0.72000003 -0.037871998 1.6643092e-38 310 270
-0.011361601 0.72000003 -0.037871998 1.6827842e-38 311 270
-0.010127253 0.722 -0.0379772 1.692112e-38 312 270
-0.0088613462 0.722 -0.0379772 1.692112e-38 313 270
-0.0075954394 0.722 -0.0379772 1.6826407e-38 314 270
-0.0063295332 0.722 -0.0379772 1.6181037e-38 315 270
-0.0050636264 0.722 -0.0379772 1.5993403e-38 316 270
-0.0037977197 0.722 -0.0379772 1.5532784e-38 317 270
-0.0025318132 0.722 -0.0379772 1.5165443e-38 318 270
-0.0012659066 0.722 -0.0379772 1.5073248e-38 319 270
0 0.72299999 -0.038029801 1.4521166e-38 320 270
0.0012676599 0.72299999 -0.038029801 1.442897e-38 321 270
0.0025353199 0.72299999 -0.038029801 1.3970515e-38 322 270
0.0038240198 0.727 -0.038240198 1.4062711e-38 323 270
0.0051197335 0.73000002 -0.038398001 1.3514574e-38 324 270
0.006408433 0.73100001 -0.038450599 1.3791159e-38 325 270
0.00769012 0.73100001 -0.038450599 1.3517816e-38 326 270
0.0089963535 0.73299998 -0.038555797 1.3425621e-38 327 270
-0.0239856 0.72000003 -0.039134402 1.3624427e-38 301 271
-0.022723202 0.72000003 -0.039134402 1.7387865e-38 302 271
-0.021460801 0.72000003 -0.039134402 1.7756649e-38 303 271
-0.020198401 0.72000003 -0.039134402 1.7387509e-38 304 271
-0.018935999 0.72000003 -0.039134402 1.674214e-38 305 271
-0.017673599 0.72000003 -0.039134402 1.6736738e-38 306 271
-0.0164112 0.72000003 -0.039134402 1.6275401e-38 307 271
-0.0151488 0.72000003 -0.039134402 1.6457627e-38 308 271
-0.013867113 0.71899998 -0.039080046 1.6457627e-38 309 271
-0.012606465 0.71899998 -0.039080046 1.6458346e-38 310 271
-0.01134582 0.71899998 -0.039080046 1.6642738e-38 311 271
-0.010127253 0.722 -0.039243106 1.6644892e-38 312 271
-0.0088613462 0.722 -0.039243106 1.6552697e-38 313 271
-0.0075954394 0.722 -0.039243106 1.6549823e-38 314 271
-0.0063295332 0.722 -0.039243106 1.5812257e-38 315 271
-0.0050636264 0.722 -0.039243106 1.5717544e-38 316 271
-0.0037977197 0.722 -0.039243106 1.5256567e-38 317 271
-0.0025318132 0.722 -0.039243106 1.4889226e-38 318 271
-0.0012659066 0.722 -0.039243106 1.4797031e-38 319 271
0 0.722 -0.039243106 1.4246023e-38 320 271
0.0012659066 0.722 -0.039243106 1.4153828e-38 321 271
0.0025353199 0.72299999 -0.039297458 1.3878683e-38 322 271
0.0038135003 0.72500002 -0.039406165 1.3970878e-38 323 271
0.0051197335 0.73000002 -0.039677933 1.3514576e-38 324 271
0.0063996664 0.73000002 -0.039677933 1.3883358e-38 325 271
0.00769012 0.73100001 -0.039732285 1.3425621e-38 326 271
-0.025248 0.72000003 -0.040396802 1.6657525e-38 300 272
-0.0239856 0.72000003 -0.040396802 1.6196548e-38 301 272
-0.022723202 0.72000003 -0.040396802 1.7206715e-38 302 272
-0.021460801 0.72000003 -0.040396802 1.7022322e-38 303 272
-0.020198401 0.72000003 -0.040396802 1.7109846e-38 304 272
-0.018935999 0.72000003 -0.040396802 1.6096054e-38 305 272
-0.017673599 0.72000003 -0.040396802 1.5998819e-38 306 272
-0.016388407 0.71899998 -0.040340692 1.5814428e-38 307 272
-0.01512776 0.71899998 -0.040340692 1.6364362e-38 308 272
-0.013828539 0.71700001 -0.040228479 1.6272166e-38 309 272
-0.0125714 0.71700001 -0.040228479 1.6365434e-38 310 272
-0.01131426 0.71700001 -0.040228479 1.645763e-38 311 272
-0.010085173 0.71899998 -0.040340692 1.6367584e-38 312 272
-0.0088245263 0.71899998 -0.040340692 1.6367584e-38 313 272
-0.0075743999 0.72000003 -0.040396802 1.5997359e-38 314 272
-0.0063120001 0.72000003 -0.040396802 1.5259434e-38 315 272
-0.0050496003 0.72000003 -0.040396802 1.5624626e-38 316 272
-0.0037872 0.72000003 -0.040396802 1.534804e-38 317 272
-0.0025318132 0.722 -0.040509012 1.4795957e-38 318 272
-0.0012659066 0.722 -0.040509012 1.4703762e-38 319 272
0 0.722 -0.040509012 1.4152756e-38 320 272
0.0012659066 0.722 -0.040509012 1.4152756e-38 321 272
0.0025318132 0.722 -0.040509012 1.3970881e-38 322 272
0.0038135003 0.72500002 -0.040677335 1.4155274e-38 323 272
0.0051197335 0.73000002 -0.040957868 1.333198e-38 324 272
0.0063996664 0.73000002 -0.040957868 1.3700763e-38 325 272
-0.02647358 0.71899998 -0.041601337 1.1612331e-38 299 273
-0.0239856 0.72000003 -0.041659199 1.7845991e-38 301 273
-0.022723202 0.72000003 -0.041659199 1.6748979e-38 302 273
-0.021430992 0.71899998 -0.041601337 1.610361e-38 303 273
-0.020170346 0.71899998 -0.041601337 1.5548634e-38 304 273
-0.018935999 0.72000003 -0.041659199 1.4903266e-38 305 273
-0.017649053 0.71899998 -0.041601337 1.5266286e-38 306 273
-0.016388407 0.71899998 -0.041601337 1.4897864e-38 307 273
-0.01512776 0.71899998 -0.041601337 1.5265568e-38 308 273
-0.013828539 0.71700001 -0.041485619 1.5265568e-38 309 273
-0.0125714 0.71700001 -0.041485619 1.5449238e-38 310 273
-0.01131426 0.71700001 -0.041485619 1.5449238e-38 311 273
-0.01005712 0.71700001 -0.041485619 1.5816573e-38 312 273
-0.0087999795 0.71700001 -0.041485619 1.5539987e-38 313 273
-0.0075428397 0.71700001 -0.041485619 1.6088472e-38 314 273
-0.0062857 0.71700001 -0.041485619 1.5535299e-38 315 273
-0.0050425865 0.71899998 -0.041601337 1.5440951e-38 316 273
-0.0037819401 0.71899998 -0.041601337 1.4980332e-38 317 273
-0.0025212932 0.71899998 -0.041601337 1.4428617e-38 318 273
-0.0012624001 0.72000003 -0.041659199 1.4336421e-38 319 273
0 0.72000003 -0.041659199 1.3877967e-38 320 273
0.0012624001 0.72000003 -0.041659199 1.3970162e-38 321 273
0.0025318132 0.722 -0.041774917 1.3788286e-38 322 273
0.0038397999 0.73000002 -0.0422378 1.3973036e-38 323 273
0.0051197335 0.73000002 -0.0422378 1.3424176e-38 324 273
-0.027772799 0.72000003 -0.042921603 1.7230133e-38 298 274
-0.02647358 0.71899998 -0.042861983 1.0776441e-38 299 274
-0.025212931 0.71899998 -0.042861983 1.5814791e-38 300 274
-0.023952285 0.71899998 -0.042861983 1.6737107e-38 301 274
-0.022723202 0.72000003 -0.042921603 1.5270253e-38 302 274
-0.021430992 0.71899998 -0.042861983 1.5362808e-38 303 274
-0.020170346 0.71899998 -0.042861983 1.4629574e-38 304 274
-0.018909698 0.71899998 -0.042861983 1.4537379e-38 305 274
-0.017599959 0.71700001 -0.042742759 1.4719972e-38 306 274
-0.016342819 0.71700001 -0.042742759 1.4443385e-38 307 274
-0.015085679 0.71700001 -0.042742759 1.5085513e-38 308 274
-0.013828539 0.71700001 -0.042742759 1.4808928e-38 309 274
-0.0125714 0.71700001 -0.042742759 1.5083344e-38 310 274
-0.01131426 0.71700001 -0.042742759 1.4898951e-38 311 274
-0.01005712 0.71700001 -0.042742759 1.5539636e-38 312 274
-0.0087999795 0.71700001 -0.042742759 1.5170855e-38 313 274
-0.0075428397 0.71700001 -0.042742759 1.5444554e-38 314 274
-0.0062857 0.71700001 -0.042742759 1.5075411e-38 315 274
-0.0050285598 0.71700001 -0.042742759 1.4980698e-38 316 274
-0.0037714199 0.71700001 -0.042742759 1.4704112e-38 317 274
-0.0025212932 0.71899998 -0.042861983 1.4244579e-38 318 274
-0.0012624001 0.72000003 -0.042921603 1.4244579e-38 319 274
0 0.72000003 -0.042921603 1.3695008e-38 320 274
0.0012624001 0.72000003 -0.042921603 1.3971234e-38 321 274
-0.027772799 0.72000003 -0.044183999 1.685199e-38 298 275
-0.026510401 0.72000003 -0.044183999 1.1044024e-38 299 275
-0.025212931 0.71899998 -0.044122629 1.571899e-38 300 275
-0.023952285 0.71899998 -0.044122629 1.6364359e-38 301 275
-0.022691639 0.71899998 -0.044122629 1.5539283e-38 302 275
-0.021430992 0.71899998 -0.044122629 1.5631479e-38 303 275
-0.020170346 0.71899998 -0.044122629 1.4989728e-38 304 275
-0.018857099 0.71700001 -0.043999899 1.4989728e-38 305 275
-0.017599959 0.71700001 -0.043999899 1.4716031e-38 306 275
-0.016342819 0.71700001 -0.043999899 1.4808227e-38 307 275
-0.015085679 0.71700001 -0.043999899 1.4534151e-38 308 275
-0.013828539 0.71700001 -0.043999899 1.4257925e-38 309 275
-0.012553867 0.71600002 -0.043938532 1.4441221e-38 310 275
-0.01129848 0.71600002 -0.043938532 1.4256829e-38 311 275
-0.01005712 0.71700001 -0.043999899 1.4898946e-38 312 275
-0.0087877065 0.71600002 -0.043938532 1.4530523e-38 313 275
-0.00753232 0.71600002 -0.043938532 1.5170125e-38 314 275
-0.0062857 0.71700001 -0.043999899 1.4340725e-38 315 275
-0.0050285598 0.71700001 -0.043999899 1.4522242e-38 316 275
-0.0037714199 0.71700001 -0.043999899 1.4245655e-38 317 275
-0.0025142799 0.71700001 -0.043999899 1.3970869e-38 318 275
-0.00125714 0.71700001 -0.043999899 1.3878314e-38 319 275
0 0.71700001 -0.043999899 1.3696443e-38 320 275
0.00125714 0.71700001 -0.043999899 1.378864e-38 321 275
-0.027772799 0.72000003 -0.045446403 1.5551882e-38 298 276
-0.026510401 0.72000003 -0.045446403 1.1495273e-38 299 276
-0.025212931 0.71899998 -0.045383278 1.5716096e-38 300 276
-0.023952285 0.71899998 -0.045383278 1.5900487e-38 301 276
-0.022691639 0.71899998 -0.045383278 1.5533898e-38 302 276
-0.021371379 0.71700001 -0.045257039 1.5533898e-38 303 276
-0.020114239 0.71700001 -0.045257039 1.4890706e-38 304 276
-0.018857099 0.71700001 -0.045257039 1.5075456e-38 305 276
-0.017599959 0.71700001 -0.045257039 1.4892154e-38 306 276
-0.016342819 0.71700001 -0.045257039 1.4799958e-38 307 276
-0.015085679 0.71700001 -0.045257039 1.4432978e-38 308 276
-0.013828539 0.71700001 -0.045257039 1.4709563e-38 309 276
-0.012553867 0.71600002 -0.045193922 1.4436202e-38 310 276
-0.01129848 0.71600002 -0.045193922 1.4528398e-38 311 276
-0.010043093 0.71600002 -0.045193922 1.4805684e-38 312 276
-0.0087877065 0.71600002 -0.045193922 1.4805684e-38 313 276
-0.00753232 0.71600002 -0.045193922 1.4802071e-38 314 276
-0.0062769335 0.71600002 -0.045193922 1.4248897e-38 315 276
-0.0050215465 0.71600002 -0.045193922 1.4521886e-38 316 276
-0.00376616 0.71600002 -0.045193922 1.4245658e-38 317 276
-0.0025107733 0.71600002 -0.045193922 1.3878317e-38 318 276
-0.0012553866 0.71600002 -0.045193922 1.3970513e-38 319 276
0 0.71600002 -0.045193922 1.3604971e-38 320 276
0.00125714 0.71700001 -0.045257039 1.3697526e-38 321 276
-0.027734226 0.71899998 -0.046643924 1.4619497e-38 298 277
-0.02647358 0.71899998 -0.046643924 1.3144367e-38 299 277
-0.025212931 0.71899998 -0.046643924 1.5624626e-38 300 277
-0.023952285 0.71899998 -0.046643924 1.5624626e-38 301 277
-0.02262852 0.71700001 -0.046514176 1.5256938e-38 302 277
-0.021341572 0.71600002 -0.046449307 1.5256938e-38 303 277
-0.020086186 0.71600002 -0.046449307 1.470593e-38 304 277
-0.018857099 0.71700001 -0.046514176 1.470593e-38 305 277
-0.017599959 0.71700001 -0.046514176 1.4705579e-38 306 277
-0.016342819 0.71700001 -0.046514176 1.4613384e-38 307 277
-0.015085679 0.71700001 -0.046514176 1.4337167e-38 308 277
-0.013828539 0.71700001 -0.046514176 1.4521917e-38 309 277
-0.012553867 0.71600002 -0.046449307 1.4615544e-38 310 277
-0.01129848 0.71600002 -0.046449307 1.4800296e-38 311 277
-0.010043093 0.71600002 -0.046449307 1.4617697e-38 312 277
-0.0087877065 0.71600002 -0.046449307 1.4617697e-38 313 277
-0.00753232 0.71600002 -0.046449307 1.4524055e-38 314 277
-0.0062769335 0.71600002 -0.046449307 1.4247828e-38 315 277
-0.0050215465 0.71600002 -0.046449307 1.4246746e-38 316 277
-0.00376616 0.71600002 -0.046449307 1.397016e-38 317 277
-0.0025107733 0.71600002 -0.046449307 1.3512058e-38 318 277
-0.0012553866 0.71600002 -0.046449307 1.3696089e-38 319 277
0 0.71600002 -0.046449307 1.3513497e-38 320 277
-0.029035201 0.72000003 -0.0479712 1.2440289e-38 297 278
-0.027734226 0.71899998 -0.04790457 1.4795254e-38 298 278
-0.02647358 0.71899998 -0.04790457 1.5071841e-38 299 278
-0.025212931 0.71899998 -0.04790457 1.5900134e-38 300 278
-0.023952285 0.71899998 -0.04790457 1.5715743e-38 301 278
-0.02262852 0.71700001 -0.04777132 1.4981775e-38 302 278
-0.021341572 0.71600002 -0.047704693 1.488958e-38 303 278
-0.020086186 0.71600002 -0.047704693 1.4614435e-38 304 278
-0.018857099 0.71700001 -0.04777132 1.4522238e-38 305 278
-0.017599959 0.71700001 -0.04777132 1.4521886e-38 306 278
-0.016342819 0.71700001 -0.04777132 1.4521886e-38 307 278
-0.015085679 0.71700001 -0.04777132 1.4429336e-38 308 278
-0.013828539 0.71700001 -0.04777132 1.4521891e-38 309 278
-0.012553867 0.71600002 -0.047704693 1.4431138e-38 310 278
-0.01129848 0.71600002 -0.047704693 1.4523333e-38 311 278
-0.010043093 0.71600002 -0.047704693 1.4706651e-38 312 278
-0.0087877065 0.71600002 -0.047704693 1.4430066e-38 313 278
-0.00753232 0.71600002 -0.047704693 1.4613734e-38 314 278
-0.0062769335 0.71600002 -0.047704693 1.4521538e-38 315 278
-0.0050215465 0.71600002 -0.047704693 1.4062711e-38 316 278
-0.00376616 0.71600002 -0.047704693 1.4062711e-38 317 278
-0.0025142799 0.71700001 -0.04777132 1.3512777e-38 318 278
-0.00125714 0.71700001 -0.04777132 1.3604974e-38 319 278
-0.029035201 0.72000003 -0.0492336 1.1057329e-38 297 279
-0.027772799 0.72000003 -0.0492336 1.46076e-38 298 279
-0.02647358 0.71899998 -0.049165215 1.5898339e-38 299 279
-0.025212931 0.71899998 -0.049165215 1.5533152e-38 300 279
-0.023952285 0.71899998 -0.049165215 1.5440598e-38 301 279
-0.02262852 0.71700001 -0.04902846 1.4797031e-38 302 279
-0.021341572 0.71600002 -0.048960082 1.4889226e-38 303 279
-0.020086186 0.71600002 -0.048960082 1.4613718e-38 304 279
-0.018857099 0.71700001 -0.04902846 1.4613718e-38 305 279
-0.017599959 0.71700001 -0.04902846 1.4522242e-38 306 279
-0.016342819 0.71700001 -0.04902846 1.4522242e-38 307 279
-0.015085679 0.71700001 -0.04902846 1.4430045e-38 308 279
-0.013828539 0.71700001 -0.04902846 1.4430045e-38 309 279
-0.012553867 0.71600002 -0.048960082 1.4522238e-38 310 279
-0.01129848 0.71600002 -0.048960082 1.4430042e-38 311 279
-0.010043093 0.71600002 -0.048960082 1.4614788e-38 312 279
-0.0087877065 0.71600002 -0.048960082 1.4522591e-38 313 279
-0.00753232 0.71600002 -0.048960082 1.4431122e-38 314 279
-0.0062769335 0.71600002 -0.048960082 1.4338925e-38 315 279
-0.0050075199 0.71399999 -0.048823316 1.3787919e-38 316 279
-0.0037556398 0.71399999 -0.048823316 1.3787919e-38 317 279
-0.0025037599 0.71399999 -0.048823316 1.3512777e-38 318 279
-0.028994869 0.71899998 -0.050425861 1.3635188e-38 297 280
-0.027734226 0.71899998 -0.050425861 1.5442736e-38 298 280
-0.02647358 0.71899998 -0.050425861 1.5073595e-38 299 280
-0.025212931 0.71899998 -0.050425861 1.5075409e-38 300 280
-0.023952285 0.71899998 -0.050425861 1.4799182e-38 301 280
-0.02262852 0.71700001 -0.0502856 1.4705917e-38 302 280
-0.021341572 0.71600002 -0.050215468 1.4613721e-38 303 280
-0.020086186 0.71600002 -0.050215468 1.4430769e-38 304 280
-0.018857099 0.71700001 -0.0502856 1.4430769e-38 305 280
-0.017599959 0.71700001 -0.0502856 1.415598e-38 306 280
-0.016342819 0.71700001 -0.0502856 1.4063785e-38 307 280
-0.015085679 0.71700001 -0.0502856 1.4429689e-38 308 280
-0.013828539 0.71700001 -0.0502856 1.4429689e-38 309 280
-0.012553867 0.71600002 -0.050215468 1.4063061e-38 310 280
-0.01129848 0.71600002 -0.050215468 1.4247094e-38 311 280
-0.010043093 0.71600002 -0.050215468 1.4431475e-38 312 280
-0.0087877065 0.71600002 -0.050215468 1.4431475e-38 313 280
-0.00753232 0.71600002 -0.050215468 1.4431478e-38 314 280
-0.0062769335 0.71600002 -0.050215468 1.4338922e-38 315 280
-0.0050075199 0.71399999 -0.050075196 1.4063429e-38 316 280
-0.0037556398 0.71399999 -0.050075196 1.3971232e-38 317 280
-0.0025037599 0.71399999 -0.050075196 1.3237632e-38 318 280
-0.028994869 0.71899998 -0.05168651 1.640254e-38 297 281
-0.027734226 0.71899998 -0.05168651 1.7481522e-38 298 281
-0.02647358 0.71899998 -0.05168651 1.3701501e-38 299 281
-0.025212931 0.71899998 -0.05168651 1.4889595e-38 300 281
-0.023952285 0.71899998 -0.05168651 1.4889595e-38 301 281
-0.02262852 0.71700001 -0.051542737 1.4521891e-38 302 281
-0.021341572 0.71600002 -0.051470853 1.4614087e-38 303 281
-0.020086186 0.71600002 -0.051470853 1.4155983e-38 304 281
-0.018857099 0.71700001 -0.051542737 1.3971232e-38 305 281
-0.017599959 0.71700001 -0.051542737 1.3972312e-38 306 281
-0.016342819 0.71700001 -0.051542737 1.3880116e-38 307 281
-0.015085679 0.71700001 -0.051542737 1.4153828e-38 308 281
-0.013828539 0.71700001 -0.051542737 1.4153828e-38 309 281
-0.012553867 0.71600002 -0.051470853 1.4063064e-38 310 281
-0.01129848 0.71600002 -0.051470853 1.4247097e-38 311 281
-0.010043093 0.71600002 -0.051470853 1.4431838e-38 312 281
-0.0087877065 0.71600002 -0.051470853 1.4431838e-38 313 281
-0.00753232 0.71600002 -0.051470853 1.4156696e-38 314 281
-0.0062769335 0.71600002 -0.051470853 1.3880469e-38 315 281
-0.0050215465 0.71600002 -0.051470853 1.3787569e-38 316 281
-0.00376616 0.71600002 -0.051470853 1.3971962e-38 317 281
-0.0025107733 0.71600002 -0.051470853 1.2776661e-38 318 281
-0.027734226 0.71899998 -0.05294716 1.6010358e-38 298 282
-0.026510401 0.72000003 -0.053020801 1.2138141e-38 299 282
-0.025212931 0.71899998 -0.05294716 1.406091e-38 300 282
-0.023952285 0.71899998 -0.05294716 1.3600291e-38 301 282
-0.02262852 0.71700001 -0.052799881 1.3323348e-38 302 282
-0.021341572 0.71600002 -0.052726239 1.3507739e-38 303 282
-0.020086186 0.71600002 -0.052726239 1.2867405e-38 304 282
-0.018857099 0.71700001 -0.052799881 1.2959602e-38 305 282
-0.017599959 0.71700001 -0.052799881 1.2869929e-38 306 282
-0.016342819 0.71700001 -0.052799881 1.2962124e-38 307 282
-0.015085679 0.71700001 -0.052799881 1.3602456e-38 308 282
-0.013828539 0.71700001 -0.052799881 1.3878683e-38 309 282
-0.012553867 0.71600002 -0.052726239 1.4063429e-38 310 282
-0.01129848 0.71600002 -0.052726239 1.4155983e-38 311 282
-0.010043093 0.71600002 -0.052726239 1.4248529e-38 312 282
-0.0087877065 0.71600002 -0.052726239 1.4340725e-38 313 282
-0.00753232 0.71600002 -0.052726239 1.4249248e-38 314 282
-0.0062857 0.71700001 -0.052799881 1.3973021e-38 315 282
-0.0050285598 0.71700001 -0.052799881 1.3143996e-38 316 282
-0.0037714199 0.71700001 -0.052799881 1.2775212e-38 317 282
-0.026510401 0.72000003 -0.054283202 1.3144678e-38 299 283
-0.025212931 0.71899998 -0.054207806 1.3968681e-38 300 283
-0.023952285 0.71899998 -0.054207806 1.286235e-38 301 283
-0.02262852 0.71700001 -0.054057021 1.276621e-38 302 283
-0.021371379 0.71700001 -0.054057021 1.2674016e-38 303 283
-0.020114239 0.71700001 -0.054057021 1.2032975e-38 304 283
-0.018857099 0.71700001 -0.054057021 1.2402118e-38 305 283
-0.017599959 0.71700001 -0.054057021 1.1852925e-38 306 283
-0.016342819 0.71700001 -0.054057021 1.2406099e-38 307 283
-0.015085679 0.71700001 -0.054057021 1.286526e-38 308 283
-0.013828539 0.71700001 -0.054057021 1.3141846e-38 309 283
-0.0125714 0.71700001 -0.054057021 1.3420216e-38 310 283
-0.01129848 0.71600002 -0.053981625 1.3696443e-38 311 283
-0.010043093 0.71600002 -0.053981625 1.369752e-38 312 283
-0.0087877065 0.71600002 -0.053981625 1.3974106e-38 313 283
-0.0075428397 0.71700001 -0.054057021 1.3607478e-38 314 283
-0.0062857 0.71700001 -0.054057021 1.314614e-38 315 283
-0.0050425865 0.71899998 -0.054207806 1.2406797e-38 316 283
-0.0037819401 0.71899998 -0.054207806 1.1300808e-38 317 283
-0.0025318132 0.722 -0.054433983 1.0837328e-38 318 283
-0.022691639 0.71899998 -0.055468451 1.3506634e-38 302 284
-0.021371379 0.71700001 -0.055314157 1.3045304e-38 303 284
-0.020114239 0.71700001 -0.055314157 1.2127326e-38 304 284
-0.018909698 0.71899998 -0.055468451 1.1481957e-38 305 284
-0.017649053 0.71899998 -0.055468451 1.1481616e-38 306 284
-0.016342819 0.71700001 -0.055314157 1.1113192e-38 307 284
-0.015085679 0.71700001 -0.055314157 9.8263981e-39 308 284
-0.013828539 0.71700001 -0.055314157 9.918235e-39 309 284
-0.0125714 0.71700001 -0.055314157 9.9185923e-39 310 284
-0.01129848 0.71600002 -0.055237014 1.0287376e-38 311 284
-0.010043093 0.71600002 -0.055237014 1.1025297e-38 312 284
-0.0087877065 0.71600002 -0.055237014 1.1393721e-38 313 284
-0.0075428397 0.71700001 -0.055314157 1.130188e-38 314 284
-0.0062857 0.71700001 -0.055314157 1.1209326e-38 315 284
-0.0050425865 0.71899998 -0.055468451 1.1574168e-38 316 284
-0.0125714 0.71700001 -0.056571297 1.019374e-38 310 285
-0.01131426 0.71700001 -0.056571297 1.0469248e-38 311 285
-0.01005712 0.71700001 -0.056571297 1.083659e-38 312 285
-0.0087999795 0.71700001 -0.056571297 1.0744753e-38 313 285
-0.0075428397 0.71700001 -0.056571297 1.1020267e-38 314 285
-0.0062857 0.71700001 -0.056571297 1.1664918e-38 315 285
