# .PCD v.7 - Point Cloud Data file format
FIELDS x y z rgb imX imY
SIZE 4 4 4 4 4 4
TYPE F F F F F F
COUNT 1 1 1 1 1 1
WIDTH 842
HEIGHT 1
VIEWPOINT 0 0 0 1 0 0 0
POINTS 842
DATA ascii
0.0012746733 0.727 -0.025493465 2.1190576e-39 321 260
0.0025528532 0.72799999 -0.025528532 2.1197764e-39 322 260
0.0038292799 0.72799999 -0.025528532 1.9353866e-39 323 260
0.0051197335 0.73000002 -0.025598666 2.1187016e-39 324 260
0.006408433 0.73100001 -0.025633732 2.2108973e-39 325 260
0.00769012 0.73100001 -0.025633732 2.3020139e-39 326 260
0.0090086265 0.73400003 -0.025738932 2.3945682e-39 327 260
0.010323626 0.736 -0.025809066 2.3945682e-39 328 260
0.01161408 0.736 -0.025809066 2.3945682e-39 329 260
0.012904533 0.736 -0.025809066 2.3023698e-39 330 260
-0.053771228 0.69700003 -0.025663542 2.7637081e-39 276 261
-0.052549154 0.69700003 -0.025663542 2.5789567e-39 277 261
-0.051327083 0.69700003 -0.025663542 2.4867639e-39 278 261
-0.050105009 0.69700003 -0.025663542 2.3945682e-39 279 261
-0.048882935 0.69700003 -0.025663542 2.2116189e-39 280 261
-0.047660861 0.69700003 -0.025663542 2.2116189e-39 281 261
-0.046438783 0.69700003 -0.025663542 2.5800315e-39 282 261
-0.045281585 0.69800001 -0.025700359 2.5800315e-39 283 261
-0.04405776 0.69800001 -0.025700359 2.8548205e-39 284 261
-0.042833932 0.69800001 -0.025700359 2.7626249e-39 285 261
-0.041610107 0.69800001 -0.025700359 2.762269e-39 286 261
-0.040386278 0.69800001 -0.025700359 2.762269e-39 287 261
-0.039162453 0.69800001 -0.025700359 2.5789567e-39 288 261
-0.038264744 0.704 -0.02592128 2.5789567e-39 289 261
-0.037030395 0.704 -0.02592128 2.5800315e-39 290 261
-0.035897743 0.70599997 -0.025994917 2.5800315e-39 291 261
-0.034708988 0.70700002 -0.02603174 2.762269e-39 292 261
-0.033469379 0.70700002 -0.02603174 2.6700733e-39 293 261
-0.032229774 0.70700002 -0.02603174 2.5789567e-39 294 261
-0.031034 0.708 -0.026068559 2.4867611e-39 295 261
-0.02979264 0.708 -0.026068559 2.5793098e-39 296 261
-0.028631933 0.70999998 -0.026142199 2.4871142e-39 297 261
-0.027387066 0.70999998 -0.026142199 2.4867583e-39 298 261
-0.026179021 0.71100003 -0.026179021 2.4867583e-39 299 261
-0.024932399 0.71100003 -0.026179021 2.3945626e-39 300 261
-0.023685781 0.71100003 -0.026179021 2.3945626e-39 301 261
-0.022502279 0.713 -0.026252659 2.3945626e-39 302 261
-0.021341572 0.71600002 -0.026363119 2.302367e-39 303 261
-0.020086186 0.71600002 -0.026363119 2.4860422e-39 304 261
-0.018857099 0.71700001 -0.02639994 2.4860422e-39 305 261
-0.017599959 0.71700001 -0.02639994 2.3945654e-39 306 261
-0.016342819 0.71700001 -0.02639994 2.3945654e-39 307 261
-0.015085679 0.71700001 -0.02639994 2.3945626e-39 308 261
-0.013867113 0.71899998 -0.02647358 2.3945626e-39 309 261
-0.012606465 0.71899998 -0.02647358 2.4867583e-39 310 261
-0.0038240198 0.727 -0.026768139 2.3945654e-39 317 261
-0.0025493465 0.727 -0.026768139 2.3945654e-39 318 261
-0.0012746733 0.727 -0.026768139 2.3945654e-39 319 261
0 0.727 -0.026768139 2.302367e-39 320 261
0.0012746733 0.727 -0.026768139 2.1183359e-39 321 261
0.0025528532 0.72799999 -0.026804959 2.1183359e-39 322 261
0.0038292799 0.72799999 -0.026804959 2.302367e-39 323 261
0.0051197335 0.73000002 -0.026878599 2.4863953e-39 324 261
0.0063996664 0.73000002 -0.026878599 2.7626221e-39 325 261
0.0076795998 0.73000002 -0.026878599 3.1303158e-39 326 261
0.0090331733 0.736 -0.02709952 3.6834896e-39 327 261
0.010351679 0.73799998 -0.027173158 4.0486764e-39 328 261
0.01161408 0.736 -0.02709952 3.6802526e-39 329 261
0.012904533 0.736 -0.02709952 2.577512e-39 330 261
-0.053771228 0.69700003 -0.026885614 2.6715083e-39 276 262
-0.052549154 0.69700003 -0.026885614 2.5793126e-39 277 262
-0.051327083 0.69700003 -0.026885614 2.3034488e-39 278 262
-0.050105009 0.69700003 -0.026885614 2.2112532e-39 279 262
-0.048882935 0.69700003 -0.026885614 2.2112532e-39 280 262
-0.047660861 0.69700003 -0.026885614 2.3956444e-39 281 262
-0.046438783 0.69700003 -0.026885614 2.5793098e-39 282 262
-0.045281585 0.69800001 -0.026924185 2.6715055e-39 283 262
-0.04405776 0.69800001 -0.026924185 2.7626221e-39 284 262
-0.035948593 0.70700002 -0.027271347 2.3956416e-39 291 262
-0.034708988 0.70700002 -0.027271347 2.7615501e-39 292 262
-0.033516716 0.708 -0.027309919 2.7615501e-39 293 262
-0.03227536 0.708 -0.027309919 2.4867611e-39 294 262
-0.031034 0.708 -0.027309919 2.5789567e-39 295 262
-0.02979264 0.708 -0.027309919 2.3956416e-39 296 262
-0.028631933 0.70999998 -0.027387066 2.303446e-39 297 262
-0.027425639 0.71100003 -0.027425639 2.4867583e-39 298 262
-0.026179021 0.71100003 -0.027425639 2.4867583e-39 299 262
-0.024932399 0.71100003 -0.027425639 2.4867583e-39 300 262
-0.023685781 0.71100003 -0.027425639 2.3945626e-39 301 262
-0.022502279 0.713 -0.027502786 2.4860422e-39 302 262
-0.021341572 0.71600002 -0.027618507 2.4860422e-39 303 262
-0.020086186 0.71600002 -0.027618507 2.4867611e-39 304 262
-0.018857099 0.71700001 -0.027657079 2.4867611e-39 305 262
-0.017599959 0.71700001 -0.027657079 2.6700733e-39 306 262
-0.016342819 0.71700001 -0.027657079 2.6700733e-39 307 262
-0.0025528532 0.72799999 -0.028081384 2.3941941e-39 318 262
-0.0012746733 0.727 -0.028042812 2.3941941e-39 319 262
0 0.727 -0.028042812 2.2094483e-39 320 262
0.0012764266 0.72799999 -0.028081384 2.1172527e-39 321 262
0.0025528532 0.72799999 -0.028081384 2.1161807e-39 322 262
0.0038397999 0.73000002 -0.028158534 2.4849632e-39 323 262
0.0051197335 0.73000002 -0.028158534 3.0374139e-39 324 262
0.0063996664 0.73000002 -0.028158534 3.6827833e-39 325 262
0.0076795998 0.73000002 -0.028158534 5.1561057e-39 326 262
0.0090577193 0.73799998 -0.028467119 6.0777019e-39 327 262
0.010351679 0.73799998 -0.028467119 6.2577772e-39 328 262
0.01161408 0.736 -0.028389972 4.5060616e-39 329 262
0.012904533 0.736 -0.028389972 2.3023698e-39 330 262
-0.054993302 0.69700003 -0.028107686 3.1303354e-39 275 263
-0.053771228 0.69700003 -0.028107686 2.7637081e-39 276 263
-0.052549154 0.69700003 -0.028107686 2.5789567e-39 277 263
-0.051327083 0.69700003 -0.028107686 2.3034488e-39 278 263
-0.050105009 0.69700003 -0.028107686 2.2112532e-39 279 263
-0.048882935 0.69700003 -0.028107686 2.303446e-39 280 263
-0.047660861 0.69700003 -0.028107686 2.3956416e-39 281 263
-0.046438783 0.69700003 -0.028107686 2.6718614e-39 282 263
-0.045281585 0.69800001 -0.028148014 2.6718614e-39 283 263
-0.04405776 0.69800001 -0.028148014 2.9473707e-39 284 263
-0.035948593 0.70700002 -0.028510952 2.5793098e-39 291 263
-0.034708988 0.70700002 -0.028510952 2.8541045e-39 292 263
-0.033516716 0.708 -0.02855128 2.8541045e-39 293 263
-0.03227536 0.708 -0.02855128 2.762269e-39 294 263
-0.031034 0.708 -0.02855128 2.8548233e-39 295 263
-0.02979264 0.708 -0.02855128 2.3956416e-39 296 263
-0.028631933 0.70999998 -0.028631933 2.3956416e-39 297 263
-0.027387066 0.70999998 -0.028631933 2.4867583e-39 298 263
-0.026179021 0.71100003 -0.028672259 2.4867583e-39 299 263
-0.024932399 0.71100003 -0.028672259 2.5793126e-39 300 263
-0.023685781 0.71100003 -0.028672259 2.3945626e-39 301 263
-0.022502279 0.713 -0.028752912 2.3938466e-39 302 263
-0.021341572 0.71600002 -0.028873893 2.3016509e-39 303 263
-0.020086186 0.71600002 -0.028873893 2.301295e-39 304 263
-0.056296028 0.69800001 -0.029371841 2.8551736e-39 274 264
-0.054993302 0.69700003 -0.02932976 3.0395663e-39 275 264
-0.053771228 0.69700003 -0.02932976 2.9470176e-39 276 264
-0.052549154 0.69700003 -0.02932976 2.7626249e-39 277 264
-0.051327083 0.69700003 -0.02932976 2.2119692e-39 278 264
-0.050105009 0.69700003 -0.02932976 2.2119692e-39 279 264
-0.048882935 0.69700003 -0.02932976 2.3041649e-39 280 264
-0.047660861 0.69700003 -0.02932976 2.3963605e-39 281 264
-0.046438783 0.69700003 -0.02932976 2.6715055e-39 282 264
-0.034758076 0.708 -0.02979264 2.8548177e-39 292 264
-0.033516716 0.708 -0.02979264 2.8548177e-39 293 264
-0.03227536 0.708 -0.02979264 2.8548177e-39 294 264
-0.031034 0.708 -0.02979264 2.9473735e-39 295 264
-0.02979264 0.708 -0.02979264 2.9473707e-39 296 264
-0.028631933 0.70999998 -0.029876797 2.9473707e-39 297 264
-0.027387066 0.70999998 -0.029876797 2.9470035e-39 298 264
0.011740319 0.74400002 -0.031307522 2.941247e-39 329 264
0.0130448 0.74400002 -0.031307522 9.219591e-40 330 264
0.01434928 0.74400002 -0.031307522 1.1059916e-39 331 264
0.015695838 0.74599999 -0.031391677 1.4740539e-39 332 264
0.027578179 0.74900001 -0.031517919 2.3020139e-39 341 264
0.028891427 0.74900001 -0.031517919 2.4882072e-39 342 264
0.030204674 0.74900001 -0.031517919 3.0413796e-39 343 264
0.031517919 0.74900001 -0.031517919 4.9706551e-39 344 264
-0.056296028 0.69800001 -0.030595668 1.5665844e-39 274 265
-0.054993302 0.69700003 -0.030551834 2.9498748e-39 275 265
-0.053771228 0.69700003 -0.030551834 2.9477392e-39 276 265
-0.052549154 0.69700003 -0.030551834 2.6711523e-39 277 265
-0.051327083 0.69700003 -0.030551834 2.0286598e-39 278 265
-0.050105009 0.69700003 -0.030551834 2.0286598e-39 279 265
-0.048882935 0.69700003 -0.030551834 2.3956444e-39 280 265
-0.047660861 0.69700003 -0.030551834 2.5796756e-39 281 265
-0.046438783 0.69700003 -0.030551834 2.7637025e-39 282 265
-0.032366529 0.70999998 -0.031121666 2.1190547e-39 294 265
-0.031121666 0.70999998 -0.031121666 2.2112504e-39 295 265
0.011740319 0.74400002 -0.032612 1.2889255e-39 329 265
0.013009733 0.74199998 -0.032524332 1.3811394e-39 330 265
0.014310705 0.74199998 -0.032524332 1.5655306e-39 331 265
0.015653761 0.74400002 -0.032612 1.4751301e-39 332 265
0.016958239 0.74400002 -0.032612 1.751717e-39 333 265
0.026264934 0.74900001 -0.032831166 2.0257829e-39 340 265
0.027578179 0.74900001 -0.032831166 2.1183387e-39 341 265
0.028891427 0.74900001 -0.032831166 2.2109001e-39 342 265
0.030204674 0.74900001 -0.032831166 2.5793224e-39 343 265
0.031517919 0.74900001 -0.032831166 4.1401713e-39 344 265
0.032831166 0.74900001 -0.032831166 4.1401713e-39 345 265
0.034189999 0.75 -0.032874998 4.1383707e-39 346 265
0.035599679 0.75199997 -0.032962665 3.7699469e-39 347 265
-0.053771228 0.69700003 -0.03177391 2.947721e-39 276 266
-0.052549154 0.69700003 -0.03177391 3.1321123e-39 277 266
-0.051400717 0.69800001 -0.031819493 2.9473707e-39 278 266
-0.050176892 0.69800001 -0.031819493 2.8551736e-39 279 266
-0.048953064 0.69800001 -0.031819493 2.6715055e-39 280 266
-0.047729239 0.69800001 -0.031819493 2.6715055e-39 281 266
-0.046505414 0.69800001 -0.031819493 3.2228786e-39 282 266
0.01170876 0.74199998 -0.033825304 1.8431909e-39 329 266
0.013009733 0.74199998 -0.033825304 2.0261389e-39 330 266
0.014310705 0.74199998 -0.033825304 1.9339432e-39 331 266
0.015611678 0.74199998 -0.033825304 1.7509911e-39 332 266
0.016912652 0.74199998 -0.033825304 1.8435469e-39 333 266
0.018213626 0.74199998 -0.033825304 2.1190576e-39 334 266
0.026264934 0.74900001 -0.034144413 2.0265032e-39 340 266
0.027578179 0.74900001 -0.034144413 2.0265032e-39 341 266
0.028891427 0.74900001 -0.034144413 1.9353922e-39 342 266
0.030204674 0.74900001 -0.034144413 1.9353922e-39 343 266
0.031517919 0.74900001 -0.034144413 2.4864135e-39 344 266
0.032831166 0.74900001 -0.034144413 2.3938592e-39 345 266
0.034189999 0.75 -0.034189999 2.5768085e-39 346 266
0.035599679 0.75199997 -0.034281172 2.5768085e-39 347 266
-0.053848371 0.69800001 -0.033043321 1.9357201e-39 276 267
-0.052624546 0.69800001 -0.033043321 2.7654779e-39 277 267
-0.051400717 0.69800001 -0.033043321 2.213051e-39 278 267
-0.050176892 0.69800001 -0.033043321 1.8439098e-39 279 267
-0.048953064 0.69800001 -0.033043321 2.213051e-39 280 267
-0.047729239 0.69800001 -0.033043321 2.1208554e-39 281 267
-0.046505414 0.69800001 -0.033043321 2.5789595e-39 282 267
0.01170876 0.74199998 -0.03512628 2.6690041e-39 329 267
0.013009733 0.74199998 -0.03512628 1.6613192e-39 330 267
0.014310705 0.74199998 -0.03512628 1.3847337e-39 331 267
0.015611678 0.74199998 -0.03512628 1.7509939e-39 332 267
0.016912652 0.74199998 -0.03512628 1.8431909e-39 333 267
0.018213626 0.74199998 -0.03512628 2.1183387e-39 334 267
0.026264934 0.74900001 -0.03545766 1.8431909e-39 340 267
0.027578179 0.74900001 -0.03545766 1.8431909e-39 341 267
0.028891427 0.74900001 -0.03545766 1.9361054e-39 342 267
0.030204674 0.74900001 -0.03545766 1.8439098e-39 343 267
0.031517919 0.74900001 -0.03545766 2.4860394e-39 344 267
0.032831166 0.74900001 -0.03545766 2.4860394e-39 345 267
0.034189999 0.75 -0.035505001 2.4860422e-39 346 267
0.035599679 0.75199997 -0.035599679 2.3938466e-39 347 267
0.037016369 0.75400001 -0.035694357 2.3945654e-39 348 267
0.038338386 0.75400001 -0.035694357 2.3945654e-39 349 267
0.039712999 0.755 -0.035741698 2.4867583e-39 350 267
-0.050320663 0.69999999 -0.034365334 6.5339941e-39 279 268
-0.049093332 0.69999999 -0.034365334 5.3390621e-39 280 268
-0.047729239 0.69800001 -0.034267146 5.4316164e-39 281 268
-0.046505414 0.69800001 -0.034267146 5.8933176e-39 282 268
0.013009733 0.74199998 -0.036427252 2.303446e-39 330 268
0.014310705 0.74199998 -0.036427252 2.1190547e-39 331 268
0.015611678 0.74199998 -0.036427252 2.0257829e-39 332 268
0.016912652 0.74199998 -0.036427252 2.1183387e-39 333 268
0.018213626 0.74199998 -0.036427252 2.1190547e-39 334 268
0.024951685 0.74900001 -0.036770906 1.8435469e-39 339 268
0.026264934 0.74900001 -0.036770906 2.0268591e-39 340 268
0.027578179 0.74900001 -0.036770906 2.1190547e-39 341 268
0.028891427 0.74900001 -0.036770906 2.1197708e-39 342 268
0.030204674 0.74900001 -0.036770906 2.1197708e-39 343 268
0.031517919 0.74900001 -0.036770906 2.3938438e-39 344 268
0.032831166 0.74900001 -0.036770906 2.3938438e-39 345 268
0.034281172 0.75199997 -0.036918186 2.3938466e-39 346 268
0.035599679 0.75199997 -0.036918186 2.3938466e-39 347 268
0.037016369 0.75400001 -0.037016369 2.3945654e-39 348 268
0.038338386 0.75400001 -0.037016369 2.3945654e-39 349 268
0.039712999 0.755 -0.037065465 2.1197736e-39 350 268
0.01170876 0.74199998 -0.037728224 2.1212212e-39 329 269
0.013009733 0.74199998 -0.037728224 2.3038117e-39 330 269
0.014310705 0.74199998 -0.037728224 1.9353894e-39 331 269
0.015611678 0.74199998 -0.037728224 1.8431937e-39 332 269
0.016912652 0.74199998 -0.037728224 1.8431937e-39 333 269
0.018213626 0.74199998 -0.037728224 2.302367e-39 334 269
0.0195146 0.74199998 -0.037728224 2.302367e-39 335 269
0.020815572 0.74199998 -0.037728224 2.3027229e-39 336 269
0.022265578 0.74699998 -0.03798246 2.1183331e-39 337 269
0.02363844 0.74900001 -0.038084153 2.1183359e-39 338 269
0.024951685 0.74900001 -0.038084153 2.1183359e-39 339 269
0.026264934 0.74900001 -0.038084153 2.0268591e-39 340 269
0.027578179 0.74900001 -0.038084153 2.0268591e-39 341 269
0.028891427 0.74900001 -0.038084153 2.1190519e-39 342 269
0.030204674 0.74900001 -0.038084153 2.1190519e-39 343 269
0.031517919 0.74900001 -0.038084153 2.3016509e-39 344 269
0.032831166 0.74900001 -0.038084153 2.3016509e-39 345 269
0.034281172 0.75199997 -0.038236689 2.1179828e-39 346 269
0.035599679 0.75199997 -0.038236689 2.3020139e-39 347 269
0.037065465 0.755 -0.038389232 2.1187016e-39 348 269
0.038389232 0.755 -0.038389232 2.1187016e-39 349 269
0.039712999 0.755 -0.038389232 2.2119692e-39 350 269
-0.0013132467 0.74900001 -0.0393974 4.6050703e-39 319 270
0 0.74900001 -0.0393974 3.3175783e-39 320 270
0.009106813 0.74199998 -0.0390292 3.0399377e-39 327 270
0.010393759 0.741 -0.038976599 2.030822e-39 328 270
0.01169298 0.741 -0.038976599 1.8464293e-39 329 270
0.0129922 0.741 -0.038976599 2.2112532e-39 330 270
0.014310705 0.74199998 -0.0390292 2.0265032e-39 331 270
0.015611678 0.74199998 -0.0390292 2.1183359e-39 332 270
0.016912652 0.74199998 -0.0390292 2.302367e-39 333 270
0.018189078 0.741 -0.038976599 2.3027229e-39 334 270
0.019488299 0.741 -0.038976599 2.1183331e-39 335 270
0.020787518 0.741 -0.038976599 2.0261389e-39 336 270
0.022265578 0.74699998 -0.039292198 1.9339432e-39 337 270
0.023575317 0.74699998 -0.039292198 1.9335873e-39 338 270
0.024885058 0.74699998 -0.039292198 1.9335873e-39 339 270
0.026194798 0.74699998 -0.039292198 1.6587983e-39 340 270
0.027504537 0.74699998 -0.039292198 1.7509939e-39 341 270
0.028814279 0.74699998 -0.039292198 1.9346621e-39 342 270
0.030204674 0.74900001 -0.0393974 1.9346621e-39 343 270
0.031517919 0.74900001 -0.0393974 1.9335873e-39 344 270
0.032831166 0.74900001 -0.0393974 2.0257829e-39 345 270
0.034281172 0.75199997 -0.039555199 2.0265032e-39 346 270
0.035599679 0.75199997 -0.039555199 2.1190576e-39 347 270
0.037016369 0.75400001 -0.039660402 1.9353866e-39 348 270
0.038389232 0.755 -0.039712999 2.1197764e-39 349 270
0.039712999 0.755 -0.039712999 2.3045208e-39 350 270
-0.0052389596 0.74699998 -0.040601939 5.066787e-39 316 271
-0.0039292197 0.74699998 -0.040601939 4.6983646e-39 317 271
-0.0026194798 0.74699998 -0.040601939 4.3310268e-39 318 271
-0.0013132467 0.74900001 -0.040710647 3.8700486e-39 319 271
0 0.74699998 -0.040601939 3.1342857e-39 320 271
0.0013097399 0.74699998 -0.040601939 4.0558818e-39 321 271
0.0026264933 0.74900001 -0.040710647 4.2420752e-39 322 271
0.0078058392 0.74199998 -0.040330172 3.1339325e-39 326 271
0.0090945391 0.741 -0.04027582 2.8569855e-39 327 271
0.010393759 0.741 -0.04027582 2.0301031e-39 328 271
0.01169298 0.741 -0.04027582 1.7535148e-39 329 271
0.0129922 0.741 -0.04027582 2.1179828e-39 330 271
0.014310705 0.74199998 -0.040330172 2.0257857e-39 331 271
0.015611678 0.74199998 -0.040330172 1.7509939e-39 332 271
0.016912652 0.74199998 -0.040330172 1.8431909e-39 333 271
0.018189078 0.741 -0.04027582 1.9346621e-39 334 271
0.019488299 0.741 -0.04027582 1.9346621e-39 335 271
0.020955838 0.74699998 -0.040601939 2.1168996e-39 336 271
0.022265578 0.74699998 -0.040601939 2.0247039e-39 337 271
0.023575317 0.74699998 -0.040601939 1.7491988e-39 338 271
0.024885058 0.74699998 -0.040601939 1.7491988e-39 339 271
0.026194798 0.74699998 -0.040601939 1.750275e-39 340 271
0.027504537 0.74699998 -0.040601939 1.9343062e-39 341 271
0.028814279 0.74699998 -0.040601939 1.750275e-39 342 271
0.030204674 0.74900001 -0.040710647 1.750275e-39 343 271
0.031517919 0.74900001 -0.040710647 1.9343062e-39 344 271
0.032831166 0.74900001 -0.040710647 1.9343062e-39 345 271
0.034281172 0.75199997 -0.040873703 1.8431909e-39 346 271
0.035694357 0.75400001 -0.040982414 1.8431909e-39 347 271
0.037016369 0.75400001 -0.040982414 1.9353866e-39 348 271
0.038389232 0.755 -0.041036766 2.1197764e-39 349 271
0.039712999 0.755 -0.041036766 2.028657e-39 350 271
0.042697169 0.76099998 -0.041362885 2.3963633e-39 352 271
0.044031456 0.76099998 -0.041362885 2.3041677e-39 353 271
0.045365743 0.76099998 -0.041362885 9.2267937e-40 354 271
-0.0065223998 0.74400002 -0.04174336 5.5263274e-39 315 272
-0.0052179201 0.74400002 -0.04174336 5.1589868e-39 316 272
-0.0039134403 0.74400002 -0.04174336 5.0667912e-39 317 272
-0.00260896 0.74400002 -0.04174336 4.3324687e-39 318 272
-0.0013079866 0.74599999 -0.04185557 3.7796551e-39 319 272
0 0.74599999 -0.04185557 3.6871021e-39 320 272
0.0013079866 0.74599999 -0.04185557 3.5949065e-39 321 272
0.0026159731 0.74599999 -0.04185557 4.0555287e-39 322 272
0.0078058392 0.74199998 -0.041631144 2.7644396e-39 326 272
0.0090945391 0.741 -0.041575037 2.5804084e-39 327 272
0.010393759 0.741 -0.041575037 2.1205051e-39 328 272
0.01169298 0.741 -0.041575037 1.8435595e-39 329 272
0.0129922 0.741 -0.041575037 1.9335901e-39 330 272
0.014310705 0.74199998 -0.041631144 1.8413945e-39 331 272
0.015611678 0.74199998 -0.041631144 1.6580794e-39 332 272
0.016889861 0.741 -0.041575037 1.6580794e-39 333 272
0.018189078 0.741 -0.041575037 1.8406728e-39 334 272
0.019488299 0.741 -0.041575037 1.8406728e-39 335 272
0.020815572 0.74199998 -0.041631144 2.0239879e-39 336 272
0.022235774 0.74599999 -0.04185557 2.0239879e-39 337 272
0.023543758 0.74599999 -0.04185557 1.8413945e-39 338 272
0.024885058 0.74699998 -0.041911677 1.8413945e-39 339 272
0.026194798 0.74699998 -0.041911677 1.5666026e-39 340 272
0.027504537 0.74699998 -0.041911677 1.5666026e-39 341 272
0.028814279 0.74699998 -0.041911677 1.7509967e-39 342 272
0.030124018 0.74699998 -0.041911677 1.7509967e-39 343 272
0.031517919 0.74900001 -0.042023893 1.8431909e-39 344 272
0.032831166 0.74900001 -0.042023893 1.9353866e-39 345 272
0.034372345 0.75400001 -0.042304426 1.9357425e-39 346 272
0.035694357 0.75400001 -0.042304426 1.8435469e-39 347 272
0.037065465 0.755 -0.042360533 2.1190576e-39 348 272
0.038490929 0.75700003 -0.042472746 2.1190576e-39 349 272
0.039818201 0.75700003 -0.042472746 2.1187016e-39 350 272
0.041145474 0.75700003 -0.042472746 2.2108973e-39 351 272
0.042697169 0.76099998 -0.042697169 2.3030929e-39 352 272
0.044031456 0.76099998 -0.042697169 2.1187016e-39 353 272
-0.0078268806 0.74400002 -0.043047838 4.9763934e-39 314 273
-0.0065048663 0.74199998 -0.042932119 4.9763934e-39 315 273
-0.0052038929 0.74199998 -0.042932119 4.9756745e-39 316 273
-0.0039029196 0.74199998 -0.042932119 4.7912819e-39 317 273
-0.0026019465 0.74199998 -0.042932119 4.332103e-39 318 273
-0.0013079866 0.74599999 -0.04316356 4.0555161e-39 319 273
0 0.74599999 -0.04316356 3.3172448e-39 320 273
0.0013079866 0.74599999 -0.04316356 3.3172448e-39 321 273
0.0026159731 0.74599999 -0.04316356 2.9484805e-39 322 273
0.0039239596 0.74599999 -0.04316356 2.9484805e-39 323 273
0.0052038929 0.74199998 -0.042932119 2.9477616e-39 324 273
0.0065048663 0.74199998 -0.042932119 2.6711748e-39 325 273
0.0077953199 0.741 -0.042874258 2.3963773e-39 326 273
0.0090945391 0.741 -0.042874258 2.1201492e-39 327 273
0.010393759 0.741 -0.042874258 2.0261529e-39 328 273
0.01166142 0.73900002 -0.042758539 1.9339558e-39 329 273
0.012957133 0.73900002 -0.042758539 1.6577263e-39 330 273
0.01429142 0.741 -0.042874258 1.5655306e-39 331 273
0.015611678 0.74199998 -0.042932119 1.4729791e-39 332 273
0.016889861 0.741 -0.042874258 1.4729791e-39 333 273
0.018189078 0.741 -0.042874258 1.6566473e-39 334 273
0.019488299 0.741 -0.042874258 1.6566473e-39 335 273
0.020815572 0.74199998 -0.042932119 1.8406728e-39 336 273
0.022235774 0.74599999 -0.04316356 2.1168996e-39 337 273
0.023543758 0.74599999 -0.04316356 1.7502722e-39 338 273
0.024851745 0.74599999 -0.04316356 1.9346621e-39 339 273
0.026159734 0.74599999 -0.04316356 1.7509911e-39 340 273
0.027504537 0.74699998 -0.043221418 1.7509911e-39 341 273
0.028814279 0.74699998 -0.043221418 1.934309e-39 342 273
0.030124018 0.74699998 -0.043221418 2.026506e-39 343 273
0.031517919 0.74900001 -0.04333714 1.751717e-39 344 273
0.032831166 0.74900001 -0.04333714 1.8439126e-39 345 273
0.034144413 0.74900001 -0.04333714 1.8435469e-39 346 273
0.035931058 0.759 -0.043915741 1.8435469e-39 347 273
0.03726184 0.759 -0.043915741 1.8431937e-39 348 273
0.038592618 0.759 -0.043915741 1.8431937e-39 349 273
0.040028598 0.76099998 -0.044031456 2.1187044e-39 350 273
0.041362885 0.76099998 -0.044031456 2.2109001e-39 351 273
0.042697169 0.76099998 -0.044031456 2.3945654e-39 352 273
-0.010393759 0.741 -0.044173479 4.7005296e-39 312 274
-0.0090945391 0.741 -0.044173479 4.608334e-39 313 274
-0.0078058392 0.74199998 -0.044233091 4.7001666e-39 314 274
-0.0065048663 0.74199998 -0.044233091 4.6079696e-39 315 274
-0.0052038929 0.74199998 -0.044233091 4.5154153e-39 316 274
-0.0039029196 0.74199998 -0.044233091 4.4232196e-39 317 274
-0.0026019465 0.74199998 -0.044233091 3.9622443e-39 318 274
-0.0013079866 0.74599999 -0.044471547 3.4090719e-39 319 274
0 0.74599999 -0.044471547 3.1314144e-39 320 274
0.0013079866 0.74599999 -0.044471547 2.6700761e-39 321 274
0.00260896 0.74400002 -0.044352323 2.7611998e-39 322 274
0.0039134403 0.74400002 -0.044352323 2.8533954e-39 323 274
0.0052179201 0.74400002 -0.044352323 2.4864079e-39 324 274
0.0065048663 0.74199998 -0.044233091 2.3942123e-39 325 274
0.0077953199 0.741 -0.044173479 2.0265088e-39 326 274
0.0090945391 0.741 -0.044173479 1.933953e-39 327 274
0.010393759 0.741 -0.044173479 1.9332342e-39 328 274
0.01166142 0.73900002 -0.044054255 1.8410385e-39 329 274
0.012957133 0.73900002 -0.044054255 1.4733322e-39 330 274
0.01429142 0.741 -0.044173479 1.4733322e-39 331 274
0.015611678 0.74199998 -0.044233091 1.4733322e-39 332 274
0.016889861 0.741 -0.044173479 1.4733322e-39 333 274
0.018189078 0.741 -0.044173479 1.6566445e-39 334 274
0.019488299 0.741 -0.044173479 1.8413945e-39 335 274
0.020815572 0.74199998 -0.044233091 1.6580794e-39 336 274
0.022235774 0.74599999 -0.044471547 1.9343062e-39 337 274
0.023543758 0.74599999 -0.044471547 1.7509939e-39 338 274
0.024851745 0.74599999 -0.044471547 1.8431909e-39 339 274
0.026159734 0.74599999 -0.044471547 1.9346621e-39 340 274
0.027504537 0.74699998 -0.044531155 1.9346621e-39 341 274
0.028814279 0.74699998 -0.044531155 1.9335901e-39 342 274
0.030124018 0.74699998 -0.044531155 2.0257857e-39 343 274
0.031433757 0.74699998 -0.044531155 1.8431937e-39 344 274
0.032962665 0.75199997 -0.044829223 1.8431937e-39 345 274
0.034600276 0.759 -0.045246519 2.0265032e-39 346 274
0.035931058 0.759 -0.045246519 1.9343062e-39 347 274
-0.010393759 0.741 -0.045472696 4.3317499e-39 312 275
-0.0090945391 0.741 -0.045472696 4.1473586e-39 313 275
-0.0078058392 0.74199998 -0.045534063 4.238478e-39 314 275
-0.0065048663 0.74199998 -0.045534063 3.9618911e-39 315 275
-0.0052038929 0.74199998 -0.045534063 3.7775027e-39 316 275
-0.0039029196 0.74199998 -0.045534063 3.4087216e-39 317 275
-0.00260896 0.74400002 -0.0456568 3.1317802e-39 318 275
-0.0013079866 0.74599999 -0.045779534 2.762999e-39 319 275
0 0.74400002 -0.0456568 2.3009475e-39 320 275
0.00130448 0.74400002 -0.0456568 2.1161961e-39 321 275
0.00260896 0.74400002 -0.0456568 1.5658992e-39 322 275
0.0038976599 0.741 -0.045472696 1.6580948e-39 323 275
0.0051828534 0.73900002 -0.045349967 1.6580948e-39 324 275
0.0064785667 0.73900002 -0.045349967 1.5658992e-39 325 275
0.0077742799 0.73900002 -0.045349967 1.6577291e-39 326 275
0.0090699932 0.73900002 -0.045349967 1.6577291e-39 327 275
0.010365707 0.73900002 -0.045349967 1.5662467e-39 328 275
0.01169298 0.741 -0.045472696 1.4740511e-39 329 275
0.0129922 0.741 -0.045472696 1.6580794e-39 330 275
0.01429142 0.741 -0.045472696 1.6580794e-39 331 275
0.01559064 0.741 -0.045472696 1.6580766e-39 332 275
0.016889861 0.741 -0.045472696 1.6580766e-39 333 275
0.018189078 0.741 -0.045472696 1.9339432e-39 334 275
0.0195146 0.74199998 -0.045534063 1.9339432e-39 335 275
0.020815572 0.74199998 -0.045534063 1.9339432e-39 336 275
0.022235774 0.74599999 -0.045779534 2.0261389e-39 337 275
0.023543758 0.74599999 -0.045779534 2.0257829e-39 338 275
0.024851745 0.74599999 -0.045779534 2.1183387e-39 339 275
0.026159734 0.74599999 -0.045779534 2.0257829e-39 340 275
0.027504537 0.74699998 -0.045840897 2.0257829e-39 341 275
0.028814279 0.74699998 -0.045840897 2.0257857e-39 342 275
0.030204674 0.74900001 -0.045963634 2.0257857e-39 343 275
0.03156 0.75 -0.046024997 2.0257857e-39 344 275
0.032962665 0.75199997 -0.04614773 2.0257857e-39 345 275
0.034372345 0.75400001 -0.046270464 2.1183387e-39 346 275
-0.009106813 0.74199998 -0.046835039 3.7775027e-39 313 276
-0.0078058392 0.74199998 -0.046835039 3.407644e-39 314 276
-0.0065048663 0.74199998 -0.046835039 3.2232541e-39 315 276
-0.0052038929 0.74199998 -0.046835039 2.9463141e-39 316 276
-0.0039029196 0.74199998 -0.046835039 2.7619214e-39 317 276
-0.00260896 0.74400002 -0.046961278 2.5768113e-39 318 276
-0.00130448 0.74400002 -0.046961278 2.2080288e-39 319 276
0 0.74199998 -0.046835039 2.206947e-39 320 276
0.0013009732 0.74199998 -0.046835039 2.0229159e-39 321 276
0.0025984398 0.741 -0.046771921 1.7488457e-39 322 276
0.0038976599 0.741 -0.046771921 1.7488457e-39 323 276
0.0051828534 0.73900002 -0.046645679 1.6566501e-39 324 276
0.0064785667 0.73900002 -0.046645679 1.7488457e-39 325 276
0.0077742799 0.73900002 -0.046645679 1.7488429e-39 326 276
0.0090699932 0.73900002 -0.046645679 1.8410385e-39 327 276
0.0129922 0.741 -0.046771921 1.475486e-39 330 276
0.01429142 0.741 -0.046771921 1.5676816e-39 331 276
0.01559064 0.741 -0.046771921 1.5680348e-39 332 276
0.016889861 0.741 -0.046771921 1.5680348e-39 333 276
0.018189078 0.741 -0.046771921 1.8435469e-39 334 276
0.019488299 0.741 -0.046771921 1.7509911e-39 335 276
0.020787518 0.741 -0.046771921 1.934309e-39 336 276
0.022265578 0.74699998 -0.047150634 1.7502778e-39 337 276
0.023575317 0.74699998 -0.047150634 2.0257857e-39 338 276
0.024885058 0.74699998 -0.047150634 2.0257857e-39 339 276
0.026194798 0.74699998 -0.047150634 2.0257857e-39 340 276
0.027578179 0.74900001 -0.047276881 2.0257857e-39 341 276
0.028891427 0.74900001 -0.047276881 2.0257857e-39 342 276
0.030204674 0.74900001 -0.047276881 2.0257857e-39 343 276
0.03156 0.75 -0.047339998 2.0257829e-39 344 276
0.032962665 0.75199997 -0.047466237 2.1183387e-39 345 276
-0.0078268806 0.74400002 -0.048265759 2.4864135e-39 314 277
-0.0065048663 0.74199998 -0.048136011 2.3016636e-39 315 277
-0.0052038929 0.74199998 -0.048136011 2.0261557e-39 316 277
-0.0039029196 0.74199998 -0.048136011 1.7499275e-39 317 277
-0.0026019465 0.74199998 -0.048136011 1.7484898e-39 318 277
-0.0013009732 0.74199998 -0.048136011 1.472263e-39 319 277
0 0.74199998 -0.048136011 1.6566501e-39 320 277
0.0013009732 0.74199998 -0.048136011 1.6566501e-39 321 277
0.0025984398 0.741 -0.048071139 1.2900228e-39 322 277
0.0038976599 0.741 -0.048071139 1.4740539e-39 323 277
0.0051828534 0.73900002 -0.047941394 1.5662467e-39 324 277
0.0064785667 0.73900002 -0.047941394 1.5662467e-39 325 277
0.0077742799 0.73900002 -0.047941394 1.6587983e-39 326 277
0.0090699932 0.73900002 -0.047941394 1.6587983e-39 327 277
0.014310705 0.74199998 -0.048136011 1.7509911e-39 331 277
0.015611678 0.74199998 -0.048136011 1.7509911e-39 332 277
0.016912652 0.74199998 -0.048136011 1.7509911e-39 333 277
0.018213626 0.74199998 -0.048136011 2.0268591e-39 334 277
0.0195146 0.74199998 -0.048136011 2.0268591e-39 335 277
0.022325192 0.74900001 -0.048590127 1.9339432e-39 337 277
0.02363844 0.74900001 -0.048590127 2.0261389e-39 338 277
0.024951685 0.74900001 -0.048590127 2.0261389e-39 339 277
-0.0052038929 0.74199998 -0.049436983 1.5662467e-39 316 278
-0.0039029196 0.74199998 -0.049436983 1.4740511e-39 317 278
-0.0026019465 0.74199998 -0.049436983 1.5655278e-39 318 278
-0.0013009732 0.74199998 -0.049436983 1.4733322e-39 319 278
0 0.74199998 -0.049436983 1.474407e-39 320 278
0.0013009732 0.74199998 -0.049436983 1.5666026e-39 321 278
0.0026019465 0.74199998 -0.049436983 1.6587955e-39 322 278
0.0064785667 0.73900002 -0.049237106 1.8435469e-39 325 278
0.0077742799 0.73900002 -0.049237106 1.8435469e-39 326 278
0.0090699932 0.73900002 -0.049237106 1.8435469e-39 327 278
0.010365707 0.73900002 -0.049237106 1.7517142e-39 328 278
0.01434928 0.74400002 -0.04957024 2.0268591e-39 331 278
0.018311813 0.74599999 -0.04970349 2.0268591e-39 334 278
-0.036406212 0.71600002 -0.051470853 6.2642483e-39 291 281
-0.035150826 0.71600002 -0.051470853 6.3578817e-39 292 281
-0.01647958 0.72299999 -0.051974058 2.0247039e-39 307 281
-0.015211919 0.72299999 -0.051974058 1.7491988e-39 308 281
-0.039134402 0.72000003 -0.053020801 6.7248706e-39 289 282
-0.037871998 0.72000003 -0.053020801 6.5394059e-39 290 282
-0.036406212 0.71600002 -0.052726239 6.5394059e-39 291 282
-0.035150826 0.71600002 -0.052726239 6.2646113e-39 292 282
-0.017747238 0.72299999 -0.053241719 1.750275e-39 306 282
-0.01647958 0.72299999 -0.053241719 1.750275e-39 307 282
-0.015190879 0.722 -0.053168077 1.750275e-39 308 282
-0.013924973 0.722 -0.053168077 1.750275e-39 309 282
-0.040228479 0.71700001 -0.054057021 6.4450425e-39 288 283
-0.038916986 0.71600002 -0.053981625 6.0762614e-39 289 283
-0.037661601 0.71600002 -0.053981625 5.8933176e-39 290 283
-0.036304519 0.71399999 -0.053830836 5.8933176e-39 291 283
-0.035052639 0.71399999 -0.053830836 5.528128e-39 292 283
-0.021460801 0.72000003 -0.054283202 1.9335873e-39 303 283
-0.020198401 0.72000003 -0.054283202 1.750275e-39 304 283
-0.0189886 0.722 -0.054433983 1.9343062e-39 305 283
-0.017722692 0.722 -0.054433983 2.0265032e-39 306 283
-0.016456785 0.722 -0.054433983 2.0265032e-39 307 283
-0.015190879 0.722 -0.054433983 2.1190547e-39 308 283
-0.013924973 0.722 -0.054433983 2.1190547e-39 309 283
-0.012659066 0.722 -0.054433983 2.1190576e-39 310 283
-0.01139316 0.722 -0.054433983 2.1190576e-39 311 283
-0.041485619 0.71700001 -0.055314157 5.89474e-39 287 284
-0.040228479 0.71700001 -0.055314157 5.7993171e-39 288 284
-0.038916986 0.71600002 -0.055237014 5.4308947e-39 289 284
-0.037661601 0.71600002 -0.055237014 4.8806076e-39 290 284
-0.036304519 0.71399999 -0.05508272 4.788412e-39 291 284
-0.035052639 0.71399999 -0.05508272 4.6962164e-39 292 284
-0.03389544 0.71600002 -0.055237014 3.7742601e-39 293 284
-0.021430992 0.71899998 -0.055468451 1.8435469e-39 303 284
-0.020170346 0.71899998 -0.055468451 1.8431909e-39 304 284
-0.018935999 0.72000003 -0.055545598 1.8431909e-39 305 284
-0.017673599 0.72000003 -0.055545598 2.0265032e-39 306 284
-0.016456785 0.722 -0.055699892 2.0265032e-39 307 284
-0.015190879 0.722 -0.055699892 2.0265032e-39 308 284
-0.013924973 0.722 -0.055699892 2.0265032e-39 309 284
-0.012659066 0.722 -0.055699892 2.1183387e-39 310 284
-0.01139316 0.722 -0.055699892 2.1183387e-39 311 284
-0.041427758 0.71600002 -0.056492399 4.5136202e-39 287 285
-0.040172372 0.71600002 -0.056492399 4.3277996e-39 288 285
-0.038916986 0.71600002 -0.056492399 4.1434083e-39 289 285
-0.037661601 0.71600002 -0.056492399 3.3161714e-39 290 285
-0.036406212 0.71600002 -0.056492399 3.1317802e-39 291 285
-0.035150826 0.71600002 -0.056492399 3.0385125e-39 292 285
-0.03389544 0.71600002 -0.056492399 2.4853388e-39 293 285
-0.032640055 0.71600002 -0.056492399 2.3016636e-39 294 285
-0.022691639 0.71899998 -0.056729097 1.8431937e-39 302 285
-0.021430992 0.71899998 -0.056729097 1.9353894e-39 303 285
-0.020170346 0.71899998 -0.056729097 2.1187016e-39 304 285
-0.018935999 0.72000003 -0.056808002 2.026506e-39 305 285
-0.017673599 0.72000003 -0.056808002 2.026506e-39 306 285
-0.016456785 0.722 -0.056965802 2.026506e-39 307 285
-0.015190879 0.722 -0.056965802 2.1179828e-39 308 285
-0.013924973 0.722 -0.056965802 2.1179828e-39 309 285
-0.012659066 0.722 -0.056965802 2.0265032e-39 310 285
-0.01139316 0.722 -0.056965802 2.1190576e-39 311 285
-0.071357153 0.71399999 -0.057586476 1.0501301e-38 263 286
-0.069810718 0.71100003 -0.057344519 8.1899169e-39 264 286
-0.068564095 0.71100003 -0.057344519 5.7931893e-39 265 286
-0.067317478 0.71100003 -0.057344519 2.858768e-39 266 286
-0.066070862 0.71100003 -0.057344519 2.2133986e-39 267 286
-0.060998458 0.70999998 -0.057263866 2.5789567e-39 271 286
-0.059753593 0.70999998 -0.057263866 2.5789595e-39 272 286
-0.041427758 0.71600002 -0.057747785 3.8653767e-39 287 286
-0.040172372 0.71600002 -0.057747785 3.4966012e-39 288 286
-0.038808275 0.71399999 -0.057586476 3.4966012e-39 289 286
-0.037556399 0.71399999 -0.057586476 2.7622718e-39 290 286
-0.036304519 0.71399999 -0.057586476 2.486045e-39 291 286
-0.035052639 0.71399999 -0.057586476 2.5768057e-39 292 286
-0.033800758 0.71399999 -0.057586476 2.5768057e-39 293 286
-0.032548878 0.71399999 -0.057586476 2.3012978e-39 294 286
-0.022691639 0.71899998 -0.057989739 2.026506e-39 302 286
-0.021430992 0.71899998 -0.057989739 2.026506e-39 303 286
-0.020170346 0.71899998 -0.057989739 2.1179828e-39 304 286
-0.018909698 0.71899998 -0.057989739 2.3020139e-39 305 286
-0.017649053 0.71899998 -0.057989739 2.1179828e-39 306 286
-0.0164112 0.72000003 -0.058070403 2.1179828e-39 307 286
-0.015190879 0.722 -0.058231708 2.0265032e-39 308 286
-0.013924973 0.722 -0.058231708 2.0265032e-39 309 286
-0.012676599 0.72299999 -0.058312356 2.0265032e-39 310 286
-0.01140894 0.72299999 -0.058312356 2.1190576e-39 311 286
-0.072609037 0.71399999 -0.058838356 8.8525727e-39 262 287
-0.071357153 0.71399999 -0.058838356 9.8670848e-39 263 287
-0.069810718 0.71100003 -0.058591139 9.0258012e-39 264 287
-0.068467662 0.70999998 -0.058508728 6.075181e-39 265 287
-0.067222796 0.70999998 -0.058508728 4.2366578e-39 266 287
-0.065977924 0.70999998 -0.058508728 3.7760383e-39 267 287
-0.064733058 0.70999998 -0.058508728 2.7629724e-39 268 287
-0.063488193 0.70999998 -0.058508728 2.7629724e-39 269 287
-0.062243331 0.70999998 -0.058508728 2.2116161e-39 270 287
-0.060998458 0.70999998 -0.058508728 2.3038117e-39 271 287
-0.059753593 0.70999998 -0.058508728 2.5789567e-39 272 287
-0.041080594 0.70999998 -0.058508728 2.4856891e-39 287 287
-0.039835732 0.70999998 -0.058508728 2.3942123e-39 288 287
-0.038753927 0.713 -0.058755953 2.3020167e-39 289 287
-0.037398599 0.71100003 -0.058591139 2.3020139e-39 290 287
-0.036151983 0.71100003 -0.058591139 2.3020139e-39 291 287
-0.035003547 0.713 -0.058755953 2.1187016e-39 292 287
-0.033753417 0.713 -0.058755953 2.026506e-39 293 287
-0.032503292 0.713 -0.058755953 2.026506e-39 294 287
-0.031253166 0.713 -0.058755953 2.1187016e-39 295 287
-0.030003037 0.713 -0.058755953 2.1194205e-39 296 287
-0.02262852 0.71700001 -0.059085581 2.1183387e-39 302 287
-0.021371379 0.71700001 -0.059085581 2.1183387e-39 303 287
-0.020170346 0.71899998 -0.059250388 2.1179828e-39 304 287
-0.018909698 0.71899998 -0.059250388 2.1179828e-39 305 287
-0.017649053 0.71899998 -0.059250388 1.9353866e-39 306 287
-0.0164112 0.72000003 -0.059332799 1.9353866e-39 307 287
-0.015190879 0.722 -0.059497613 2.1190547e-39 308 287
-0.01394426 0.72299999 -0.059580017 2.1190547e-39 309 287
-0.012676599 0.72299999 -0.059580017 2.3945626e-39 310 287
-0.074067809 0.71600002 -0.06025856 2.3052635e-39 261 288
-0.072609037 0.71399999 -0.060090236 3.7929744e-39 262 288
-0.071257219 0.713 -0.060006075 7.6651909e-39 263 288
-0.069810718 0.71100003 -0.059837762 9.3981963e-39 264 288
-0.068467662 0.70999998 -0.059753593 6.3557405e-39 265 288
-0.067222796 0.70999998 -0.059753593 3.7828851e-39 266 288
-0.065977924 0.70999998 -0.059753593 2.4921463e-39 267 288
-0.064733058 0.70999998 -0.059753593 2.6725789e-39 268 288
-0.063488193 0.70999998 -0.059753593 2.3037963e-39 269 288
-0.062243331 0.70999998 -0.059753593 2.4867583e-39 270 288
-0.060998458 0.70999998 -0.059753593 2.3945626e-39 271 288
-0.059753593 0.70999998 -0.059753593 2.3041677e-39 272 288
-0.050608214 0.704 -0.059248637 2.301295e-39 279 288
-0.049373865 0.704 -0.059248637 2.8526723e-39 280 288
-0.048139516 0.704 -0.059248637 2.944868e-39 281 288
-0.043202132 0.704 -0.059248637 2.2108973e-39 285 288
-0.041967787 0.704 -0.059248637 2.3938466e-39 286 288
-0.040733438 0.704 -0.059248637 2.3938466e-39 287 288
-0.039723519 0.708 -0.059585281 2.2112504e-39 288 288
-0.038590867 0.70999998 -0.059753593 2.1190547e-39 289 288
-0.037345998 0.70999998 -0.059753593 2.2112504e-39 290 288
-0.036101133 0.70999998 -0.059753593 2.2112504e-39 291 288
-0.034905359 0.71100003 -0.059837762 1.9353866e-39 292 288
-0.033658739 0.71100003 -0.059837762 1.8431909e-39 293 288
-0.032412119 0.71100003 -0.059837762 2.1179828e-39 294 288
-0.031165501 0.71100003 -0.059837762 2.1179828e-39 295 288
-0.030003037 0.713 -0.060006075 2.026506e-39 296 288
-0.025107734 0.71600002 -0.06025856 2.1183359e-39 300 288
-0.023852346 0.71600002 -0.06025856 2.302367e-39 301 288
-0.02262852 0.71700001 -0.060342718 2.1190547e-39 302 288
-0.021371379 0.71700001 -0.060342718 2.1190547e-39 303 288
-0.020198401 0.72000003 -0.060595199 2.2112504e-39 304 288
-0.0189886 0.722 -0.060763516 2.2112504e-39 305 288
-0.017747238 0.72299999 -0.060847677 2.1197764e-39 306 288
-0.01647958 0.72299999 -0.060847677 2.211972e-39 307 288
-0.074067809 0.71600002 -0.061513945 7.7379491e-39 261 289
-0.072507344 0.713 -0.061256204 4.4268322e-39 262 289
-0.070957392 0.70999998 -0.060998458 5.717571e-39 263 289
-0.069712527 0.70999998 -0.060998458 6.5430185e-39 264 289
-0.068467662 0.70999998 -0.060998458 5.5285078e-39 265 289
-0.067222796 0.70999998 -0.060998458 4.3303023e-39 266 289
-0.065977924 0.70999998 -0.060998458 3.7774873e-39 267 289
-0.064733058 0.70999998 -0.060998458 3.3157805e-39 268 289
-0.063488193 0.70999998 -0.060998458 2.8548023e-39 269 289
-0.062243331 0.70999998 -0.060998458 2.4871142e-39 270 289
-0.060998458 0.70999998 -0.060998458 2.4871142e-39 271 289
-0.059585281 0.708 -0.060826641 2.3034488e-39 272 289
-0.058343921 0.708 -0.060826641 2.3034488e-39 273 289
-0.053227689 0.70599997 -0.060654808 1.9343062e-39 277 289
-0.051989835 0.70599997 -0.060654808 2.026506e-39 278 289
-0.050608214 0.704 -0.060482983 1.934309e-39 279 289
-0.049373865 0.704 -0.060482983 2.3012978e-39 280 289
-0.048139516 0.704 -0.060482983 2.3934934e-39 281 289
-0.044562716 0.70599997 -0.060654808 2.0265088e-39 284 289
-0.043202132 0.704 -0.060482983 2.0265088e-39 285 289
-0.041967787 0.704 -0.060482983 1.8431909e-39 286 289
-0.040733438 0.704 -0.060482983 1.8431909e-39 287 289
-0.039723519 0.708 -0.060826641 1.9353866e-39 288 289
-0.038590867 0.70999998 -0.060998458 2.1197764e-39 289 289
-0.037345998 0.70999998 -0.060998458 2.1190547e-39 290 289
-0.036101133 0.70999998 -0.060998458 2.2112504e-39 291 289
-0.034905359 0.71100003 -0.061084379 2.0265032e-39 292 289
-0.033658739 0.71100003 -0.061084379 2.0265032e-39 293 289
-0.032412119 0.71100003 -0.061084379 2.1179828e-39 294 289
-0.031165501 0.71100003 -0.061084379 2.1179828e-39 295 289
-0.029918881 0.71100003 -0.061084379 2.1179828e-39 296 289
-0.028873893 0.71600002 -0.061513945 2.1179828e-39 297 289
-0.027734226 0.71899998 -0.061771683 1.8431909e-39 298 289
-0.02647358 0.71899998 -0.061771683 1.9353866e-39 299 289
-0.025107734 0.71600002 -0.061513945 2.1197736e-39 300 289
-0.023852346 0.71600002 -0.061513945 2.1197736e-39 301 289
-0.02262852 0.71700001 -0.061599858 2.2119692e-39 302 289
-0.021460801 0.72000003 -0.061857603 2.2119692e-39 303 289
-0.020198401 0.72000003 -0.061857603 2.3041649e-39 304 289
-0.073447131 0.70999998 -0.062243331 1.1056989e-38 261 290
-0.072202265 0.70999998 -0.062243331 8.1060296e-39 262 290
-0.070757516 0.708 -0.062068 4.0494205e-39 263 290
-0.069516152 0.708 -0.062068 2.9488364e-39 264 290
-0.068274796 0.708 -0.062068 3.6864015e-39 265 290
-0.067033432 0.708 -0.062068 3.7771468e-39 266 290
-0.065792084 0.708 -0.062068 3.4087244e-39 267 290
-0.06455072 0.708 -0.062068 3.2243135e-39 268 290
-0.063309364 0.708 -0.062068 2.9473679e-39 269 290
-0.062068 0.708 -0.062068 2.7622592e-39 270 290
-0.060826641 0.708 -0.062068 2.6697048e-39 271 290
-0.059585281 0.708 -0.062068 2.6704293e-39 272 290
-0.05826151 0.70700002 -0.061980337 2.4860394e-39 273 290
-0.057021905 0.70700002 -0.061980337 2.4860394e-39 274 290
-0.055703394 0.70599997 -0.061892662 2.3016481e-39 275 290
-0.054465543 0.70599997 -0.061892662 2.3016481e-39 276 290
-0.053227689 0.70599997 -0.061892662 2.2094511e-39 277 290
-0.051989835 0.70599997 -0.061892662 2.0261389e-39 278 290
-0.050608214 0.704 -0.061717331 2.1183359e-39 279 290
-0.049373865 0.704 -0.061717331 2.1183359e-39 280 290
-0.048139516 0.704 -0.061717331 2.302367e-39 281 290
-0.046838548 0.70300001 -0.061629668 2.1190547e-39 282 290
-0.04560595 0.70300001 -0.061629668 2.1190547e-39 283 290
-0.044436477 0.704 -0.061717331 1.8435469e-39 284 290
-0.043202132 0.704 -0.061717331 1.8435469e-39 285 290
-0.041967787 0.704 -0.061717331 2.0268591e-39 286 290
-0.040733438 0.704 -0.061717331 2.0268591e-39 287 290
-0.039723519 0.708 -0.062068 2.1183387e-39 288 290
-0.038482159 0.708 -0.062068 2.3023698e-39 289 290
-0.037345998 0.70999998 -0.062243331 2.3023698e-39 290 290
-0.036101133 0.70999998 -0.062243331 2.3023698e-39 291 290
-0.034856264 0.70999998 -0.062243331 2.1183387e-39 292 290
-0.033658739 0.71100003 -0.062331002 2.1183387e-39 293 290
-0.032412119 0.71100003 -0.062331002 2.1183359e-39 294 290
-0.031165501 0.71100003 -0.062331002 2.1183359e-39 295 290
-0.030003037 0.713 -0.062506333 2.3938438e-39 296 290
-0.028873893 0.71600002 -0.062769331 2.3938438e-39 297 290
-0.027618507 0.71600002 -0.062769331 2.2112504e-39 298 290
-0.02639994 0.71700001 -0.062856995 2.303446e-39 299 290
-0.025212931 0.71899998 -0.063032329 2.3045208e-39 300 290
-0.023952285 0.71899998 -0.063032329 2.3967164e-39 301 290
-0.022691639 0.71899998 -0.063032329 2.6725817e-39 302 290
-0.072202265 0.70999998 -0.063488193 8.9347e-39 262 291
-0.070757516 0.708 -0.063309364 5.9840811e-39 263 291
-0.069516152 0.708 -0.063309364 3.3194112e-39 264 291
-0.068274796 0.708 -0.063309364 2.8584345e-39 265 291
-0.067033432 0.708 -0.063309364 3.4998396e-39 266 291
-0.065792084 0.708 -0.063309364 3.407644e-39 267 291
-0.06455072 0.708 -0.063309364 3.315077e-39 268 291
-0.063309364 0.708 -0.063309364 3.2228814e-39 269 291
-0.062068 0.708 -0.063309364 3.037767e-39 270 291
-0.060826641 0.708 -0.063309364 2.9455714e-39 271 291
-0.059585281 0.708 -0.063309364 2.9452155e-39 272 291
-0.05826151 0.70700002 -0.063219935 2.9452155e-39 273 291
-0.057021905 0.70700002 -0.063219935 2.4871142e-39 274 291
-0.055545598 0.704 -0.062951677 2.3949186e-39 275 291
-0.054311249 0.704 -0.062951677 2.3938438e-39 276 291
-0.053076904 0.704 -0.062951677 2.3016481e-39 277 291
-0.051842559 0.704 -0.062951677 2.0268591e-39 278 291
-0.050608214 0.704 -0.062951677 2.1190547e-39 279 291
-0.049373865 0.704 -0.062951677 2.1197764e-39 280 291
-0.048139516 0.704 -0.062951677 1.8431909e-39 281 291
-0.046838548 0.70300001 -0.062862262 2.0265032e-39 282 291
-0.04560595 0.70300001 -0.062862262 2.0265032e-39 283 291
-0.044436477 0.704 -0.062951677 2.0265032e-39 284 291
-0.043202132 0.704 -0.062951677 2.0265032e-39 285 291
-0.041967787 0.704 -0.062951677 2.026506e-39 286 291
-0.040733438 0.704 -0.062951677 2.026506e-39 287 291
-0.039723519 0.708 -0.063309364 2.026506e-39 288 291
-0.038482159 0.708 -0.063309364 2.1187016e-39 289 291
-0.0372408 0.708 -0.063309364 2.3020139e-39 290 291
-0.036101133 0.70999998 -0.063488193 2.3020139e-39 291 291
-0.034856264 0.70999998 -0.063488193 2.1190576e-39 292 291
-0.033658739 0.71100003 -0.063577622 2.1190576e-39 293 291
-0.032412119 0.71100003 -0.063577622 2.3023698e-39 294 291
-0.031165501 0.71100003 -0.063577622 2.3945654e-39 295 291
-0.030003037 0.713 -0.063756458 2.303446e-39 296 291
-0.028873893 0.71600002 -0.064024724 2.3956416e-39 297 291
-0.027618507 0.71600002 -0.064024724 2.3963633e-39 298 291
-0.070757516 0.708 -0.06455072 5.8962015e-39 263 292
-0.069516152 0.708 -0.06455072 4.4221532e-39 264 292
-0.068274796 0.708 -0.06455072 3.7767838e-39 265 292
-0.067033432 0.708 -0.06455072 3.0399348e-39 266 292
-0.065792084 0.708 -0.06455072 2.9477392e-39 267 292
-0.06455072 0.708 -0.06455072 2.6718726e-39 268 292
-0.063309364 0.708 -0.06455072 2.6718726e-39 269 292
-0.062068 0.708 -0.06455072 2.7637025e-39 270 292
-0.060826641 0.708 -0.06455072 2.6715055e-39 271 292
-0.059501119 0.70700002 -0.064459547 2.762978e-39 272 292
-0.058179103 0.70599997 -0.064368367 2.762978e-39 273 292
-0.056779943 0.704 -0.064186029 2.762978e-39 274 292
-0.055545598 0.704 -0.064186029 2.6704237e-39 275 292
-0.054311249 0.704 -0.064186029 2.4871114e-39 276 292
-0.053076904 0.704 -0.064186029 2.4871114e-39 277 292
-0.051842559 0.704 -0.064186029 2.1197708e-39 278 292
-0.050608214 0.704 -0.064186029 2.1197708e-39 279 292
-0.049373865 0.704 -0.064186029 2.1190576e-39 280 292
-0.048139516 0.704 -0.064186029 2.1190576e-39 281 292
-0.046838548 0.70300001 -0.064094849 2.0265088e-39 282 292
-0.04560595 0.70300001 -0.064094849 2.1187044e-39 283 292
-0.04437336 0.70300001 -0.064094849 2.026506e-39 284 292
-0.043202132 0.704 -0.064186029 2.1187016e-39 285 292
-0.041967787 0.704 -0.064186029 2.1187016e-39 286 292
-0.040733438 0.704 -0.064186029 2.1187016e-39 287 292
-0.039667413 0.70700002 -0.064459547 2.3020139e-39 288 292
-0.038482159 0.708 -0.06455072 2.3020139e-39 289 292
-0.0372408 0.708 -0.06455072 2.3945654e-39 290 292
-0.036101133 0.70999998 -0.064733058 2.4867611e-39 291 292
-0.034856264 0.70999998 -0.064733058 2.3949186e-39 292 292
-0.033658739 0.71100003 -0.064824238 2.3949186e-39 293 292
-0.032412119 0.71100003 -0.064824238 2.579307e-39 294 292
-0.031165501 0.71100003 -0.064824238 2.7640584e-39 295 292
-0.030045118 0.71399999 -0.065097757 3.0395635e-39 296 292
-0.069712527 0.70999998 -0.065977924 4.4228693e-39 264 293
-0.068274796 0.708 -0.065792084 3.4090775e-39 265 293
-0.067033432 0.708 -0.065792084 2.7647899e-39 266 293
-0.065792084 0.708 -0.065792084 2.3038117e-39 267 293
-0.06455072 0.708 -0.065792084 2.5786036e-39 268 293
-0.063309364 0.708 -0.065792084 2.6711579e-39 269 293
-0.062068 0.708 -0.065792084 2.6711523e-39 270 293
-0.060826641 0.708 -0.065792084 2.5789567e-39 271 293
-0.059416957 0.70599997 -0.065606222 2.761906e-39 272 293
