# .PCD v.7 - Point Cloud Data file format
FIELDS x y z rgb imX imY
SIZE 4 4 4 4 4 4
TYPE F F F F F F
COUNT 1 1 1 1 1 1
WIDTH 837
HEIGHT 1
VIEWPOINT 0 0 0 1 0 0 0
POINTS 837
DATA ascii
0.029559445 0.73299998 -0.043696571 7.3756504e-40 343 274
0.03076048 0.73100001 -0.043577347 7.3756504e-40 344 274
0.032042164 0.73100001 -0.043577347 7.3756504e-40 345 274
0.033415023 0.73299998 -0.043696571 7.3756504e-40 346 274
0.034700219 0.73299998 -0.043696571 7.3756504e-40 347 274
0.036034506 0.73400003 -0.043756187 8.2868167e-40 348 274
0.037321456 0.73400003 -0.043756187 9.208773e-40 349 274
0.038608398 0.73400003 -0.043756187 7.3756504e-40 350 274
0.040004052 0.736 -0.043875411 7.3756504e-40 351 274
0.041294504 0.736 -0.043875411 7.3756504e-40 352 274
0.042584959 0.736 -0.043875411 7.3756504e-40 353 274
0.043875411 0.736 -0.043875411 7.3756504e-40 354 274
0.0452886 0.73799998 -0.043994635 7.3756504e-40 355 274
0.046582557 0.73799998 -0.043994635 9.208801e-40 356 274
0.047876518 0.73799998 -0.043994635 9.208801e-40 357 274
0.049170475 0.73799998 -0.043994635 9.208773e-40 358 274
0.050464436 0.73799998 -0.043994635 9.208773e-40 359 274
0.051828533 0.73900002 -0.044054255 9.208773e-40 360 274
0.053124249 0.73900002 -0.044054255 1.0134317e-39 361 274
0.054419957 0.73900002 -0.044054255 1.0134317e-39 362 274
0.055715673 0.73900002 -0.044054255 1.1056273e-39 363 274
0.057165679 0.741 -0.044173479 1.1056273e-39 364 274
0.0584649 0.741 -0.044173479 1.1978243e-39 365 274
0.059602812 0.73900002 -0.044054255 1.1985432e-39 366 274
0.060898528 0.73900002 -0.044054255 1.3829344e-39 367 274
0.062362559 0.741 -0.044173479 2.1187016e-39 368 274
0.063661776 0.741 -0.044173479 2.2108973e-39 369 274
0.065048665 0.74199998 -0.044233091 2.5786036e-39 370 274
0.066349633 0.74199998 -0.044233091 1.7488429e-39 371 274
0.067650609 0.74199998 -0.044233091 1.2006942e-39 372 274
0.068951584 0.74199998 -0.044233091 6.3636495e-39 373 274
0.07025256 0.74199998 -0.044233091 1.3362941e-38 374 274
0.071553528 0.74199998 -0.044233091 1.3546972e-38 375 274
-0.032392833 0.73900002 -0.045349967 3.4116096e-39 295 275
-0.03109712 0.73900002 -0.045349967 3.6867518e-39 296 275
-0.029761078 0.73799998 -0.0452886 3.7789488e-39 297 275
-0.028467119 0.73799998 -0.0452886 4.054091e-39 298 275
-0.027173158 0.73799998 -0.0452886 4.054091e-39 299 275
-0.025879199 0.73799998 -0.0452886 3.9626114e-39 300 275
-0.024518613 0.736 -0.045165867 3.8704144e-39 301 275
-0.023228159 0.736 -0.045165867 3.6878252e-39 302 275
-0.021937706 0.736 -0.045165867 3.5034339e-39 303 275
-0.020703359 0.73799998 -0.0452886 3.6871049e-39 304 275
-0.019409399 0.73799998 -0.0452886 3.779302e-39 305 275
-0.018139986 0.73900002 -0.045349967 3.6878224e-39 306 275
-0.016844273 0.73900002 -0.045349967 3.6878224e-39 307 275
-0.01554856 0.73900002 -0.045349967 3.6871021e-39 308 275
-0.014252847 0.73900002 -0.045349967 3.6871021e-39 309 275
-0.0129922 0.741 -0.045472696 3.8704144e-39 310 275
-0.01169298 0.741 -0.045472696 3.6863833e-39 311 275
-0.010407786 0.74199998 -0.045534063 3.6863861e-39 312 275
-0.009106813 0.74199998 -0.045534063 3.5938317e-39 313 275
-0.0078058392 0.74199998 -0.045534063 3.5016361e-39 314 275
-0.0065048663 0.74199998 -0.045534063 3.5938317e-39 315 275
-0.0052038929 0.74199998 -0.045534063 3.4101593e-39 316 275
-0.0039029196 0.74199998 -0.045534063 3.1339325e-39 317 275
-0.0026019465 0.74199998 -0.045534063 3.0424558e-39 318 275
-0.0013009732 0.74199998 -0.045534063 2.8580645e-39 319 275
0 0.74199998 -0.045534063 3.0410167e-39 320 275
0.00130448 0.74400002 -0.0456568 2.8562667e-39 321 275
0.0026019465 0.74199998 -0.045534063 2.6718754e-39 322 275
0.0038976599 0.741 -0.045472696 2.3956472e-39 323 275
0.0051968796 0.741 -0.045472696 2.1194233e-39 324 275
0.0064785667 0.73900002 -0.045349967 1.9353922e-39 325 275
0.0077427197 0.736 -0.045165867 1.751361e-39 326 275
0.0090331733 0.736 -0.045165867 1.4751329e-39 327 275
0.010295574 0.73400003 -0.045043133 1.4740539e-39 328 275
0.011566739 0.73299998 -0.044981763 1.1974684e-39 329 275
0.012816866 0.73100001 -0.044859033 1.1052714e-39 330 275
0.014098554 0.73100001 -0.044859033 1.0130757e-39 331 275
0.01538024 0.73100001 -0.044859033 1.0127128e-39 332 275
0.016661927 0.73100001 -0.044859033 1.1967439e-39 333 275
0.017919067 0.73000002 -0.044797666 1.0130757e-39 334 275
0.019199001 0.73000002 -0.044797666 9.208801e-40 335 275
0.020478934 0.73000002 -0.044797666 9.208801e-40 336 275
0.021848286 0.73299998 -0.044981763 8.2868447e-40 337 275
0.023133477 0.73299998 -0.044981763 8.2868447e-40 338 275
0.024418673 0.73299998 -0.044981763 9.208801e-40 339 275
0.025703866 0.73299998 -0.044981763 9.2015843e-40 340 275
0.026989058 0.73299998 -0.044981763 1.0127128e-39 341 275
0.028274251 0.73299998 -0.044981763 9.208773e-40 342 275
0.029599773 0.73400003 -0.045043133 9.208773e-40 343 275
0.030886721 0.73400003 -0.045043133 6.4608828e-40 344 275
0.032129832 0.73299998 -0.044981763 6.4608828e-40 345 275
0.033415023 0.73299998 -0.044981763 4.6277321e-40 346 275
0.03474756 0.73400003 -0.045043133 4.6277321e-40 347 275
0.036034506 0.73400003 -0.045043133 7.3792097e-40 348 275
0.037321456 0.73400003 -0.045043133 7.3792097e-40 349 275
0.038608398 0.73400003 -0.045043133 9.208773e-40 350 275
0.039895348 0.73400003 -0.045043133 9.208773e-40 351 275
0.041294504 0.736 -0.045165867 9.208801e-40 352 275
0.042584959 0.736 -0.045165867 1.0130757e-39 353 275
0.043875411 0.736 -0.045165867 1.0130757e-39 354 275
0.0452886 0.73799998 -0.0452886 1.0130757e-39 355 275
0.046456318 0.736 -0.045165867 1.0134317e-39 356 275
0.047746774 0.736 -0.045165867 1.1056273e-39 357 275
0.049170475 0.73799998 -0.0452886 1.1056245e-39 358 275
0.050464436 0.73799998 -0.0452886 1.1978215e-39 359 275
0.051758397 0.73799998 -0.0452886 1.3811338e-39 360 275
0.053124249 0.73900002 -0.045349967 1.3811338e-39 361 275
0.054419957 0.73900002 -0.045349967 1.4736881e-39 362 275
0.055715673 0.73900002 -0.045349967 1.5658838e-39 363 275
0.057011388 0.73900002 -0.045349967 1.6569976e-39 364 275
0.0584649 0.741 -0.045472696 1.8413889e-39 365 275
0.059764117 0.741 -0.045472696 1.5658838e-39 366 275
0.061063338 0.741 -0.045472696 1.750275e-39 367 275
0.062362559 0.741 -0.045472696 1.7506408e-39 368 275
0.063661776 0.741 -0.045472696 1.7506408e-39 369 275
0.065048665 0.74199998 -0.045534063 2.0261557e-39 370 275
0.066349633 0.74199998 -0.045534063 1.2885906e-39 371 275
0.067650609 0.74199998 -0.045534063 1.1967383e-39 372 275
0.068951584 0.74199998 -0.045534063 6.0834668e-39 373 275
0.07025256 0.74199998 -0.045534063 1.3361857e-38 374 275
0.071553528 0.74199998 -0.045534063 1.3638804e-38 375 275
-0.052764814 0.73400003 -0.046330083 3.6856574e-39 279 276
-0.051477864 0.73400003 -0.046330083 3.5945408e-39 280 276
-0.050122537 0.73299998 -0.046266954 3.8707675e-39 281 276
-0.048837345 0.73299998 -0.046266954 3.7796551e-39 282 276
-0.03109712 0.73900002 -0.046645679 3.6878252e-39 296 276
-0.029761078 0.73799998 -0.046582557 3.6878252e-39 297 276
-0.028467119 0.73799998 -0.046582557 3.779302e-39 298 276
-0.027173158 0.73799998 -0.046582557 3.779302e-39 299 276
-0.025879199 0.73799998 -0.046582557 3.779302e-39 300 276
-0.024518613 0.736 -0.046456318 3.779302e-39 301 276
-0.023228159 0.736 -0.046456318 3.5034367e-39 302 276
-0.021937706 0.736 -0.046456318 3.5034367e-39 303 276
-0.020703359 0.73799998 -0.046582557 3.686749e-39 304 276
-0.019409399 0.73799998 -0.046582557 3.686749e-39 305 276
-0.018139986 0.73900002 -0.046645679 3.5034367e-39 306 276
-0.016844273 0.73900002 -0.046645679 3.4112411e-39 307 276
-0.01554856 0.73900002 -0.046645679 3.5945534e-39 308 276
-0.014252847 0.73900002 -0.046645679 3.5945534e-39 309 276
-0.0129922 0.741 -0.046771921 3.6860301e-39 310 276
-0.01169298 0.741 -0.046771921 3.5938345e-39 311 276
-0.010393759 0.741 -0.046771921 3.5938345e-39 312 276
-0.0090945391 0.741 -0.046771921 3.4094432e-39 313 276
-0.0078058392 0.74199998 -0.046835039 3.4094432e-39 314 276
-0.0065048663 0.74199998 -0.046835039 3.4094432e-39 315 276
-0.0052038929 0.74199998 -0.046835039 3.1335766e-39 316 276
-0.0039029196 0.74199998 -0.046835039 2.949184e-39 317 276
-0.0026019465 0.74199998 -0.046835039 2.7658717e-39 318 276
-0.0013009732 0.74199998 -0.046835039 2.5814804e-39 319 276
0 0.74199998 -0.046835039 2.764071e-39 320 276
0.0013009732 0.74199998 -0.046835039 2.6718754e-39 321 276
0.0025984398 0.741 -0.046771921 2.3038117e-39 322 276
0.0038976599 0.741 -0.046771921 2.2116161e-39 323 276
0.0051828534 0.73900002 -0.046645679 1.8435567e-39 324 276
0.0064522666 0.736 -0.046456318 1.751361e-39 325 276
0.0077427197 0.736 -0.046456318 1.5673285e-39 326 276
0.0090086265 0.73400003 -0.046330083 1.4751329e-39 327 276
0.010253493 0.73100001 -0.046140719 1.3829344e-39 328 276
0.01153518 0.73100001 -0.046140719 1.2907388e-39 329 276
0.012816866 0.73100001 -0.046140719 1.1056245e-39 330 276
0.014098554 0.73100001 -0.046140719 1.0134289e-39 331 276
0.01538024 0.73100001 -0.046140719 1.1960251e-39 332 276
0.016639132 0.73000002 -0.046077598 1.1960251e-39 333 276
0.017919067 0.73000002 -0.046077598 9.208773e-40 334 276
0.019199001 0.73000002 -0.046077598 9.208773e-40 335 276
0.020563092 0.73299998 -0.046266954 9.208773e-40 336 276
0.021848286 0.73299998 -0.046266954 9.208773e-40 337 276
0.023165042 0.73400003 -0.046330083 9.208773e-40 338 276
0.024451986 0.73400003 -0.046330083 9.208773e-40 339 276
0.025738932 0.73400003 -0.046330083 9.208773e-40 340 276
0.02702588 0.73400003 -0.046330083 9.208773e-40 341 276
0.028312827 0.73400003 -0.046330083 9.208773e-40 342 276
0.029599773 0.73400003 -0.046330083 9.208773e-40 343 276
0.030886721 0.73400003 -0.046330083 7.3756504e-40 344 276
0.032129832 0.73299998 -0.046266954 7.3756504e-40 345 276
0.033415023 0.73299998 -0.046266954 8.301166e-40 346 276
0.034700219 0.73299998 -0.046266954 8.301166e-40 347 276
0.035985414 0.73299998 -0.046266954 8.2976067e-40 348 276
0.037321456 0.73400003 -0.046330083 8.2976067e-40 349 276
0.038608398 0.73400003 -0.046330083 1.0134317e-39 350 276
0.039895348 0.73400003 -0.046330083 1.1056273e-39 351 276
0.041182294 0.73400003 -0.046330083 1.0134317e-39 352 276
0.042469237 0.73400003 -0.046330083 1.1056273e-39 353 276
0.043756187 0.73400003 -0.046330083 1.1978243e-39 354 276
0.045165867 0.736 -0.046456318 1.1978243e-39 355 276
0.046456318 0.736 -0.046456318 1.2900171e-39 356 276
0.047746774 0.736 -0.046456318 1.2900171e-39 357 276
0.049037226 0.736 -0.046456318 1.1985404e-39 358 276
0.050464436 0.73799998 -0.046582557 1.290736e-39 359 276
0.051758397 0.73799998 -0.046582557 1.474407e-39 360 276
0.053052358 0.73799998 -0.046582557 1.474407e-39 361 276
0.054346316 0.73799998 -0.046582557 1.5666026e-39 362 276
0.055640277 0.73799998 -0.046582557 1.5666026e-39 363 276
0.056934237 0.73799998 -0.046582557 1.7502722e-39 364 276
0.0583071 0.73900002 -0.046645679 1.9346621e-39 365 276
0.059602812 0.73900002 -0.046645679 1.6587955e-39 366 276
0.060898528 0.73900002 -0.046645679 1.7509911e-39 367 276
0.062362559 0.741 -0.046771921 1.9335873e-39 368 276
0.063661776 0.741 -0.046771921 1.9335873e-39 369 276
0.065048665 0.74199998 -0.046835039 2.3012978e-39 370 276
0.066349633 0.74199998 -0.046835039 2.1169052e-39 371 276
0.067650609 0.74199998 -0.046835039 1.3807666e-39 372 276
0.068951584 0.74199998 -0.046835039 5.6217656e-39 373 276
0.07025256 0.74199998 -0.046835039 1.3269662e-38 374 276
0.071553528 0.74199998 -0.046835039 1.3638804e-38 375 276
-0.057912603 0.73400003 -0.047617026 4.2363326e-39 275 277
-0.056625653 0.73400003 -0.047617026 3.7789516e-39 276 277
-0.055263311 0.73299998 -0.04755215 3.8711473e-39 277 277
-0.053978115 0.73299998 -0.04755215 3.5959995e-39 278 277
-0.052764814 0.73400003 -0.047617026 3.5038039e-39 279 277
-0.051477864 0.73400003 -0.047617026 3.7796649e-39 280 277
-0.050122537 0.73299998 -0.04755215 3.7796649e-39 281 277
-0.048837345 0.73299998 -0.04755215 3.779302e-39 282 277
-0.04755215 0.73299998 -0.04755215 3.8714976e-39 283 277
-0.046330083 0.73400003 -0.047617026 3.8715004e-39 284 277
-0.045043133 0.73400003 -0.047617026 3.8715004e-39 285 277
-0.043756187 0.73400003 -0.047617026 3.8715004e-39 286 277
-0.042469237 0.73400003 -0.047617026 3.778946e-39 287 277
-0.041182294 0.73400003 -0.047617026 3.779302e-39 288 277
-0.039895348 0.73400003 -0.047617026 3.8714976e-39 289 277
-0.038608398 0.73400003 -0.047617026 3.7792992e-39 290 277
-0.037321456 0.73400003 -0.047617026 3.8714948e-39 291 277
-0.036034506 0.73400003 -0.047617026 3.7792992e-39 292 277
-0.032392833 0.73900002 -0.047941394 3.7800208e-39 295 277
-0.03109712 0.73900002 -0.047941394 3.5963526e-39 296 277
-0.029761078 0.73799998 -0.047876518 3.504157e-39 297 277
-0.028467119 0.73799998 -0.047876518 3.778946e-39 298 277
-0.027173158 0.73799998 -0.047876518 3.778946e-39 299 277
-0.025809066 0.736 -0.047746774 3.6878252e-39 300 277
-0.024451986 0.73400003 -0.047617026 3.6878252e-39 301 277
-0.023165042 0.73400003 -0.047617026 3.41196e-39 302 277
-0.021937706 0.736 -0.047746774 3.41196e-39 303 277
-0.020703359 0.73799998 -0.047876518 3.5034367e-39 304 277
-0.019409399 0.73799998 -0.047876518 3.5034367e-39 305 277
-0.018115439 0.73799998 -0.047876518 3.5945534e-39 306 277
-0.016844273 0.73900002 -0.047941394 3.5023577e-39 307 277
-0.01554856 0.73900002 -0.047941394 3.5023577e-39 308 277
-0.014252847 0.73900002 -0.047941394 3.4101621e-39 309 277
-0.0129922 0.741 -0.048071139 3.4098062e-39 310 277
-0.01169298 0.741 -0.048071139 3.2257751e-39 311 277
-0.010393759 0.741 -0.048071139 3.2257751e-39 312 277
-0.0090945391 0.741 -0.048071139 3.1335794e-39 313 277
-0.0077953199 0.741 -0.048071139 2.949184e-39 314 277
-0.0064960998 0.741 -0.048071139 2.949184e-39 315 277
-0.0051968796 0.741 -0.048071139 2.8562723e-39 316 277
-0.0038976599 0.741 -0.048071139 2.7637179e-39 317 277
-0.0026019465 0.74199998 -0.048136011 2.4889261e-39 318 277
-0.0013009732 0.74199998 -0.048136011 2.2126979e-39 319 277
0 0.74199998 -0.048136011 2.3956472e-39 320 277
0.0013009732 0.74199998 -0.048136011 2.3956472e-39 321 277
0.0025984398 0.741 -0.048071139 2.2112532e-39 322 277
0.00388714 0.73900002 -0.047941394 2.1190576e-39 323 277
0.0051828534 0.73900002 -0.047941394 1.5673257e-39 324 277
0.0064522666 0.736 -0.047746774 1.3829344e-39 325 277
0.0077216802 0.73400003 -0.047617026 1.5662495e-39 326 277
0.0090086265 0.73400003 -0.047617026 1.5662495e-39 327 277
0.010253493 0.73100001 -0.047422405 1.3840092e-39 328 277
0.01153518 0.73100001 -0.047422405 1.3840092e-39 329 277
0.012799333 0.73000002 -0.047357533 1.1985404e-39 330 277
0.014079267 0.73000002 -0.047357533 9.2231223e-40 331 277
0.0153592 0.73000002 -0.047357533 9.208773e-40 332 277
0.016639132 0.73000002 -0.047357533 9.208773e-40 333 277
0.017919067 0.73000002 -0.047357533 9.208773e-40 334 277
0.019199001 0.73000002 -0.047357533 9.208773e-40 335 277
0.020478934 0.73000002 -0.047357533 7.3756504e-40 336 277
0.021848286 0.73299998 -0.04755215 7.3756504e-40 337 277
0.023133477 0.73299998 -0.04755215 1.0134317e-39 338 277
0.024418673 0.73299998 -0.04755215 1.0134317e-39 339 277
0.025633732 0.73100001 -0.047422405 1.0134317e-39 340 277
0.026915418 0.73100001 -0.047422405 1.0134317e-39 341 277
0.028274251 0.73299998 -0.04755215 1.0134289e-39 342 277
0.029559445 0.73299998 -0.04755215 1.0134289e-39 343 277
0.030844638 0.73299998 -0.04755215 9.2231223e-40 344 277
0.032129832 0.73299998 -0.04755215 9.2231223e-40 345 277
0.033415023 0.73299998 -0.04755215 9.2231223e-40 346 277
0.034700219 0.73299998 -0.04755215 1.1063448e-39 347 277
0.035985414 0.73299998 -0.04755215 1.106342e-39 348 277
0.037270606 0.73299998 -0.04755215 1.106342e-39 349 277
0.038555797 0.73299998 -0.04755215 1.1981774e-39 350 277
0.039840993 0.73299998 -0.04755215 1.2903731e-39 351 277
0.041126184 0.73299998 -0.04755215 1.2903731e-39 352 277
0.042469237 0.73400003 -0.047617026 1.4744042e-39 353 277
0.043756187 0.73400003 -0.047617026 1.5665998e-39 354 277
0.045165867 0.736 -0.047746774 1.5665998e-39 355 277
0.046456318 0.736 -0.047746774 1.5665998e-39 356 277
0.047746774 0.736 -0.047746774 1.6587955e-39 357 277
0.049037226 0.736 -0.047746774 1.4754832e-39 358 277
0.050327681 0.736 -0.047746774 1.3832876e-39 359 277
0.051618133 0.736 -0.047746774 1.5665998e-39 360 277
0.053052358 0.73799998 -0.047876518 1.5665998e-39 361 277
0.054346316 0.73799998 -0.047876518 1.7502722e-39 362 277
0.055640277 0.73799998 -0.047876518 1.7502722e-39 363 277
0.056934237 0.73799998 -0.047876518 1.9346593e-39 364 277
0.058228195 0.73799998 -0.047876518 1.9346593e-39 365 277
0.059522156 0.73799998 -0.047876518 1.8435441e-39 366 277
0.060816113 0.73799998 -0.047876518 1.8435441e-39 367 277
0.062362559 0.741 -0.048071139 2.0268591e-39 368 277
0.063661776 0.741 -0.048071139 2.0268591e-39 369 277
0.065048665 0.74199998 -0.048136011 2.2108973e-39 370 277
0.066349633 0.74199998 -0.048136011 2.2108973e-39 371 277
0.067650609 0.74199998 -0.048136011 1.6566319e-39 372 277
0.068951584 0.74199998 -0.048136011 4.9756745e-39 373 277
0.07025256 0.74199998 -0.048136011 1.3362213e-38 374 277
-0.062974468 0.73299998 -0.048837345 4.5154209e-39 271 278
-0.061689276 0.73299998 -0.048837345 4.7905756e-39 272 278
-0.060404085 0.73299998 -0.048837345 4.5143489e-39 273 278
-0.059118889 0.73299998 -0.048837345 3.8722137e-39 274 278
-0.057912603 0.73400003 -0.048903972 3.8722137e-39 275 278
-0.056625653 0.73400003 -0.048903972 3.6889014e-39 276 278
-0.055263311 0.73299998 -0.048837345 3.6889014e-39 277 278
-0.053978115 0.73299998 -0.048837345 3.5967058e-39 278 278
-0.052692924 0.73299998 -0.048837345 3.5967058e-39 279 278
-0.051407732 0.73299998 -0.048837345 3.6878252e-39 280 278
-0.050122537 0.73299998 -0.048837345 3.6878252e-39 281 278
-0.048837345 0.73299998 -0.048837345 3.6878252e-39 282 278
-0.04755215 0.73299998 -0.048837345 3.7800208e-39 283 278
-0.046330083 0.73400003 -0.048903972 3.5967086e-39 284 278
-0.044981763 0.73299998 -0.048837345 3.5967086e-39 285 278
-0.043696571 0.73299998 -0.048837345 3.5967086e-39 286 278
-0.042469237 0.73400003 -0.048903972 3.5967086e-39 287 278
-0.041182294 0.73400003 -0.048903972 3.778946e-39 288 278
-0.039895348 0.73400003 -0.048903972 3.778946e-39 289 278
-0.038608398 0.73400003 -0.048903972 3.7800208e-39 290 278
-0.037270606 0.73299998 -0.048837345 3.7800208e-39 291 278
-0.035985414 0.73299998 -0.048837345 3.5967058e-39 292 278
-0.034700219 0.73299998 -0.048837345 3.5967058e-39 293 278
-0.033278264 0.73000002 -0.048637468 3.780018e-39 294 278
-0.031998333 0.73000002 -0.048637468 3.780018e-39 295 278
-0.030718399 0.73000002 -0.048637468 3.5048759e-39 296 278
-0.029438468 0.73000002 -0.048637468 3.3208447e-39 297 278
-0.028467119 0.73799998 -0.049170475 3.41196e-39 298 278
-0.026989058 0.73299998 -0.048837345 3.41196e-39 299 278
-0.025703866 0.73299998 -0.048837345 3.5034367e-39 300 278
-0.024418673 0.73299998 -0.048837345 3.5034367e-39 301 278
-0.023133477 0.73299998 -0.048837345 3.3194084e-39 302 278
-0.021848286 0.73299998 -0.048837345 3.1353773e-39 303 278
-0.020647252 0.736 -0.049037226 3.1353773e-39 304 278
-0.019356798 0.736 -0.049037226 3.1353773e-39 305 278
-0.018066347 0.736 -0.049037226 3.2264967e-39 306 278
-0.016775893 0.736 -0.049037226 3.2264967e-39 307 278
-0.015527519 0.73799998 -0.049170475 3.1335822e-39 308 278
-0.014233559 0.73799998 -0.049170475 3.1335822e-39 309 278
-0.012939599 0.73799998 -0.049170475 3.0410265e-39 310 278
-0.011645639 0.73799998 -0.049170475 2.9488308e-39 311 278
-0.010323626 0.736 -0.049037226 2.7655158e-39 312 278
-0.0090331733 0.736 -0.049037226 2.6733201e-39 313 278
-0.0077742799 0.73900002 -0.049237106 2.5811245e-39 314 278
-0.0064785667 0.73900002 -0.049237106 2.3967332e-39 315 278
-0.0051828534 0.73900002 -0.049237106 2.48821e-39 316 278
-0.0038976599 0.741 -0.049370356 2.396013e-39 317 278
-0.0025984398 0.741 -0.049370356 2.1205051e-39 318 278
-0.0012992199 0.741 -0.049370356 2.0279507e-39 319 278
0 0.741 -0.049370356 2.2116161e-39 320 278
0.0012992199 0.741 -0.049370356 2.1194205e-39 321 278
0.0025914267 0.73900002 -0.049237106 1.8431937e-39 322 278
0.00384506 0.73100001 -0.048704091 1.7509967e-39 323 278
0.0051267464 0.73100001 -0.048704091 1.5662495e-39 324 278
0.0064259665 0.73299998 -0.048837345 1.2900228e-39 325 278
0.0077111595 0.73299998 -0.048837345 1.2903857e-39 326 278
0.0089963535 0.73299998 -0.048837345 1.2903857e-39 327 278
0.010253493 0.73100001 -0.048704091 1.2006942e-39 328 278
0.011519399 0.73000002 -0.048637468 1.2928898e-39 329 278
0.012799333 0.73000002 -0.048637468 1.3836407e-39 330 278
0.014079267 0.73000002 -0.048637468 1.1066951e-39 331 278
0.0153592 0.73000002 -0.048637468 1.1967383e-39 332 278
0.016639132 0.73000002 -0.048637468 1.1967383e-39 333 278
0.017919067 0.73000002 -0.048637468 1.1967383e-39 334 278
0.019199001 0.73000002 -0.048637468 1.1967383e-39 335 278
0.020478934 0.73000002 -0.048637468 1.1967383e-39 336 278
0.021788673 0.73100001 -0.048704091 1.1967383e-39 337 278
0.02307036 0.73100001 -0.048704091 1.1056217e-39 338 278
0.024352046 0.73100001 -0.048704091 1.1056217e-39 339 278
0.025633732 0.73100001 -0.048704091 1.1981774e-39 340 278
0.026915418 0.73100001 -0.048704091 1.1056217e-39 341 278
0.028274251 0.73299998 -0.048837345 1.1978215e-39 342 278
0.029559445 0.73299998 -0.048837345 1.1978215e-39 343 278
0.03076048 0.73100001 -0.048704091 1.2900171e-39 344 278
0.032042164 0.73100001 -0.048704091 1.2900171e-39 345 278
0.033323854 0.73100001 -0.048704091 1.2910919e-39 346 278
0.034605537 0.73100001 -0.048704091 1.2910919e-39 347 278
0.035985414 0.73299998 -0.048837345 1.2910891e-39 348 278
0.037270606 0.73299998 -0.048837345 1.3832848e-39 349 278
0.038555797 0.73299998 -0.048837345 1.4744014e-39 350 278
0.039840993 0.73299998 -0.048837345 1.566597e-39 351 278
0.041126184 0.73299998 -0.048837345 1.7506282e-39 352 278
0.042469237 0.73400003 -0.048903972 1.9346593e-39 353 278
0.043756187 0.73400003 -0.048903972 1.751347e-39 354 278
0.045165867 0.736 -0.049037226 1.751347e-39 355 278
0.046456318 0.736 -0.049037226 1.751347e-39 356 278
0.047746774 0.736 -0.049037226 1.751347e-39 357 278
0.049037226 0.736 -0.049037226 1.5676788e-39 358 278
0.050327681 0.736 -0.049037226 1.5676788e-39 359 278
0.051618133 0.736 -0.049037226 1.7502722e-39 360 278
0.052908584 0.736 -0.049037226 1.9346621e-39 361 278
0.05419904 0.736 -0.049037226 1.9346621e-39 362 278
0.055489492 0.736 -0.049037226 1.7502722e-39 363 278
0.056779943 0.736 -0.049037226 2.1183359e-39 364 278
0.058228195 0.73799998 -0.049170475 2.1183359e-39 365 278
0.059522156 0.73799998 -0.049170475 1.8435441e-39 366 278
0.060816113 0.73799998 -0.049170475 1.9357397e-39 367 278
0.062110078 0.73799998 -0.049170475 2.302367e-39 368 278
0.06417726 0.74699998 -0.049770117 2.302367e-39 369 278
0.065486997 0.74699998 -0.049770117 2.3945682e-39 370 278
0.066796735 0.74699998 -0.049770117 2.4867639e-39 371 278
0.068106472 0.74699998 -0.049770117 1.289643e-39 372 278
0.069416218 0.74699998 -0.049770117 3.5945352e-39 373 278
-0.062974468 0.73299998 -0.050122537 4.4232224e-39 271 279
-0.061689276 0.73299998 -0.050122537 4.3317555e-39 272 279
-0.060404085 0.73299998 -0.050122537 4.2392011e-39 273 279
-0.059118889 0.73299998 -0.050122537 3.6896231e-39 274 279
-0.057833698 0.73299998 -0.050122537 3.6896231e-39 275 279
-0.056548502 0.73299998 -0.050122537 3.781097e-39 276 279
-0.055263311 0.73299998 -0.050122537 3.6889014e-39 277 279
-0.053830836 0.73100001 -0.049985781 3.5967058e-39 278 279
-0.052477267 0.73000002 -0.0499174 3.5967058e-39 279 279
-0.051197331 0.73000002 -0.0499174 3.7800208e-39 280 279
-0.050122537 0.73299998 -0.050122537 3.6878252e-39 281 279
-0.048837345 0.73299998 -0.050122537 3.5963526e-39 282 279
-0.04755215 0.73299998 -0.050122537 3.5963526e-39 283 279
-0.046330083 0.73400003 -0.050190922 3.5967086e-39 284 279
-0.044981763 0.73299998 -0.050122537 3.5967086e-39 285 279
-0.043696571 0.73299998 -0.050122537 3.7800208e-39 286 279
-0.042469237 0.73400003 -0.050190922 3.7800208e-39 287 279
-0.041126184 0.73299998 -0.050122537 3.9626142e-39 288 279
-0.039840993 0.73299998 -0.050122537 3.9626142e-39 289 279
-0.038555797 0.73299998 -0.050122537 3.779302e-39 290 279
-0.037270606 0.73299998 -0.050122537 3.8714976e-39 291 279
-0.035838135 0.73000002 -0.0499174 3.780018e-39 292 279
-0.034558199 0.73000002 -0.0499174 3.6878224e-39 293 279
-0.033187091 0.72799999 -0.049780637 3.6878196e-39 294 279
-0.031910665 0.72799999 -0.049780637 3.6878196e-39 295 279
-0.030634239 0.72799999 -0.049780637 3.5045101e-39 296 279
-0.029438468 0.73000002 -0.0499174 3.3197587e-39 297 279
-0.028158534 0.73000002 -0.0499174 3.5023549e-39 298 279
-0.026878599 0.73000002 -0.0499174 3.5945506e-39 299 279
-0.025598666 0.73000002 -0.0499174 3.5938317e-39 300 279
-0.024352046 0.73100001 -0.049985781 3.5938317e-39 301 279
-0.02307036 0.73100001 -0.049985781 3.226131e-39 302 279
-0.021788673 0.73100001 -0.049985781 3.226131e-39 303 279
-0.020563092 0.73299998 -0.050122537 3.1335794e-39 304 279
-0.019304199 0.73400003 -0.050190922 3.1335794e-39 305 279
-0.018017253 0.73400003 -0.050190922 3.0413796e-39 306 279
-0.016730307 0.73400003 -0.050190922 2.949184e-39 307 279
-0.015485439 0.736 -0.050327681 3.1317774e-39 308 279
-0.014156413 0.73400003 -0.050190922 3.0395817e-39 309 279
-0.012869466 0.73400003 -0.050190922 2.7640738e-39 310 279
-0.011582521 0.73400003 -0.050190922 2.7640738e-39 311 279
-0.010295574 0.73400003 -0.050190922 2.489282e-39 312 279
-0.0090086265 0.73400003 -0.050190922 2.3970864e-39 313 279
-0.0077216802 0.73400003 -0.050190922 2.3963661e-39 314 279
-0.006434733 0.73400003 -0.050190922 2.3038117e-39 315 279
-0.0051477868 0.73400003 -0.050190922 2.3038117e-39 316 279
-0.0038713599 0.736 -0.050327681 2.2116161e-39 317 279
-0.0025984398 0.741 -0.050669577 2.1197764e-39 318 279
-0.0012957134 0.73900002 -0.050532822 1.9353866e-39 319 279
0 0.73900002 -0.050532822 2.0265032e-39 320 279
0.0012957134 0.73900002 -0.050532822 2.0265032e-39 321 279
0.0025598668 0.73000002 -0.0499174 1.7509939e-39 322 279
0.0038292799 0.72799999 -0.049780637 1.6587983e-39 323 279
0.0051057064 0.72799999 -0.049780637 1.29002e-39 324 279
0.006408433 0.73100001 -0.049985781 1.1978243e-39 325 279
0.00769012 0.73100001 -0.049985781 9.219563e-40 326 279
0.0089718066 0.73100001 -0.049985781 1.1985432e-39 327 279
0.010253493 0.73100001 -0.049985781 1.3832904e-39 328 279
0.011519399 0.73000002 -0.0499174 1.475486e-39 329 279
0.012799333 0.73000002 -0.0499174 1.3840092e-39 330 279
0.014079267 0.73000002 -0.0499174 1.0152281e-39 331 279
0.0153592 0.73000002 -0.0499174 1.1063448e-39 332 279
0.016639132 0.73000002 -0.0499174 1.1985404e-39 333 279
0.017919067 0.73000002 -0.0499174 1.0152253e-39 334 279
0.019199001 0.73000002 -0.0499174 1.0152253e-39 335 279
0.020478934 0.73000002 -0.0499174 1.2903731e-39 336 279
0.021758866 0.73000002 -0.0499174 1.2903731e-39 337 279
0.02307036 0.73100001 -0.049985781 1.2903731e-39 338 279
0.024352046 0.73100001 -0.049985781 1.4744042e-39 339 279
0.025633732 0.73100001 -0.049985781 1.4744042e-39 340 279
0.026915418 0.73100001 -0.049985781 1.4744042e-39 341 279
0.028274251 0.73299998 -0.050122537 1.2900171e-39 342 279
0.029559445 0.73299998 -0.050122537 1.5666026e-39 343 279
0.03076048 0.73100001 -0.049985781 1.3832904e-39 344 279
0.032042164 0.73100001 -0.049985781 1.3832904e-39 345 279
0.033323854 0.73100001 -0.049985781 1.3840092e-39 346 279
0.034605537 0.73100001 -0.049985781 1.3840092e-39 347 279
0.035985414 0.73299998 -0.050122537 1.3840064e-39 348 279
0.037270606 0.73299998 -0.050122537 1.3840064e-39 349 279
0.038555797 0.73299998 -0.050122537 1.6580766e-39 350 279
0.039840993 0.73299998 -0.050122537 1.7502722e-39 351 279
0.041126184 0.73299998 -0.050122537 1.751347e-39 352 279
0.042469237 0.73400003 -0.050190922 1.751347e-39 353 279
0.043756187 0.73400003 -0.050190922 1.9346593e-39 354 279
0.045165867 0.736 -0.050327681 1.9346593e-39 355 279
0.046456318 0.736 -0.050327681 1.7506282e-39 356 279
0.047746774 0.736 -0.050327681 1.9346593e-39 357 279
0.049037226 0.736 -0.050327681 1.7513442e-39 358 279
0.050327681 0.736 -0.050327681 1.7513442e-39 359 279
0.051618133 0.736 -0.050327681 1.7509911e-39 360 279
0.052908584 0.736 -0.050327681 1.6587955e-39 361 279
0.05419904 0.736 -0.050327681 1.9343062e-39 362 279
0.055489492 0.736 -0.050327681 1.9343062e-39 363 279
0.056779943 0.736 -0.050327681 2.1183359e-39 364 279
0.058228195 0.73799998 -0.050464436 2.1183359e-39 365 279
0.059522156 0.73799998 -0.050464436 1.9357397e-39 366 279
0.060816113 0.73799998 -0.050464436 1.9357397e-39 367 279
-0.061689276 0.73299998 -0.051407732 3.9654841e-39 272 280
-0.060404085 0.73299998 -0.051407732 3.781453e-39 273 280
-0.059118889 0.73299998 -0.051407732 3.6896231e-39 274 280
-0.057675898 0.73100001 -0.051267464 3.6896231e-39 275 280
-0.056394216 0.73100001 -0.051267464 3.6896231e-39 276 280
-0.055112526 0.73100001 -0.051267464 3.5048731e-39 277 280
-0.053757198 0.73000002 -0.051197331 3.780018e-39 278 280
-0.052477267 0.73000002 -0.051197331 3.780018e-39 279 280
-0.051197331 0.73000002 -0.051197331 3.5967058e-39 280 280
-0.0499174 0.73000002 -0.051197331 3.5967058e-39 281 280
-0.048704091 0.73100001 -0.051267464 3.7796649e-39 282 280
-0.047422405 0.73100001 -0.051267464 3.7796649e-39 283 280
-0.046140719 0.73100001 -0.051267464 3.504157e-39 284 280
-0.044859033 0.73100001 -0.051267464 3.504157e-39 285 280
-0.043696571 0.73299998 -0.051407732 3.3208447e-39 286 280
-0.042411376 0.73299998 -0.051407732 3.2286477e-39 287 280
-0.041126184 0.73299998 -0.051407732 3.5034395e-39 288 280
-0.039840993 0.73299998 -0.051407732 3.4108852e-39 289 280
-0.038450599 0.73100001 -0.051267464 3.4108852e-39 290 280
-0.037118066 0.73000002 -0.051197331 3.4108852e-39 291 280
-0.035838135 0.73000002 -0.051197331 3.2282918e-39 292 280
-0.034463517 0.72799999 -0.051057063 3.1360962e-39 293 280
-0.033187091 0.72799999 -0.051057063 3.1360962e-39 294 280
-0.031910665 0.72799999 -0.051057063 3.0439005e-39 295 280
-0.030634239 0.72799999 -0.051057063 2.9517049e-39 296 280
-0.029357811 0.72799999 -0.051057063 2.8595093e-39 297 280
-0.028081384 0.72799999 -0.051057063 3.0417467e-39 298 280
-0.026804959 0.72799999 -0.051057063 3.0417467e-39 299 280
-0.025528532 0.72799999 -0.051057063 3.0417467e-39 300 280
-0.024252106 0.72799999 -0.051057063 2.8577142e-39 301 280
-0.023038799 0.73000002 -0.051197331 2.6740446e-39 302 280
-0.021788673 0.73100001 -0.051267464 2.6740446e-39 303 280
-0.020506985 0.73100001 -0.051267464 2.398178e-39 304 280
-0.019225299 0.73100001 -0.051267464 2.398178e-39 305 280
-0.017992707 0.73299998 -0.051407732 2.4885758e-39 306 280
-0.016707512 0.73299998 -0.051407732 2.4885758e-39 307 280
-0.01544336 0.73400003 -0.051477864 2.2130651e-39 308 280
-0.014156413 0.73400003 -0.051477864 2.2130651e-39 309 280
-0.012851933 0.73299998 -0.051407732 2.120868e-39 310 280
-0.011566739 0.73299998 -0.051407732 2.0286724e-39 311 280
-0.010253493 0.73100001 -0.051267464 2.1205051e-39 312 280
-0.0089718066 0.73100001 -0.051267464 2.0279507e-39 313 280
-0.0076795998 0.73000002 -0.051197331 1.9368299e-39 314 280
-0.0063996664 0.73000002 -0.051197331 1.9368299e-39 315 280
-0.0051057064 0.72799999 -0.051057063 1.9368299e-39 316 280
-0.0038135003 0.72500002 -0.050846666 1.6602444e-39 317 280
-0.0025353199 0.72299999 -0.050706398 1.8428378e-39 318 280
-0.0012676599 0.72299999 -0.050706398 1.8428378e-39 319 280
0 0.73900002 -0.051828533 1.751717e-39 320 280
0.0012746733 0.727 -0.050986931 1.5673257e-39 321 280
0.0025493465 0.727 -0.050986931 1.4751301e-39 322 280
0.0038292799 0.72799999 -0.051057063 1.3829344e-39 323 280
0.0051057064 0.72799999 -0.051057063 1.5658838e-39 324 280
0.0063996664 0.73000002 -0.051197331 1.3811338e-39 325 280
0.0076795998 0.73000002 -0.051197331 1.1059916e-39 326 280
0.0089595336 0.73000002 -0.051197331 1.1059916e-39 327 280
0.010239467 0.73000002 -0.051197331 1.1077895e-39 328 280
0.011519399 0.73000002 -0.051197331 1.2003439e-39 329 280
0.012799333 0.73000002 -0.051197331 1.6587955e-39 330 280
0.014079267 0.73000002 -0.051197331 1.6587955e-39 331 280
0.0153592 0.73000002 -0.051197331 1.566953e-39 332 280
0.016639132 0.73000002 -0.051197331 1.566953e-39 333 280
0.017919067 0.73000002 -0.051197331 1.566953e-39 334 280
0.019199001 0.73000002 -0.051197331 1.566953e-39 335 280
0.020478934 0.73000002 -0.051197331 1.566597e-39 336 280
0.021758866 0.73000002 -0.051197331 1.566597e-39 337 280
0.023038799 0.73000002 -0.051197331 1.6584325e-39 338 280
0.024352046 0.73100001 -0.051267464 1.6584325e-39 339 280
0.025633732 0.73100001 -0.051267464 1.6584325e-39 340 280
0.026915418 0.73100001 -0.051267464 1.6584325e-39 341 280
0.028197108 0.73100001 -0.051267464 1.6580766e-39 342 280
0.029478792 0.73100001 -0.051267464 1.6580766e-39 343 280
0.030844638 0.73299998 -0.051407732 1.6587955e-39 344 280
0.032129832 0.73299998 -0.051407732 1.6587955e-39 345 280
0.033323854 0.73100001 -0.051267464 1.7502722e-39 346 280
0.034605537 0.73100001 -0.051267464 1.6580766e-39 347 280
0.035985414 0.73299998 -0.051407732 1.7502722e-39 348 280
0.037270606 0.73299998 -0.051407732 1.7502722e-39 349 280
0.038555797 0.73299998 -0.051407732 1.751347e-39 350 280
0.039840993 0.73299998 -0.051407732 1.751347e-39 351 280
0.041126184 0.73299998 -0.051407732 1.8435441e-39 352 280
0.042469237 0.73400003 -0.051477864 1.751347e-39 353 280
0.043756187 0.73400003 -0.051477864 1.9346593e-39 354 280
0.045165867 0.736 -0.051618133 1.9346593e-39 355 280
0.046456318 0.736 -0.051618133 1.9346593e-39 356 280
0.047746774 0.736 -0.051618133 2.0268563e-39 357 280
0.049037226 0.736 -0.051618133 1.7513442e-39 358 280
0.050327681 0.736 -0.051618133 1.7513442e-39 359 280
0.051618133 0.736 -0.051618133 2.118689e-39 360 280
0.052908584 0.736 -0.051618133 2.118689e-39 361 280
0.05419904 0.736 -0.051618133 2.1183331e-39 362 280
0.055489492 0.736 -0.051618133 2.3027229e-39 363 280
0.056779943 0.736 -0.051618133 2.3027229e-39 364 280
0.058228195 0.73799998 -0.051758397 2.3027229e-39 365 280
0.059764117 0.741 -0.051968798 1.9357397e-39 366 280
-0.058715623 0.72799999 -0.052333489 3.6885483e-39 274 281
-0.057360299 0.727 -0.052261602 3.6885483e-39 275 281
-0.056085624 0.727 -0.052261602 3.7800208e-39 276 281
-0.055037133 0.73000002 -0.052477267 3.7800208e-39 277 281
-0.053609919 0.72799999 -0.052333489 3.7792992e-39 278 281
-0.052333489 0.72799999 -0.052333489 3.7792992e-39 279 281
-0.051057063 0.72799999 -0.052333489 3.6878252e-39 280 281
-0.049780637 0.72799999 -0.052333489 3.5034339e-39 281 281
-0.048637468 0.73000002 -0.052477267 3.5034367e-39 282 281
-0.047357533 0.73000002 -0.052477267 3.5034367e-39 283 281
-0.046140719 0.73100001 -0.052549154 3.4112383e-39 284 281
-0.044859033 0.73100001 -0.052549154 3.4112383e-39 285 281
-0.043577347 0.73100001 -0.052549154 3.3190455e-39 286 281
-0.042411376 0.73299998 -0.052692924 3.3190455e-39 287 281
-0.041013971 0.73100001 -0.052549154 3.5016389e-39 288 281
-0.039677933 0.73000002 -0.052477267 3.5016389e-39 289 281
-0.038292799 0.72799999 -0.052333489 3.4094432e-39 290 281
-0.037016369 0.72799999 -0.052333489 3.3172476e-39 291 281
-0.035739943 0.72799999 -0.052333489 3.1346514e-39 292 281
-0.03441618 0.727 -0.052261602 3.0424558e-39 293 281
-0.033141505 0.727 -0.052261602 3.0417355e-39 294 281
-0.03186683 0.727 -0.052261602 2.8569855e-39 295 281
-0.030592158 0.727 -0.052261602 2.8569883e-39 296 281
-0.029317487 0.727 -0.052261602 2.8569883e-39 297 281
-0.028042812 0.727 -0.052261602 2.8562723e-39 298 281
-0.026768139 0.727 -0.052261602 2.7637179e-39 299 281
-0.025493465 0.727 -0.052261602 2.48821e-39 300 281
-0.024218792 0.727 -0.052261602 2.5804056e-39 301 281
-0.022944121 0.727 -0.052261602 2.3960102e-39 302 281
-0.021699252 0.72799999 -0.052333489 2.3960102e-39 303 281
-0.020394772 0.727 -0.052261602 2.5793224e-39 304 281
-0.019120099 0.727 -0.052261602 2.3952913e-39 305 281
-0.017845426 0.727 -0.052261602 2.3030985e-39 306 281
-0.016570752 0.727 -0.052261602 2.3030985e-39 307 281
-0.015296079 0.727 -0.052261602 2.2109029e-39 308 281
-0.014040692 0.72799999 -0.052333489 2.2109029e-39 309 281
-0.012799333 0.73000002 -0.052477267 1.9353894e-39 310 281
-0.01148784 0.72799999 -0.052333489 2.1194205e-39 311 281
-0.010211413 0.72799999 -0.052333489 1.9353894e-39 312 281
-0.0089349858 0.72799999 -0.052333489 1.7509967e-39 313 281
-0.0076585598 0.72799999 -0.052333489 1.7509967e-39 314 281
-0.0063821329 0.72799999 -0.052333489 1.8431937e-39 315 281
-0.0050986931 0.727 -0.052261602 1.5676816e-39 316 281
-0.0038135003 0.72500002 -0.052117832 1.475486e-39 317 281
-0.0025353199 0.72299999 -0.051974058 1.9335901e-39 318 281
-0.0012676599 0.72299999 -0.051974058 1.8413945e-39 319 281
0 0.72299999 -0.051974058 1.6580822e-39 320 281
0.0012676599 0.72299999 -0.051974058 1.6580822e-39 321 281
0.0025423334 0.72500002 -0.052117832 1.5666026e-39 322 281
0.0038240198 0.727 -0.052261602 1.474407e-39 323 281
0.0050986931 0.727 -0.052261602 1.29002e-39 324 281
0.0063821329 0.72799999 -0.052333489 1.29002e-39 325 281
0.0076795998 0.73000002 -0.052477267 1.1981873e-39 326 281
0.0089595336 0.73000002 -0.052477267 1.1981873e-39 327 281
0.010239467 0.73000002 -0.052477267 1.2907388e-39 328 281
0.011519399 0.73000002 -0.052477267 1.4751301e-39 329 281
0.012799333 0.73000002 -0.052477267 1.6580766e-39 330 281
0.014079267 0.73000002 -0.052477267 1.6580766e-39 331 281
0.0153592 0.73000002 -0.052477267 1.5666026e-39 332 281
0.016639132 0.73000002 -0.052477267 1.5666026e-39 333 281
0.017919067 0.73000002 -0.052477267 1.6587983e-39 334 281
0.019199001 0.73000002 -0.052477267 1.6587983e-39 335 281
0.020478934 0.73000002 -0.052477267 1.5666026e-39 336 281
0.021758866 0.73000002 -0.052477267 1.5666026e-39 337 281
0.023038799 0.73000002 -0.052477267 2.0247039e-39 338 281
0.024352046 0.73100001 -0.052549154 2.0247039e-39 339 281
0.025633732 0.73100001 -0.052549154 1.5666026e-39 340 281
0.026915418 0.73100001 -0.052549154 1.5666026e-39 341 281
0.028197108 0.73100001 -0.052549154 1.6580794e-39 342 281
0.029478792 0.73100001 -0.052549154 1.6580794e-39 343 281
0.030844638 0.73299998 -0.052692924 1.5665998e-39 344 281
0.032129832 0.73299998 -0.052692924 1.6587955e-39 345 281
0.033323854 0.73100001 -0.052549154 1.7506282e-39 346 281
0.034605537 0.73100001 -0.052549154 1.7506282e-39 347 281
0.035985414 0.73299998 -0.052692924 1.751347e-39 348 281
0.037270606 0.73299998 -0.052692924 1.751347e-39 349 281
0.038555797 0.73299998 -0.052692924 1.9346593e-39 350 281
0.039840993 0.73299998 -0.052692924 1.9346593e-39 351 281
0.041126184 0.73299998 -0.052692924 1.9346593e-39 352 281
0.042469237 0.73400003 -0.052764814 2.0268563e-39 353 281
0.043756187 0.73400003 -0.052764814 1.9346593e-39 354 281
0.045165867 0.736 -0.052908584 1.9346593e-39 355 281
0.046582557 0.73799998 -0.053052358 1.8435441e-39 356 281
0.047746774 0.736 -0.052908584 1.8435441e-39 357 281
0.049037226 0.736 -0.052908584 2.0268563e-39 358 281
0.050327681 0.736 -0.052908584 2.0268563e-39 359 281
0.051618133 0.736 -0.052908584 2.0261389e-39 360 281
0.052908584 0.736 -0.052908584 2.1183359e-39 361 281
0.05419904 0.736 -0.052908584 2.1190547e-39 362 281
0.055489492 0.736 -0.052908584 2.1190547e-39 363 281
0.057011388 0.73900002 -0.053124249 2.2116063e-39 364 281
0.0583071 0.73900002 -0.053124249 2.2116063e-39 365 281
-0.058715623 0.72799999 -0.053609919 3.9622611e-39 274 282
-0.057360299 0.727 -0.053536277 3.9622611e-39 275 282
-0.056085624 0.727 -0.053536277 3.5034367e-39 276 282
-0.054810952 0.727 -0.053536277 3.4112411e-39 277 282
-0.053536277 0.727 -0.053536277 3.5023577e-39 278 282
-0.052261602 0.727 -0.053536277 3.5023577e-39 279 282
-0.050986931 0.727 -0.053536277 3.3186895e-39 280 282
-0.049712259 0.727 -0.053536277 3.2264939e-39 281 282
-0.048437584 0.727 -0.053536277 3.2257751e-39 282 282
-0.047162913 0.727 -0.053536277 3.2257751e-39 283 282
-0.045888241 0.727 -0.053536277 3.2257751e-39 284 282
-0.044613566 0.727 -0.053536277 3.0413824e-39 285 282
-0.043338891 0.727 -0.053536277 3.0410265e-39 286 282
-0.042122077 0.72799999 -0.053609919 3.0410265e-39 287 282
-0.040789545 0.727 -0.053536277 3.0413824e-39 288 282
-0.039514873 0.727 -0.053536277 2.9491868e-39 289 282
-0.038240198 0.727 -0.053536277 2.8569911e-39 290 282
-0.036965527 0.727 -0.053536277 2.8569911e-39 291 282
-0.035690852 0.727 -0.053536277 2.4889317e-39 292 282
-0.03441618 0.727 -0.053536277 2.4889317e-39 293 282
-0.033141505 0.727 -0.053536277 2.4882128e-39 294 282
-0.031779166 0.72500002 -0.053388998 2.4882128e-39 295 282
-0.030508002 0.72500002 -0.053388998 2.396013e-39 296 282
-0.029236834 0.72500002 -0.053388998 2.396013e-39 297 282
-0.027965667 0.72500002 -0.053388998 2.2112658e-39 298 282
-0.026694499 0.72500002 -0.053388998 2.2112658e-39 299 282
-0.025423333 0.72500002 -0.053388998 2.0279535e-39 300 282
-0.024152167 0.72500002 -0.053388998 1.9357579e-39 301 282
-0.022880999 0.72500002 -0.053388998 1.8435623e-39 302 282
-0.021609833 0.72500002 -0.053388998 1.8435623e-39 303 282
-0.020282559 0.72299999 -0.053241719 2.0257997e-39 304 282
-0.019014901 0.72299999 -0.053241719 2.0257997e-39 305 282
-0.017796334 0.72500002 -0.053388998 2.0257997e-39 306 282
-0.016525166 0.72500002 -0.053388998 2.0257997e-39 307 282
-0.015254001 0.72500002 -0.053388998 1.8428434e-39 308 282
-0.014021406 0.727 -0.053536277 1.8428434e-39 309 282
-0.012746733 0.727 -0.053536277 1.933953e-39 310 282
-0.01147206 0.727 -0.053536277 1.933953e-39 311 282
-0.010197386 0.727 -0.053536277 1.934309e-39 312 282
-0.0088981669 0.72500002 -0.053388998 1.7502778e-39 313 282
-0.0076270006 0.72500002 -0.053388998 2.1168996e-39 314 282
-0.0063733663 0.727 -0.053536277 2.1168996e-39 315 282
-0.0050846669 0.72500002 -0.053388998 1.6580794e-39 316 282
-0.0038029798 0.72299999 -0.053241719 1.750275e-39 317 282
-0.0025353199 0.72299999 -0.053241719 1.6580822e-39 318 282
-0.0012676599 0.72299999 -0.053241719 1.6580822e-39 319 282
0 0.72299999 -0.053241719 1.8413945e-39 320 282
0.0012676599 0.72299999 -0.053241719 1.8413945e-39 321 282
0.0025423334 0.72500002 -0.053388998 1.8413917e-39 322 282
0.0038240198 0.727 -0.053536277 1.8413917e-39 323 282
0.0050986931 0.727 -0.053536277 1.8413917e-39 324 282
0.0063733663 0.727 -0.053536277 1.8413917e-39 325 282
0.0076585598 0.72799999 -0.053609919 1.5662467e-39 326 282
0.0089349858 0.72799999 -0.053609919 1.5662467e-39 327 282
0.010239467 0.73000002 -0.053757198 1.5662467e-39 328 282
0.011519399 0.73000002 -0.053757198 1.5662467e-39 329 282
0.012799333 0.73000002 -0.053757198 1.8413917e-39 330 282
0.014079267 0.73000002 -0.053757198 1.8413917e-39 331 282
0.0153592 0.73000002 -0.053757198 1.8413917e-39 332 282
0.016639132 0.73000002 -0.053757198 1.8413917e-39 333 282
0.017869972 0.72799999 -0.053609919 1.8413917e-39 334 282
0.0191464 0.72799999 -0.053609919 1.8413917e-39 335 282
0.020422826 0.72799999 -0.053609919 1.8413917e-39 336 282
0.021758866 0.73000002 -0.053757198 1.8413917e-39 337 282
0.023038799 0.73000002 -0.053757198 1.8413917e-39 338 282
0.024352046 0.73100001 -0.053830836 1.8413917e-39 339 282
0.025633732 0.73100001 -0.053830836 1.8413917e-39 340 282
0.026915418 0.73100001 -0.053830836 1.8413917e-39 341 282
0.028197108 0.73100001 -0.053830836 1.8413917e-39 342 282
0.029559445 0.73299998 -0.053978115 1.8413917e-39 343 282
0.030844638 0.73299998 -0.053978115 1.7502722e-39 344 282
0.032129832 0.73299998 -0.053978115 1.7502722e-39 345 282
0.033415023 0.73299998 -0.053978115 1.751347e-39 346 282
0.034700219 0.73299998 -0.053978115 1.751347e-39 347 282
0.035985414 0.73299998 -0.053978115 2.026136e-39 348 282
0.037270606 0.73299998 -0.053978115 2.026136e-39 349 282
0.038555797 0.73299998 -0.053978115 1.9346593e-39 350 282
0.039895348 0.73400003 -0.054051761 2.0268563e-39 351 282
0.041182294 0.73400003 -0.054051761 2.2094483e-39 352 282
0.042469237 0.73400003 -0.054051761 2.2094483e-39 353 282
0.043875411 0.736 -0.05419904 2.1183331e-39 354 282
0.050464436 0.73799998 -0.054346316 2.1168996e-39 359 282
0.051758397 0.73799998 -0.054346316 2.0247039e-39 360 282
0.053052358 0.73799998 -0.054346316 2.0247039e-39 361 282
0.054346316 0.73799998 -0.054346316 2.0257829e-39 362 282
-0.058715623 0.72799999 -0.054886345 3.685677e-39 274 283
-0.057202499 0.72500002 -0.054660168 3.5934814e-39 275 283
-0.055931333 0.72500002 -0.054660168 3.5020046e-39 276 283
-0.054660168 0.72500002 -0.054660168 3.2257779e-39 277 283
-0.053388998 0.72500002 -0.054660168 3.3165386e-39 278 283
-0.052117832 0.72500002 -0.054660168 3.3165386e-39 279 283
-0.050846666 0.72500002 -0.054660168 3.0410293e-39 280 283
-0.0495755 0.72500002 -0.054660168 2.9488336e-39 281 283
-0.048304334 0.72500002 -0.054660168 3.0403076e-39 282 283
-0.047033165 0.72500002 -0.054660168 2.948112e-39 283 283
-0.045572639 0.722 -0.054433983 2.8562723e-39 284 283
-0.044306733 0.722 -0.054433983 2.7637179e-39 285 283
-0.043040827 0.722 -0.054433983 2.7637179e-39 286 283
-0.041774917 0.722 -0.054433983 2.7637179e-39 287 283
-0.040677335 0.72500002 -0.054660168 2.7637179e-39 288 283
-0.039406165 0.72500002 -0.054660168 2.6715223e-39 289 283
-0.038029801 0.72299999 -0.054509375 2.670802e-39 290 283
-0.036762137 0.72299999 -0.054509375 2.5786064e-39 291 283
-0.035494477 0.72299999 -0.054509375 2.3027426e-39 292 283
-0.034321502 0.72500002 -0.054660168 2.3027426e-39 293 283
-0.033050332 0.72500002 -0.054660168 2.3942151e-39 294 283
-0.031691495 0.72299999 -0.054509375 2.3942151e-39 295 283
-0.030423839 0.72299999 -0.054509375 2.3020195e-39 296 283
-0.029236834 0.72500002 -0.054660168 2.3020195e-39 297 283
-0.027965667 0.72500002 -0.054660168 2.3013006e-39 298 283
-0.026620859 0.72299999 -0.054509375 2.3013006e-39 299 283
-0.025353199 0.72299999 -0.054509375 2.1176296e-39 300 283
-0.024052227 0.722 -0.054433983 2.0254326e-39 301 283
-0.022786319 0.722 -0.054433983 1.9339558e-39 302 283
-0.021550218 0.72299999 -0.054509375 1.7499247e-39 303 283
-0.020282559 0.72299999 -0.054509375 2.116552e-39 304 283
-0.019014901 0.72299999 -0.054509375 2.116552e-39 305 283
-0.017747238 0.72299999 -0.054509375 2.116552e-39 306 283
-0.01647958 0.72299999 -0.054509375 2.2087491e-39 307 283
-0.015211919 0.72299999 -0.054509375 1.7499247e-39 308 283
-0.01394426 0.72299999 -0.054509375 1.7499247e-39 309 283
-0.012711667 0.72500002 -0.054660168 1.9335901e-39 310 283
-0.01140894 0.72299999 -0.054509375 1.9335901e-39 311 283
-0.01014128 0.72299999 -0.054509375 1.9335873e-39 312 283
-0.0088736191 0.72299999 -0.054509375 1.9335873e-39 313 283
-0.0076059597 0.72299999 -0.054509375 2.0247039e-39 314 283
-0.0063558333 0.72500002 -0.054660168 2.0247039e-39 315 283
-0.0050846669 0.72500002 -0.054660168 1.9335873e-39 316 283
-0.0038029798 0.72299999 -0.054509375 1.9335873e-39 317 283
-0.0025353199 0.72299999 -0.054509375 1.750275e-39 318 283
-0.0012676599 0.72299999 -0.054509375 1.750275e-39 319 283
0 0.72299999 -0.054509375 1.8413917e-39 320 283
0.0012676599 0.72299999 -0.054509375 1.9335873e-39 321 283
0.0025353199 0.72299999 -0.054509375 1.8413917e-39 322 283
0.0038240198 0.727 -0.054810952 1.8413917e-39 323 283
0.0050986931 0.727 -0.054810952 1.8413917e-39 324 283
0.0063733663 0.727 -0.054810952 1.9335873e-39 325 283
0.0076585598 0.72799999 -0.054886345 1.6580822e-39 326 283
0.0089349858 0.72799999 -0.054886345 1.6580822e-39 327 283
0.010239467 0.73000002 -0.055037133 1.8413945e-39 328 283
0.011519399 0.73000002 -0.055037133 1.9335901e-39 329 283
0.012799333 0.73000002 -0.055037133 2.0247067e-39 330 283
0.014079267 0.73000002 -0.055037133 2.0247067e-39 331 283
0.0153592 0.73000002 -0.055037133 2.1161835e-39 332 283
0.016639132 0.73000002 -0.055037133 2.1161835e-39 333 283
0.017869972 0.72799999 -0.054886345 1.9335873e-39 334 283
0.0191464 0.72799999 -0.054886345 1.9335873e-39 335 283
0.020422826 0.72799999 -0.054886345 2.0250599e-39 336 283
0.021758866 0.73000002 -0.055037133 2.1172555e-39 337 283
0.023038799 0.73000002 -0.055037133 1.8413889e-39 338 283
0.024352046 0.73100001 -0.055112526 1.9339432e-39 339 283
0.025633732 0.73100001 -0.055112526 1.9335873e-39 340 283
0.026915418 0.73100001 -0.055112526 1.8413917e-39 341 283
0.028197108 0.73100001 -0.055112526 1.8413917e-39 342 283
