# .PCD v.7 - Point Cloud Data file format
FIELDS x y z rgb imX imY
SIZE 4 4 4 4 4 4
TYPE F F F F F F
COUNT 1 1 1 1 1 1
WIDTH 833
HEIGHT 1
VIEWPOINT 0 0 0 1 0 0 0
POINTS 833
DATA ascii
-0.015254001 0.72500002 -0.022880999 1.0936336e-38 308 258
-0.013982833 0.72500002 -0.022880999 1.0936336e-38 309 258
-0.012711667 0.72500002 -0.022880999 1.0845222e-38 310 258
-0.0114405 0.72500002 -0.022880999 1.0845222e-38 311 258
-0.010197386 0.727 -0.022944121 1.1028534e-38 312 258
-0.0089227129 0.727 -0.022944121 1.112073e-38 313 258
-0.0076270006 0.72500002 -0.022880999 1.1121446e-38 314 258
-0.0063558333 0.72500002 -0.022880999 1.1214e-38 315 258
-0.0050986931 0.727 -0.022944121 1.1305844e-38 316 258
-0.0038292799 0.72799999 -0.022975679 1.139804e-38 317 258
-0.0025528532 0.72799999 -0.022975679 1.1490238e-38 318 258
-0.0012764266 0.72799999 -0.022975679 1.1766465e-38 319 258
0 0.72799999 -0.022975679 1.1124696e-38 320 258
0.0012676599 0.72299999 -0.02281788 1.1400924e-38 321 258
0.0025353199 0.72299999 -0.02281788 1.1039349e-38 322 258
0.0038029798 0.72299999 -0.02281788 1.3252405e-38 323 258
0.0050706398 0.72299999 -0.02281788 1.3451557e-38 324 258
0.0063382997 0.72299999 -0.02281788 1.6033035e-38 325 258
0.0076059597 0.72299999 -0.02281788 1.7047541e-38 326 258
-0.049780637 0.72799999 -0.024252106 1.6770947e-38 281 259
-0.048504211 0.72799999 -0.024252106 1.4647198e-38 282 259
-0.047227785 0.72799999 -0.024252106 1.1696578e-38 283 259
-0.045888241 0.727 -0.024218792 1.3337368e-38 284 259
-0.044613566 0.727 -0.024218792 1.2784196e-38 285 259
-0.043219667 0.72500002 -0.024152167 1.3514553e-38 286 259
-0.041832779 0.72299999 -0.024085538 1.2869183e-38 287 259
-0.040565118 0.72299999 -0.024085538 1.277591e-38 288 259
-0.039243106 0.722 -0.024052227 1.2407488e-38 289 259
-0.0379772 0.722 -0.024052227 1.203943e-38 290 259
-0.03671129 0.722 -0.024052227 1.1947234e-38 291 259
-0.035445385 0.722 -0.024052227 1.1578468e-38 292 259
-0.034179479 0.722 -0.024052227 1.1486273e-38 293 259
-0.032913569 0.722 -0.024052227 1.1577039e-38 294 259
-0.031647664 0.722 -0.024052227 1.1577039e-38 295 259
-0.0302976 0.72000003 -0.0239856 1.1486635e-38 296 259
-0.029035201 0.72000003 -0.0239856 1.1763581e-38 297 259
-0.027772799 0.72000003 -0.0239856 1.1673885e-38 298 259
-0.026510401 0.72000003 -0.0239856 1.1673885e-38 299 259
-0.025248 0.72000003 -0.0239856 1.2040147e-38 300 259
-0.0239856 0.72000003 -0.0239856 1.1671723e-38 301 259
-0.022723202 0.72000003 -0.0239856 1.1396225e-38 302 259
-0.021460801 0.72000003 -0.0239856 1.1304029e-38 303 259
-0.020282559 0.72299999 -0.024085538 1.0935973e-38 304 259
-0.019014901 0.72299999 -0.024085538 1.1028168e-38 305 259
-0.017747238 0.72299999 -0.024085538 1.0753024e-38 306 259
-0.01647958 0.72299999 -0.024085538 1.0753024e-38 307 259
-0.015211919 0.72299999 -0.024085538 1.0661547e-38 308 259
-0.01394426 0.72299999 -0.024085538 1.0661547e-38 309 259
-0.012676599 0.72299999 -0.024085538 1.0753024e-38 310 259
-0.0114405 0.72500002 -0.024152167 1.0753024e-38 311 259
-0.010169334 0.72500002 -0.024152167 1.0753026e-38 312 259
-0.0089227129 0.727 -0.024218792 1.0845222e-38 313 259
-0.0076480396 0.727 -0.024218792 1.0753745e-38 314 259
-0.0063733663 0.727 -0.024218792 1.0845941e-38 315 259
-0.0050986931 0.727 -0.024218792 1.1121452e-38 316 259
-0.0038292799 0.72799999 -0.024252106 1.1213647e-38 317 259
-0.0025528532 0.72799999 -0.024252106 1.1122182e-38 318 259
-0.0012764266 0.72799999 -0.024252106 1.1398408e-38 319 259
0 0.72799999 -0.024252106 1.1308011e-38 320 259
0.0012676599 0.72299999 -0.024085538 1.1308011e-38 321 259
0.0025353199 0.72299999 -0.024085538 1.0755554e-38 322 259
0.0038029798 0.72299999 -0.024085538 1.1770065e-38 323 259
0.0050706398 0.72299999 -0.024085538 1.1231303e-38 324 259
0.0063382997 0.72299999 -0.024085538 1.4826933e-38 325 259
0.0076059597 0.72299999 -0.024085538 1.6034477e-38 326 259
0.0088736191 0.72299999 -0.024085538 1.6679846e-38 327 259
-0.049780637 0.72799999 -0.025528532 1.6494723e-38 281 260
-0.048504211 0.72799999 -0.025528532 1.4091872e-38 282 260
-0.047162913 0.727 -0.025493465 1.2063568e-38 283 260
-0.045761999 0.72500002 -0.025423333 1.3613962e-38 284 260
-0.044490833 0.72500002 -0.025423333 1.2968593e-38 285 260
-0.043100435 0.72299999 -0.025353199 1.3145418e-38 286 260
-0.041774917 0.722 -0.025318133 1.2684799e-38 287 260
-0.040509012 0.722 -0.025318133 1.2499333e-38 288 260
-0.039243106 0.722 -0.025318133 1.2314942e-38 289 260
-0.0379772 0.722 -0.025318133 1.1945802e-38 290 260
-0.03671129 0.722 -0.025318133 1.1761412e-38 291 260
-0.035347197 0.72000003 -0.025248 1.1577022e-38 292 260
-0.034084801 0.72000003 -0.025248 1.1484826e-38 293 260
-0.0328224 0.72000003 -0.025248 1.1484826e-38 294 260
-0.03156 0.72000003 -0.025248 1.1577022e-38 295 260
-0.0302976 0.72000003 -0.025248 1.1394427e-38 296 260
-0.029035201 0.72000003 -0.025248 1.1671014e-38 297 260
-0.027772799 0.72000003 -0.025248 1.1765005e-38 298 260
-0.026510401 0.72000003 -0.025248 1.18572e-38 299 260
-0.025212931 0.71899998 -0.025212931 1.1673888e-38 300 260
-0.023952285 0.71899998 -0.025212931 1.1489496e-38 301 260
-0.022723202 0.72000003 -0.025248 1.1212553e-38 302 260
-0.021460801 0.72000003 -0.025248 1.1304748e-38 303 260
-0.020254506 0.722 -0.025318133 1.0936689e-38 304 260
-0.0189886 0.722 -0.025318133 1.0660461e-38 305 260
-0.017722692 0.722 -0.025318133 1.084342e-38 306 260
-0.016456785 0.722 -0.025318133 1.084342e-38 307 260
-0.015190879 0.722 -0.025318133 1.0660105e-38 308 260
-0.01394426 0.72299999 -0.025353199 1.0844137e-38 309 260
-0.012676599 0.72299999 -0.025353199 1.0844493e-38 310 260
-0.01140894 0.72299999 -0.025353199 1.0844493e-38 311 260
-0.010169334 0.72500002 -0.025423333 1.0661181e-38 312 260
-0.0088981669 0.72500002 -0.025423333 1.0661181e-38 313 260
-0.0076270006 0.72500002 -0.025423333 1.0936692e-38 314 260
-0.0063558333 0.72500002 -0.025423333 1.0936692e-38 315 260
-0.0050986931 0.727 -0.025493465 1.12122e-38 316 260
-0.0038292799 0.72799999 -0.025528532 1.12122e-38 317 260
-0.0025528532 0.72799999 -0.025528532 1.1213279e-38 318 260
-0.0012764266 0.72799999 -0.025528532 1.1489507e-38 319 260
0 0.72799999 -0.025528532 1.1581705e-38 320 260
0.0012764266 0.72799999 -0.025528532 1.1858651e-38 321 260
0.0025528532 0.72799999 -0.025528532 1.1767545e-38 322 260
0.0038240198 0.727 -0.025493465 1.1675348e-38 323 260
0.0050846669 0.72500002 -0.025423333 1.0300349e-38 324 260
0.0063382997 0.72299999 -0.025353199 1.1498893e-38 325 260
0.0076059597 0.72299999 -0.025353199 1.2070065e-38 326 260
0.0088736191 0.72299999 -0.025353199 1.5573859e-38 327 260
-0.051057063 0.72799999 -0.026804959 1.7140809e-38 280 261
-0.049780637 0.72799999 -0.026804959 1.6126657e-38 281 261
-0.048437584 0.727 -0.026768139 1.3628014e-38 282 261
-0.047162913 0.727 -0.026768139 1.178446e-38 283 261
-0.045761999 0.72500002 -0.026694499 1.3339533e-38 284 261
-0.044368099 0.72299999 -0.026620859 1.2049153e-38 285 261
-0.043040827 0.722 -0.026584039 1.2778434e-38 286 261
-0.041774917 0.722 -0.026584039 1.2409651e-38 287 261
-0.040509012 0.722 -0.026584039 1.2407853e-38 288 261
-0.039243106 0.722 -0.026584039 1.2223462e-38 289 261
-0.0379772 0.722 -0.026584039 1.1671014e-38 290 261
-0.036609601 0.72000003 -0.026510401 1.1486623e-38 291 261
-0.035347197 0.72000003 -0.026510401 1.1301877e-38 292 261
-0.034084801 0.72000003 -0.026510401 1.1209681e-38 293 261
-0.0328224 0.72000003 -0.026510401 1.1026369e-38 294 261
-0.03156 0.72000003 -0.026510401 1.1118565e-38 295 261
-0.0302976 0.72000003 -0.026510401 1.1210762e-38 296 261
-0.029035201 0.72000003 -0.026510401 1.1486989e-38 297 261
-0.027772799 0.72000003 -0.026510401 1.1489496e-38 298 261
-0.02647358 0.71899998 -0.02647358 1.1673888e-38 299 261
-0.025212931 0.71899998 -0.02647358 1.158169e-38 300 261
-0.023952285 0.71899998 -0.02647358 1.1489493e-38 301 261
-0.022691639 0.71899998 -0.02647358 1.1121433e-38 302 261
-0.021430992 0.71899998 -0.02647358 1.1029238e-38 303 261
-0.020198401 0.72000003 -0.026510401 1.0844493e-38 304 261
-0.0189886 0.722 -0.026584039 1.0844493e-38 305 261
-0.017722692 0.722 -0.026584039 1.0476076e-38 306 261
-0.016456785 0.722 -0.026584039 1.0568631e-38 307 261
-0.015190879 0.722 -0.026584039 1.0384963e-38 308 261
-0.013924973 0.722 -0.026584039 1.0384963e-38 309 261
-0.012676599 0.72299999 -0.026620859 1.0477513e-38 310 261
-0.01140894 0.72299999 -0.026620859 1.0477513e-38 311 261
-0.01014128 0.72299999 -0.026620859 1.0477513e-38 312 261
-0.0088981669 0.72500002 -0.026694499 1.0477513e-38 313 261
-0.0076270006 0.72500002 -0.026694499 1.0478234e-38 314 261
-0.0063558333 0.72500002 -0.026694499 1.0478234e-38 315 261
-0.0050846669 0.72500002 -0.026694499 1.0661547e-38 316 261
-0.0038240198 0.727 -0.026768139 1.0845938e-38 317 261
-0.0025528532 0.72799999 -0.026804959 1.0845941e-38 318 261
-0.0012764266 0.72799999 -0.026804959 1.1030332e-38 319 261
0 0.72799999 -0.026804959 1.1121096e-38 320 261
0.0012764266 0.72799999 -0.026804959 1.1305847e-38 321 261
0.0025528532 0.72799999 -0.026804959 1.1398058e-38 322 261
0.0038292799 0.72799999 -0.026804959 1.1490254e-38 323 261
0.0050986931 0.727 -0.026768139 1.0847402e-38 324 261
0.0063558333 0.72500002 -0.026694499 1.1031794e-38 325 261
0.0076270006 0.72500002 -0.026694499 1.0032041e-38 326 261
0.0089349858 0.72799999 -0.026804959 1.445743e-38 327 261
-0.051057063 0.72799999 -0.028081384 1.6957497e-38 280 262
-0.049780637 0.72799999 -0.028081384 1.5666758e-38 281 262
-0.048437584 0.727 -0.028042812 1.3257071e-38 282 262
-0.047033165 0.72500002 -0.027965667 1.1320963e-38 283 262
-0.045761999 0.72500002 -0.027965667 1.3152621e-38 284 262
-0.044368099 0.72299999 -0.02788852 1.2692002e-38 285 262
-0.043040827 0.722 -0.027849946 1.2962109e-38 286 262
-0.041774917 0.722 -0.027849946 1.2777359e-38 287 262
-0.040509012 0.722 -0.027849946 1.2318174e-38 288 262
-0.039134402 0.72000003 -0.027772799 1.1949752e-38 289 262
-0.037871998 0.72000003 -0.027772799 1.1672805e-38 290 262
-0.036609601 0.72000003 -0.027772799 1.1396578e-38 291 262
-0.035347197 0.72000003 -0.027772799 1.1394424e-38 292 262
-0.034084801 0.72000003 -0.027772799 1.1210032e-38 293 262
-0.0328224 0.72000003 -0.027772799 1.1026366e-38 294 262
-0.03156 0.72000003 -0.027772799 1.0934171e-38 295 262
-0.030255521 0.71899998 -0.027734226 1.1026366e-38 296 262
-0.028994869 0.71899998 -0.027734226 1.1210759e-38 297 262
-0.027734226 0.71899998 -0.027734226 1.1303674e-38 298 262
-0.02647358 0.71899998 -0.027734226 1.1396228e-38 299 262
-0.0251428 0.71700001 -0.027657079 1.1396947e-38 300 262
-0.02388566 0.71700001 -0.027657079 1.1304392e-38 301 262
-0.02262852 0.71700001 -0.027657079 1.1028882e-38 302 262
-0.021371379 0.71700001 -0.027657079 1.1028882e-38 303 262
-0.020198401 0.72000003 -0.027772799 1.0936692e-38 304 262
-0.018935999 0.72000003 -0.027772799 1.0660105e-38 305 262
-0.017673599 0.72000003 -0.027772799 1.0568275e-38 306 262
-0.0164112 0.72000003 -0.027772799 1.0476079e-38 307 262
-0.015190879 0.722 -0.027849946 1.038496e-38 308 262
-0.013924973 0.722 -0.027849946 1.038496e-38 309 262
-0.012659066 0.722 -0.027849946 1.0477513e-38 310 262
-0.01139316 0.722 -0.027849946 1.0385316e-38 311 262
-0.01014128 0.72299999 -0.02788852 1.0385316e-38 312 262
-0.0088736191 0.72299999 -0.02788852 1.0477513e-38 313 262
-0.0076059597 0.72299999 -0.02788852 1.0477516e-38 314 262
-0.0063558333 0.72500002 -0.027965667 1.0477516e-38 315 262
-0.0050846669 0.72500002 -0.027965667 1.0660828e-38 316 262
-0.0038135003 0.72500002 -0.027965667 1.0753024e-38 317 262
-0.0025423334 0.72500002 -0.027965667 1.0753024e-38 318 262
-0.0012746733 0.727 -0.028042812 1.0845219e-38 319 262
0 0.727 -0.028042812 1.1028534e-38 320 262
0.0012746733 0.727 -0.028042812 1.112073e-38 321 262
0.0025528532 0.72799999 -0.028081384 1.1212572e-38 322 262
0.0038397999 0.73000002 -0.028158534 1.1305127e-38 323 262
0.0051057064 0.72799999 -0.028081384 1.1398408e-38 324 262
0.0063821329 0.72799999 -0.028081384 1.1398408e-38 325 262
0.0076585598 0.72799999 -0.028081384 1.0115598e-38 326 262
0.0089349858 0.72799999 -0.028081384 1.1959511e-38 327 262
0.010211413 0.72799999 -0.028081384 1.3173526e-38 328 262
-0.051057063 0.72799999 -0.029357811 1.7048611e-38 280 263
-0.049712259 0.727 -0.029317487 1.5481644e-38 281 263
-0.048437584 0.727 -0.029317487 1.2795004e-38 282 263
-0.047033165 0.72500002 -0.029236834 1.0858896e-38 283 263
-0.04563576 0.72299999 -0.029156178 1.241469e-38 284 263
-0.044368099 0.72299999 -0.029156178 1.2322495e-38 285 263
-0.043040827 0.722 -0.029115854 1.2779515e-38 286 263
-0.041774917 0.722 -0.029115854 1.2686961e-38 287 263
-0.040509012 0.722 -0.029115854 1.2505443e-38 288 263
-0.039134402 0.72000003 -0.029035201 1.2412888e-38 289 263
-0.037871998 0.72000003 -0.029035201 1.2136661e-38 290 263
-0.036609601 0.72000003 -0.029035201 1.1767519e-38 291 263
-0.035347197 0.72000003 -0.029035201 1.1579537e-38 292 263
-0.034084801 0.72000003 -0.029035201 1.1211115e-38 293 263
-0.0328224 0.72000003 -0.029035201 1.1027085e-38 294 263
-0.03156 0.72000003 -0.029035201 1.0750859e-38 295 263
-0.030255521 0.71899998 -0.028994869 1.0842698e-38 296 263
-0.028994869 0.71899998 -0.028994869 1.0842698e-38 297 263
-0.027734226 0.71899998 -0.028994869 1.0843773e-38 298 263
-0.02647358 0.71899998 -0.028994869 1.1028166e-38 299 263
-0.0251428 0.71700001 -0.028914221 1.1028166e-38 300 263
-0.02388566 0.71700001 -0.028914221 1.093597e-38 301 263
-0.02262852 0.71700001 -0.028914221 1.0844493e-38 302 263
-0.021371379 0.71700001 -0.028914221 1.0936689e-38 303 263
-0.020170346 0.71899998 -0.028994869 1.0844137e-38 304 263
-0.018935999 0.72000003 -0.029035201 1.0660105e-38 305 263
-0.017673599 0.72000003 -0.029035201 1.0476076e-38 306 263
-0.0164112 0.72000003 -0.029035201 1.0383881e-38 307 263
-0.0151488 0.72000003 -0.029035201 1.0292767e-38 308 263
-0.013924973 0.722 -0.029115854 1.0292767e-38 309 263
-0.012659066 0.722 -0.029115854 1.0292767e-38 310 263
-0.01139316 0.722 -0.029115854 1.0292767e-38 311 263
-0.010127253 0.722 -0.029115854 1.0292764e-38 312 263
-0.0088736191 0.72299999 -0.029156178 1.0292764e-38 313 263
-0.0076059597 0.72299999 -0.029156178 1.0476076e-38 314 263
-0.0063382997 0.72299999 -0.029156178 1.0476076e-38 315 263
-0.0050706398 0.72299999 -0.029156178 1.0476076e-38 316 263
-0.0038029798 0.72299999 -0.029156178 1.0568631e-38 317 263
-0.0025423334 0.72500002 -0.029236834 1.0660828e-38 318 263
-0.0012711667 0.72500002 -0.029236834 1.0660828e-38 319 263
0 0.727 -0.029317487 1.0753026e-38 320 263
0.0012746733 0.727 -0.029317487 1.0845222e-38 321 263
0.0025528532 0.72799999 -0.029357811 1.1028537e-38 322 263
0.0038292799 0.72799999 -0.029357811 1.1120733e-38 323 263
0.0051197335 0.73000002 -0.029438468 1.1122179e-38 324 263
0.0063996664 0.73000002 -0.029438468 1.1398406e-38 325 263
0.0076795998 0.73000002 -0.029438468 1.066444e-38 326 263
0.0089595336 0.73000002 -0.029438468 1.0480049e-38 327 263
0.010239467 0.73000002 -0.029438468 1.1230934e-38 328 263
-0.051057063 0.72799999 -0.030634239 1.7140087e-38 280 264
-0.049712259 0.727 -0.030592158 1.557276e-38 281 264
-0.048304334 0.72500002 -0.030508002 1.2976511e-38 282 264
-0.047033165 0.72500002 -0.030508002 1.0671981e-38 283 264
-0.04563576 0.72299999 -0.030423839 1.2136308e-38 284 264
-0.044368099 0.72299999 -0.030423839 1.2412894e-38 285 264
-0.043040827 0.722 -0.030381758 1.2596933e-38 286 264
-0.041774917 0.722 -0.030381758 1.2781325e-38 287 264
-0.040509012 0.722 -0.030381758 1.2508701e-38 288 264
-0.039134402 0.72000003 -0.0302976 1.2601255e-38 289 264
-0.037871998 0.72000003 -0.0302976 1.2693463e-38 290 264
-0.036609601 0.72000003 -0.0302976 1.2601268e-38 291 264
-0.035347197 0.72000003 -0.0302976 1.1676775e-38 292 264
-0.034084801 0.72000003 -0.0302976 1.1031405e-38 293 264
-0.032776814 0.71899998 -0.030255521 1.0936323e-38 294 264
-0.031516165 0.71899998 -0.030255521 1.0659376e-38 295 264
-0.030255521 0.71899998 -0.030255521 1.0659026e-38 296 264
-0.028994869 0.71899998 -0.030255521 1.0659026e-38 297 264
-0.027734226 0.71899998 -0.030255521 1.0567909e-38 298 264
-0.02639994 0.71700001 -0.030171359 1.0660105e-38 299 264
-0.0251428 0.71700001 -0.030171359 1.0660108e-38 300 264
-0.02388566 0.71700001 -0.030171359 1.0567912e-38 301 264
-0.02262852 0.71700001 -0.030171359 1.0568631e-38 302 264
-0.021371379 0.71700001 -0.030171359 1.0568631e-38 303 264
-0.020170346 0.71899998 -0.030255521 1.0476079e-38 304 264
-0.018909698 0.71899998 -0.030255521 1.0383884e-38 305 264
-0.017649053 0.71899998 -0.030255521 1.0200215e-38 306 264
-0.016388407 0.71899998 -0.030255521 1.0200215e-38 307 264
-0.0151488 0.72000003 -0.0302976 1.0016903e-38 308 264
-0.013924973 0.722 -0.030381758 1.0016903e-38 309 264
-0.012659066 0.722 -0.030381758 1.0109099e-38 310 264
-0.01139316 0.722 -0.030381758 1.0109099e-38 311 264
-0.010127253 0.722 -0.030381758 1.0293486e-38 312 264
-0.0088613462 0.722 -0.030381758 1.0109455e-38 313 264
-0.0076059597 0.72299999 -0.030423839 1.0292764e-38 314 264
-0.0063382997 0.72299999 -0.030423839 1.0292764e-38 315 264
-0.0050706398 0.72299999 -0.030423839 1.0292764e-38 316 264
-0.0038029798 0.72299999 -0.030423839 1.038496e-38 317 264
-0.0025353199 0.72299999 -0.030423839 1.0568631e-38 318 264
-0.0012711667 0.72500002 -0.030508002 1.0568631e-38 319 264
0 0.72500002 -0.030508002 1.0568275e-38 320 264
0.0012746733 0.727 -0.030592158 1.0660472e-38 321 264
0.0025493465 0.727 -0.030592158 1.0843787e-38 322 264
0.0038292799 0.72799999 -0.030634239 1.1028537e-38 323 264
0.0051197335 0.73000002 -0.030718399 1.0938136e-38 324 264
0.0063996664 0.73000002 -0.030718399 1.1030332e-38 325 264
0.0076795998 0.73000002 -0.030718399 1.1031052e-38 326 264
0.0089595336 0.73000002 -0.030718399 1.0293486e-38 327 264
0.010239467 0.73000002 -0.030718399 1.0393614e-38 328 264
-0.049712259 0.727 -0.03186683 1.5664953e-38 281 265
-0.048304334 0.72500002 -0.031779166 1.3254177e-38 282 265
-0.046903417 0.72299999 -0.031691495 1.0580504e-38 283 265
-0.04563576 0.72299999 -0.031691495 1.2136664e-38 284 265
-0.044368099 0.72299999 -0.031691495 1.2412891e-38 285 265
-0.043040827 0.722 -0.031647664 1.2504736e-38 286 265
-0.041774917 0.722 -0.031647664 1.2873879e-38 287 265
-0.040509012 0.722 -0.031647664 1.2510501e-38 288 265
-0.039134402 0.72000003 -0.03156 1.2602697e-38 289 265
-0.037871998 0.72000003 -0.03156 1.2512666e-38 290 265
-0.036609601 0.72000003 -0.03156 1.2328274e-38 291 265
-0.035298105 0.71899998 -0.031516165 1.1680738e-38 292 265
-0.03403746 0.71899998 -0.031516165 1.0389999e-38 293 265
-0.032776814 0.71899998 -0.031516165 1.1028887e-38 294 265
-0.031428497 0.71700001 -0.031428497 1.0475714e-38 295 265
-0.030171359 0.71700001 -0.031428497 1.0475714e-38 296 265
-0.028873893 0.71600002 -0.031384666 1.0383518e-38 297 265
-0.027618507 0.71600002 -0.031384666 1.0383518e-38 298 265
-0.026363119 0.71600002 -0.031384666 1.0475714e-38 299 265
-0.025107734 0.71600002 -0.031384666 1.0199853e-38 300 265
-0.023852346 0.71600002 -0.031384666 1.0199853e-38 301 265
-0.022596961 0.71600002 -0.031384666 1.0475363e-38 302 265
-0.021371379 0.71700001 -0.031428497 1.0383168e-38 303 265
-0.020170346 0.71899998 -0.031516165 1.0290613e-38 304 265
-0.018909698 0.71899998 -0.031516165 1.0383168e-38 305 265
-0.017649053 0.71899998 -0.031516165 1.0199497e-38 306 265
-0.016388407 0.71899998 -0.031516165 1.0199497e-38 307 265
-0.01512776 0.71899998 -0.031516165 9.9247076e-39 308 265
-0.0138864 0.72000003 -0.03156 1.0016903e-38 309 265
-0.012624 0.72000003 -0.03156 1.0017978e-38 310 265
-0.011361601 0.72000003 -0.03156 1.0017978e-38 311 265
-0.010099201 0.72000003 -0.03156 1.0200569e-38 312 265
-0.0088613462 0.722 -0.031647664 1.038496e-38 313 265
-0.0075954394 0.722 -0.031647664 1.0476076e-38 314 265
-0.0063382997 0.72299999 -0.031691495 1.0383881e-38 315 265
-0.0050706398 0.72299999 -0.031691495 1.0383884e-38 316 265
-0.0038029798 0.72299999 -0.031691495 1.0383884e-38 317 265
-0.0025353199 0.72299999 -0.031691495 1.047536e-38 318 265
-0.0012676599 0.72299999 -0.031691495 1.0567556e-38 319 265
0 0.72500002 -0.031779166 1.0567556e-38 320 265
0.0012711667 0.72500002 -0.031779166 1.0567556e-38 321 265
0.0025493465 0.727 -0.03186683 1.0567559e-38 322 265
0.0038292799 0.72799999 -0.031910665 1.0843787e-38 323 265
0.0051057064 0.72799999 -0.031910665 1.0936339e-38 324 265
0.0063821329 0.72799999 -0.031910665 1.1028534e-38 325 265
0.0076795998 0.73000002 -0.031998333 1.1121446e-38 326 265
0.0089595336 0.73000002 -0.031998333 1.0937415e-38 327 265
0.010239467 0.73000002 -0.031998333 1.038713e-38 328 265
-0.048171077 0.72299999 -0.032959159 1.3623683e-38 282 266
-0.046903417 0.72299999 -0.032959159 1.0673781e-38 283 266
-0.04563576 0.72299999 -0.032959159 1.2228507e-38 284 266
-0.044306733 0.722 -0.032913569 1.2136311e-38 285 266
-0.043040827 0.722 -0.032913569 1.2228522e-38 286 266
-0.041774917 0.722 -0.032913569 1.2412915e-38 287 266
-0.040509012 0.722 -0.032913569 1.1955545e-38 288 266
-0.039134402 0.72000003 -0.0328224 1.2232491e-38 289 266
-0.037871998 0.72000003 -0.0328224 1.2049896e-38 290 266
-0.036609601 0.72000003 -0.0328224 1.1865503e-38 291 266
-0.035298105 0.71899998 -0.032776814 1.1402356e-38 292 266
-0.03403746 0.71899998 -0.032776814 1.0572595e-38 293 266
-0.032685637 0.71700001 -0.032685637 1.0660828e-38 294 266
-0.031428497 0.71700001 -0.032685637 1.0476076e-38 295 266
-0.030171359 0.71700001 -0.032685637 1.0475714e-38 296 266
-0.028873893 0.71600002 -0.032640055 1.0383518e-38 297 266
-0.027618507 0.71600002 -0.032640055 1.0290969e-38 298 266
-0.026363119 0.71600002 -0.032640055 1.0290969e-38 299 266
-0.025107734 0.71600002 -0.032640055 1.0015105e-38 300 266
-0.023852346 0.71600002 -0.032640055 1.0199497e-38 301 266
-0.022596961 0.71600002 -0.032640055 9.832156e-39 302 266
-0.021341572 0.71600002 -0.032640055 9.9247104e-39 303 266
-0.020114239 0.71700001 -0.032685637 1.0015471e-38 304 266
-0.018909698 0.71899998 -0.032776814 1.0015471e-38 305 266
-0.017649053 0.71899998 -0.032776814 9.8328777e-39 306 266
-0.016388407 0.71899998 -0.032776814 9.8328777e-39 307 266
-0.01512776 0.71899998 -0.032776814 9.8328749e-39 308 266
-0.013867113 0.71899998 -0.032776814 9.8328749e-39 309 266
-0.012606465 0.71899998 -0.032776814 9.9254265e-39 310 266
-0.01134582 0.71899998 -0.032776814 9.9254265e-39 311 266
-0.010099201 0.72000003 -0.0328224 1.0200571e-38 312 266
-0.0088367993 0.72000003 -0.0328224 1.0200571e-38 313 266
-0.0075954394 0.722 -0.032913569 1.0383884e-38 314 266
-0.0063295332 0.722 -0.032913569 1.0476079e-38 315 266
-0.0050636264 0.722 -0.032913569 1.0292767e-38 316 266
-0.0038029798 0.72299999 -0.032959159 1.0292767e-38 317 266
-0.0025353199 0.72299999 -0.032959159 1.0292767e-38 318 266
-0.0012676599 0.72299999 -0.032959159 1.0292767e-38 319 266
0 0.72500002 -0.033050332 1.0292767e-38 320 266
0.0012711667 0.72500002 -0.033050332 1.0292767e-38 321 266
0.0025493465 0.727 -0.033141505 1.0292414e-38 322 266
0.0038240198 0.727 -0.033141505 1.0476807e-38 323 266
0.0051057064 0.72799999 -0.033187091 1.0385686e-38 324 266
0.0063821329 0.72799999 -0.033187091 1.0570077e-38 325 266
0.0076585598 0.72799999 -0.033187091 1.0662273e-38 326 266
0.0089595336 0.73000002 -0.033278264 1.0938499e-38 327 266
0.010239467 0.73000002 -0.033278264 1.0294213e-38 328 266
0.011519399 0.73000002 -0.033278264 1.1123614e-38 329 266
-0.048171077 0.72299999 -0.03422682 1.3716244e-38 282 267
-0.046838548 0.722 -0.034179479 1.0766343e-38 283 267
-0.045572639 0.722 -0.034179479 1.2044832e-38 284 267
-0.044306733 0.722 -0.034179479 1.1952636e-38 285 267
-0.043040827 0.722 -0.034179479 1.2133793e-38 286 267
-0.041774917 0.722 -0.034179479 1.2133793e-38 287 267
-0.040396802 0.72000003 -0.034084801 1.1951214e-38 288 267
-0.039134402 0.72000003 -0.034084801 1.1859017e-38 289 267
-0.037871998 0.72000003 -0.034084801 1.1307289e-38 290 267
-0.036609601 0.72000003 -0.034084801 1.1122898e-38 291 267
-0.035298105 0.71899998 -0.03403746 1.1213294e-38 292 267
-0.03403746 0.71899998 -0.03403746 1.0844872e-38 293 267
-0.032685637 0.71700001 -0.033942781 1.0660122e-38 294 267
-0.031428497 0.71700001 -0.033942781 1.0475729e-38 295 267
-0.030171359 0.71700001 -0.033942781 1.029277e-38 296 267
-0.028914221 0.71700001 -0.033942781 1.010802e-38 297 267
-0.027657079 0.71700001 -0.033942781 1.0290969e-38 298 267
-0.026363119 0.71600002 -0.03389544 1.0290969e-38 299 267
-0.025107734 0.71600002 -0.03389544 9.8317903e-39 300 267
-0.023852346 0.71600002 -0.03389544 1.0015821e-38 301 267
-0.022596961 0.71600002 -0.03389544 9.6491969e-39 302 267
-0.021341572 0.71600002 -0.03389544 9.5570013e-39 303 267
-0.020114239 0.71700001 -0.033942781 9.8314372e-39 304 267
-0.018857099 0.71700001 -0.033942781 1.0015827e-38 305 267
-0.017599959 0.71700001 -0.033942781 9.8314372e-39 306 267
-0.016342819 0.71700001 -0.033942781 1.0015827e-38 307 267
-0.01512776 0.71899998 -0.03403746 9.832512e-39 308 267
-0.013867113 0.71899998 -0.03403746 9.832512e-39 309 267
-0.012606465 0.71899998 -0.03403746 9.9247048e-39 310 267
-0.01134582 0.71899998 -0.03403746 9.9247048e-39 311 267
-0.010099201 0.72000003 -0.034084801 1.0108376e-38 312 267
-0.0088367993 0.72000003 -0.034084801 1.0108376e-38 313 267
-0.0075954394 0.722 -0.034179479 1.0199853e-38 314 267
-0.0063295332 0.722 -0.034179479 1.0383884e-38 315 267
-0.0050636264 0.722 -0.034179479 1.0200571e-38 316 267
-0.0037977197 0.722 -0.034179479 1.0292767e-38 317 267
-0.0025353199 0.72299999 -0.03422682 1.029277e-38 318 267
-0.0012676599 0.72299999 -0.03422682 1.0200215e-38 319 267
0 0.72299999 -0.03422682 1.0383886e-38 320 267
0.0012711667 0.72500002 -0.034321502 1.0568278e-38 321 267
0.0025423334 0.72500002 -0.034321502 1.0476082e-38 322 267
0.0038135003 0.72500002 -0.034321502 1.0568278e-38 323 267
0.0050846669 0.72500002 -0.034321502 1.0568631e-38 324 267
0.0063733663 0.727 -0.03441618 1.0660828e-38 325 267
0.0076585598 0.72799999 -0.034463517 1.0845219e-38 326 267
0.0089595336 0.73000002 -0.034558199 1.0753024e-38 327 267
0.010239467 0.73000002 -0.034558199 1.0385316e-38 328 267
0.011519399 0.73000002 -0.034558199 9.6477508e-39 329 267
-0.049438741 0.72299999 -0.035494477 1.5848268e-38 281 268
-0.048171077 0.72299999 -0.035494477 1.3255269e-38 282 268
-0.046838548 0.722 -0.035445385 1.0581596e-38 283 268
-0.045572639 0.722 -0.035445385 1.2227428e-38 284 268
-0.044306733 0.722 -0.035445385 1.19512e-38 285 268
-0.043040827 0.722 -0.035445385 1.1858648e-38 286 268
-0.041774917 0.722 -0.035445385 1.1582061e-38 287 268
-0.040396802 0.72000003 -0.035347197 1.1398406e-38 288 268
-0.039134402 0.72000003 -0.035347197 1.130621e-38 289 268
-0.037871998 0.72000003 -0.035347197 1.1029277e-38 290 268
-0.036609601 0.72000003 -0.035347197 1.0844884e-38 291 268
-0.035347197 0.72000003 -0.035347197 1.0569371e-38 292 268
-0.03403746 0.71899998 -0.035298105 1.0569371e-38 293 268
-0.032685637 0.71700001 -0.035199918 1.0476807e-38 294 268
-0.031428497 0.71700001 -0.035199918 1.038461e-38 295 268
-0.030171359 0.71700001 -0.035199918 1.029277e-38 296 268
-0.028873893 0.71600002 -0.035150826 1.010802e-38 297 268
-0.027618507 0.71600002 -0.035150826 1.0198418e-38 298 268
-0.026363119 0.71600002 -0.035150826 1.0014385e-38 299 268
-0.025107734 0.71600002 -0.035150826 9.8317931e-39 300 268
-0.023852346 0.71600002 -0.035150826 9.8317931e-39 301 268
-0.022596961 0.71600002 -0.035150826 9.5566481e-39 302 268
-0.021341572 0.71600002 -0.035150826 9.4644525e-39 303 268
-0.020114239 0.71700001 -0.035199918 9.7399632e-39 304 268
-0.018857099 0.71700001 -0.035199918 9.6477676e-39 305 268
-0.017599959 0.71700001 -0.035199918 9.6477676e-39 306 268
-0.016342819 0.71700001 -0.035199918 9.8321588e-39 307 268
-0.01512776 0.71899998 -0.035298105 9.7399604e-39 308 268
-0.013867113 0.71899998 -0.035298105 9.832156e-39 309 268
-0.012606465 0.71899998 -0.035298105 9.832156e-39 310 268
-0.01134582 0.71899998 -0.035298105 9.9247104e-39 311 268
-0.010085173 0.71899998 -0.035298105 9.9247076e-39 312 268
-0.0088367993 0.72000003 -0.035347197 9.832512e-39 313 268
-0.0075743999 0.72000003 -0.035347197 1.010802e-38 314 268
-0.0063295332 0.722 -0.035445385 1.0200215e-38 315 268
-0.0050636264 0.722 -0.035445385 1.0200215e-38 316 268
-0.0037977197 0.722 -0.035445385 1.0200215e-38 317 268
-0.0025318132 0.722 -0.035445385 1.0200218e-38 318 268
-0.0012676599 0.72299999 -0.035494477 1.0200218e-38 319 268
0 0.72299999 -0.035494477 1.0383531e-38 320 268
0.0012676599 0.72299999 -0.035494477 1.0383531e-38 321 268
0.0025423334 0.72500002 -0.035592668 1.0200218e-38 322 268
0.0038135003 0.72500002 -0.035592668 1.038461e-38 323 268
0.0050846669 0.72500002 -0.035592668 1.0109099e-38 324 268
0.0063733663 0.727 -0.035690852 1.0109099e-38 325 268
0.0076585598 0.72799999 -0.035739943 1.0384965e-38 326 268
0.0089349858 0.72799999 -0.035739943 1.0384965e-38 327 268
0.010211413 0.72799999 -0.035739943 1.0475714e-38 328 268
0.01148784 0.72799999 -0.035739943 9.369373e-39 329 268
0.012799333 0.73000002 -0.035838135 1.1774731e-38 330 268
-0.049438741 0.72299999 -0.036762137 1.5387647e-38 281 269
-0.048171077 0.72299999 -0.036762137 1.2885766e-38 282 269
-0.046838548 0.722 -0.03671129 1.0488681e-38 283 269
-0.045572639 0.722 -0.03671129 1.2134512e-38 284 269
-0.044306733 0.722 -0.03671129 1.2226709e-38 285 269
-0.043040827 0.722 -0.03671129 1.1857922e-38 286 269
-0.041774917 0.722 -0.03671129 1.1581337e-38 287 269
-0.040396802 0.72000003 -0.036609601 1.1213279e-38 288 269
-0.039134402 0.72000003 -0.036609601 1.1213279e-38 289 269
-0.037871998 0.72000003 -0.036609601 1.0935983e-38 290 269
-0.036609601 0.72000003 -0.036609601 1.0935983e-38 291 269
-0.035298105 0.71899998 -0.036558751 1.0476807e-38 292 269
-0.03403746 0.71899998 -0.036558751 1.038461e-38 293 269
-0.032685637 0.71700001 -0.036457058 1.038461e-38 294 269
-0.031384666 0.71600002 -0.036406212 1.0292414e-38 295 269
-0.03012928 0.71600002 -0.036406212 1.0200221e-38 296 269
-0.028873893 0.71600002 -0.036406212 1.0015471e-38 297 269
-0.027618507 0.71600002 -0.036406212 1.0198064e-38 298 269
-0.026363119 0.71600002 -0.036406212 1.0014033e-38 299 269
-0.025107734 0.71600002 -0.036406212 9.7392415e-39 300 269
-0.023852346 0.71600002 -0.036406212 9.7392415e-39 301 269
-0.022596961 0.71600002 -0.036406212 9.7392443e-39 302 269
-0.021341572 0.71600002 -0.036406212 9.6470473e-39 303 269
-0.020170346 0.71899998 -0.036558751 9.6470473e-39 304 269
-0.018909698 0.71899998 -0.036558751 9.6470473e-39 305 269
-0.017599959 0.71700001 -0.036457058 9.6470445e-39 306 269
-0.016342819 0.71700001 -0.036457058 9.7392415e-39 307 269
-0.01512776 0.71899998 -0.036558751 9.8303596e-39 308 269
-0.013867113 0.71899998 -0.036558751 9.8303596e-39 309 269
-0.012606465 0.71899998 -0.036558751 9.7392443e-39 310 269
-0.01134582 0.71899998 -0.036558751 9.83144e-39 311 269
-0.010085173 0.71899998 -0.036558751 1.0015827e-38 312 269
-0.0088245263 0.71899998 -0.036558751 1.0015827e-38 313 269
-0.0075743999 0.72000003 -0.036609601 1.010802e-38 314 269
-0.0063120001 0.72000003 -0.036609601 1.010802e-38 315 269
-0.0050636264 0.722 -0.03671129 1.0108376e-38 316 269
-0.0037977197 0.722 -0.03671129 1.0108376e-38 317 269
-0.0025318132 0.722 -0.03671129 1.0199497e-38 318 269
-0.0012659066 0.722 -0.03671129 1.0199497e-38 319 269
0 0.72299999 -0.036762137 1.0382812e-38 320 269
0.0012676599 0.72299999 -0.036762137 1.0382812e-38 321 269
0.0025353199 0.72299999 -0.036762137 1.0383168e-38 322 269
0.0038029798 0.72299999 -0.036762137 1.0475363e-38 323 269
0.0050846669 0.72500002 -0.036863834 1.0200571e-38 324 269
0.0063558333 0.72500002 -0.036863834 1.0200571e-38 325 269
0.0076480396 0.727 -0.036965527 1.0476079e-38 326 269
0.0089349858 0.72799999 -0.037016369 1.0476079e-38 327 269
0.010211413 0.72799999 -0.037016369 1.056683e-38 328 269
0.011519399 0.73000002 -0.037118066 9.5526853e-39 329 269
0.012799333 0.73000002 -0.037118066 1.1681094e-38 330 269
-0.049438741 0.72299999 -0.038029801 1.5109984e-38 281 270
-0.048171077 0.72299999 -0.038029801 1.2791054e-38 282 270
-0.046903417 0.72299999 -0.038029801 1.1039337e-38 283 270
-0.04563576 0.72299999 -0.038029801 1.2134876e-38 284 270
-0.044306733 0.722 -0.0379772 1.1950844e-38 285 270
-0.043040827 0.722 -0.0379772 1.1582058e-38 286 270
-0.041774917 0.722 -0.0379772 1.1489863e-38 287 270
-0.040509012 0.722 -0.0379772 1.1213279e-38 288 270
-0.039134402 0.72000003 -0.037871998 1.1121083e-38 289 270
-0.037871998 0.72000003 -0.037871998 1.0753026e-38 290 270
-0.036609601 0.72000003 -0.037871998 1.0660472e-38 291 270
-0.035298105 0.71899998 -0.037819397 1.0568278e-38 292 270
-0.033942781 0.71700001 -0.037714198 1.0476082e-38 293 270
-0.032685637 0.71700001 -0.037714198 1.0292414e-38 294 270
-0.031384666 0.71600002 -0.037661601 1.0292414e-38 295 270
-0.03012928 0.71600002 -0.037661601 1.0383531e-38 296 270
-0.028873893 0.71600002 -0.037661601 1.0107304e-38 297 270
-0.027618507 0.71600002 -0.037661601 9.8314372e-39 298 270
-0.026363119 0.71600002 -0.037661601 9.7392415e-39 299 270
-0.025107734 0.71600002 -0.037661601 9.5548517e-39 300 270
-0.023852346 0.71600002 -0.037661601 9.6470473e-39 301 270
-0.022596961 0.71600002 -0.037661601 9.7381639e-39 302 270
-0.021341572 0.71600002 -0.037661601 9.7381639e-39 303 270
-0.020170346 0.71899998 -0.037819397 9.4622973e-39 304 270
-0.018909698 0.71899998 -0.037819397 9.4622973e-39 305 270
-0.017599959 0.71700001 -0.037714198 9.5548517e-39 306 270
-0.016342819 0.71700001 -0.037714198 9.5548517e-39 307 270
-0.01512776 0.71899998 -0.037819397 9.6470473e-39 308 270
-0.013867113 0.71899998 -0.037819397 9.5548517e-39 309 270
-0.012606465 0.71899998 -0.037819397 9.5548517e-39 310 270
-0.01134582 0.71899998 -0.037819397 9.7392443e-39 311 270
-0.010085173 0.71899998 -0.037819397 9.7392415e-39 312 270
-0.0088245263 0.71899998 -0.037819397 9.7392415e-39 313 270
-0.0075638802 0.71899998 -0.037819397 1.0015105e-38 314 270
-0.0063120001 0.72000003 -0.037871998 1.0015105e-38 315 270
-0.0050496003 0.72000003 -0.037871998 1.0015103e-38 316 270
-0.0037872 0.72000003 -0.037871998 1.0107657e-38 317 270
-0.0025318132 0.722 -0.0379772 1.0107657e-38 318 270
-0.0012659066 0.722 -0.0379772 1.0107657e-38 319 270
0 0.72299999 -0.038029801 1.0290969e-38 320 270
0.0012676599 0.72299999 -0.038029801 1.0290969e-38 321 270
0.0025353199 0.72299999 -0.038029801 1.0107657e-38 322 270
0.0038029798 0.72299999 -0.038029801 1.0107657e-38 323 270
0.0050846669 0.72500002 -0.038135 1.0107657e-38 324 270
0.0063558333 0.72500002 -0.038135 1.0107657e-38 325 270
0.0076480396 0.727 -0.038240198 1.0107301e-38 326 270
0.0089349858 0.72799999 -0.038292799 1.0107301e-38 327 270
0.010211413 0.72799999 -0.038292799 1.029025e-38 328 270
0.01148784 0.72799999 -0.038292799 9.5526853e-39 329 270
0.012764266 0.72799999 -0.038292799 1.177149e-38 330 270
-0.049438741 0.72299999 -0.039297458 1.4742275e-38 281 271
-0.048171077 0.72299999 -0.039297458 1.251482e-38 282 271
-0.046903417 0.72299999 -0.039297458 1.0762743e-38 283 271
-0.04563576 0.72299999 -0.039297458 1.1768249e-38 284 271
-0.044306733 0.722 -0.039243106 1.1676052e-38 285 271
-0.043040827 0.722 -0.039243106 1.1490939e-38 286 271
-0.041774917 0.722 -0.039243106 1.1398743e-38 287 271
-0.040509012 0.722 -0.039243106 1.130583e-38 288 271
-0.039134402 0.72000003 -0.039134402 1.112108e-38 289 271
-0.037871998 0.72000003 -0.039134402 1.0936336e-38 290 271
-0.036609601 0.72000003 -0.039134402 1.084414e-38 291 271
-0.035298105 0.71899998 -0.039080046 1.0292767e-38 292 271
-0.033942781 0.71700001 -0.038971342 1.0292767e-38 293 271
-0.032685637 0.71700001 -0.038971342 1.010802e-38 294 271
-0.031384666 0.71600002 -0.038916986 1.010802e-38 295 271
-0.03012928 0.71600002 -0.038916986 1.0108023e-38 296 271
-0.028873893 0.71600002 -0.038916986 1.0015827e-38 297 271
-0.027618507 0.71600002 -0.038916986 9.7403163e-39 298 271
-0.026363119 0.71600002 -0.038916986 9.4637294e-39 299 271
-0.025107734 0.71600002 -0.038916986 9.5548489e-39 300 271
-0.023852346 0.71600002 -0.038916986 9.5548489e-39 301 271
-0.022596961 0.71600002 -0.038916986 9.6470473e-39 302 271
-0.021371379 0.71700001 -0.038971342 9.5548517e-39 303 271
-0.020170346 0.71899998 -0.039080046 9.278985e-39 304 271
-0.018909698 0.71899998 -0.039080046 9.3711807e-39 305 271
-0.017599959 0.71700001 -0.038971342 9.3711807e-39 306 271
-0.016342819 0.71700001 -0.038971342 9.278985e-39 307 271
-0.015085679 0.71700001 -0.038971342 9.3719023e-39 308 271
-0.013867113 0.71899998 -0.039080046 9.2797067e-39 309 271
-0.012606465 0.71899998 -0.039080046 9.3711807e-39 310 271
-0.01134582 0.71899998 -0.039080046 9.3711807e-39 311 271
-0.010085173 0.71899998 -0.039080046 9.4637322e-39 312 271
-0.0088245263 0.71899998 -0.039080046 9.4637322e-39 313 271
-0.0075638802 0.71899998 -0.039080046 9.6474004e-39 314 271
-0.0063120001 0.72000003 -0.039134402 9.6474004e-39 315 271
-0.0050496003 0.72000003 -0.039134402 9.7395961e-39 316 271
-0.0037872 0.72000003 -0.039134402 9.8317931e-39 317 271
-0.0025318132 0.722 -0.039243106 9.8317931e-39 318 271
-0.0012659066 0.722 -0.039243106 9.8317931e-39 319 271
0 0.72299999 -0.039297458 1.0015103e-38 320 271
0.0012676599 0.72299999 -0.039297458 1.0015103e-38 321 271
0.0025353199 0.72299999 -0.039297458 9.8317931e-39 322 271
0.0038029798 0.72299999 -0.039297458 1.0015824e-38 323 271
0.0050846669 0.72500002 -0.039406165 9.8317931e-39 324 271
0.0063558333 0.72500002 -0.039406165 9.7395961e-39 325 271
0.0076480396 0.727 -0.039514873 9.8303568e-39 326 271
0.0089349858 0.72799999 -0.039569225 9.9225538e-39 327 271
0.010211413 0.72799999 -0.039569225 1.0014738e-38 328 271
0.01148784 0.72799999 -0.039569225 9.8303469e-39 329 271
0.012764266 0.72799999 -0.039569225 1.1402709e-38 330 271
-0.0495755 0.72500002 -0.040677335 1.4927378e-38 281 272
-0.048304334 0.72500002 -0.040677335 1.2791401e-38 282 272
-0.046903417 0.72299999 -0.040565118 1.0302119e-38 283 272
-0.04563576 0.72299999 -0.040565118 1.0756614e-38 284 272
-0.044368099 0.72299999 -0.040565118 1.1125396e-38 285 272
-0.043100435 0.72299999 -0.040565118 1.1215797e-38 286 272
-0.041774917 0.722 -0.040509012 1.1215797e-38 287 272
-0.040509012 0.722 -0.040509012 1.1213995e-38 288 272
-0.039243106 0.722 -0.040509012 1.0937768e-38 289 272
-0.037871998 0.72000003 -0.040396802 1.06619e-38 290 272
-0.036609601 0.72000003 -0.040396802 1.047751e-38 291 272
-0.035298105 0.71899998 -0.040340692 1.0293839e-38 292 272
-0.033942781 0.71700001 -0.040228479 1.0017254e-38 293 272
-0.032685637 0.71700001 -0.040228479 9.9247104e-39 294 272
-0.031384666 0.71600002 -0.040172372 9.7399604e-39 295 272
-0.03012928 0.71600002 -0.040172372 1.0014755e-38 296 272
-0.028873893 0.71600002 -0.040172372 9.9225594e-39 297 272
-0.027618507 0.71600002 -0.040172372 9.6477648e-39 298 272
-0.026363119 0.71600002 -0.040172372 9.4637322e-39 299 272
-0.025107734 0.71600002 -0.040172372 9.6474004e-39 300 272
-0.023852346 0.71600002 -0.040172372 9.6474004e-39 301 272
-0.022596961 0.71600002 -0.040172372 9.4626532e-39 302 272
-0.021371379 0.71700001 -0.040228479 9.4626532e-39 303 272
-0.020170346 0.71899998 -0.040340692 9.279341e-39 304 272
-0.018909698 0.71899998 -0.040340692 9.279341e-39 305 272
-0.017599959 0.71700001 -0.040228479 9.1875055e-39 306 272
-0.016342819 0.71700001 -0.040228479 9.1875055e-39 307 272
-0.015085679 0.71700001 -0.040228479 9.279341e-39 308 272
-0.013867113 0.71899998 -0.040340692 9.3715366e-39 309 272
-0.012606465 0.71899998 -0.040340692 9.4630064e-39 310 272
-0.01134582 0.71899998 -0.040340692 9.4630064e-39 311 272
-0.010085173 0.71899998 -0.040340692 9.4630064e-39 312 272
-0.0088245263 0.71899998 -0.040340692 9.4630064e-39 313 272
-0.0075638802 0.71899998 -0.040340692 9.555202e-39 314 272
-0.0063120001 0.72000003 -0.040396802 9.555202e-39 315 272
-0.0050496003 0.72000003 -0.040396802 9.7385115e-39 316 272
-0.0037872 0.72000003 -0.040396802 9.8307071e-39 317 272
-0.0025318132 0.722 -0.040509012 9.9225426e-39 318 272
-0.0012659066 0.722 -0.040509012 9.9225426e-39 319 272
0 0.722 -0.040509012 9.9221866e-39 320 272
0.0012676599 0.72299999 -0.040565118 9.9221866e-39 321 272
0.0025353199 0.72299999 -0.040565118 9.8307127e-39 322 272
0.0038029798 0.72299999 -0.040565118 9.9229083e-39 323 272
0.0050846669 0.72500002 -0.040677335 9.8307127e-39 324 272
0.0063558333 0.72500002 -0.040677335 9.7385171e-39 325 272
0.0076480396 0.727 -0.040789545 9.8307099e-39 326 272
0.0089349858 0.72799999 -0.040845651 1.0015103e-38 327 272
0.010239467 0.73000002 -0.040957868 1.0200206e-38 328 272
0.011519399 0.73000002 -0.040957868 1.0107651e-38 329 272
0.012799333 0.73000002 -0.040957868 1.0850254e-38 330 272
-0.048304334 0.72500002 -0.041948501 1.3531473e-38 282 273
-0.047033165 0.72500002 -0.041948501 1.0119876e-38 283 273
-0.04563576 0.72299999 -0.041832779 1.0479304e-38 284 273
-0.044368099 0.72299999 -0.041832779 1.1124673e-38 285 273
-0.043100435 0.72299999 -0.041832779 1.1124317e-38 286 273
-0.041774917 0.722 -0.041774917 1.0940286e-38 287 273
-0.040509012 0.722 -0.041774917 1.1214348e-38 288 273
-0.039243106 0.722 -0.041774917 1.0938121e-38 289 273
-0.037871998 0.72000003 -0.041659199 1.0753374e-38 290 273
-0.036609601 0.72000003 -0.041659199 1.0661178e-38 291 273
-0.035298105 0.71899998 -0.041601337 1.0293117e-38 292 273
-0.03403746 0.71899998 -0.041601337 1.0200922e-38 293 273
-0.032776814 0.71899998 -0.041601337 1.010802e-38 294 273
-0.031428497 0.71700001 -0.041485619 9.8317931e-39 295 273
-0.030171359 0.71700001 -0.041485619 9.7392443e-39 296 273
-0.028914221 0.71700001 -0.041485619 9.7392443e-39 297 273
-0.027657079 0.71700001 -0.041485619 9.6477606e-39 298 273
-0.02639994 0.71700001 -0.041485619 9.4637294e-39 299 273
-0.0251428 0.71700001 -0.041485619 9.4637294e-39 300 273
-0.02388566 0.71700001 -0.041485619 9.3715338e-39 301 273
-0.02262852 0.71700001 -0.041485619 9.4622973e-39 302 273
-0.021371379 0.71700001 -0.041485619 9.4622973e-39 303 273
-0.020170346 0.71899998 -0.041601337 9.1875083e-39 304 273
-0.018909698 0.71899998 -0.041601337 9.0034772e-39 305 273
-0.017649053 0.71899998 -0.041601337 9.0034772e-39 306 273
-0.016388407 0.71899998 -0.041601337 9.0034772e-39 307 273
-0.01512776 0.71899998 -0.041601337 9.279341e-39 308 273
-0.013867113 0.71899998 -0.041601337 9.279341e-39 309 273
-0.012606465 0.71899998 -0.041601337 9.2793354e-39 310 273
-0.01134582 0.71899998 -0.041601337 9.2793354e-39 311 273
-0.010085173 0.71899998 -0.041601337 9.2793382e-39 312 273
-0.0088245263 0.71899998 -0.041601337 9.2793382e-39 313 273
-0.0075638802 0.71899998 -0.041601337 9.2793382e-39 314 273
-0.0063120001 0.72000003 -0.041659199 9.2793382e-39 315 273
-0.0050496003 0.72000003 -0.041659199 9.2793382e-39 316 273
-0.0037872 0.72000003 -0.041659199 9.3715338e-39 317 273
-0.0025318132 0.722 -0.041774917 9.4626532e-39 318 273
-0.0012659066 0.722 -0.041774917 9.5548489e-39 319 273
0 0.722 -0.041774917 9.4622973e-39 320 273
0.0012676599 0.72299999 -0.041832779 9.4622973e-39 321 273
0.0025353199 0.72299999 -0.041832779 9.4622973e-39 322 273
0.0038029798 0.72299999 -0.041832779 9.4622973e-39 323 273
0.0050846669 0.72500002 -0.041948501 9.5548489e-39 324 273
0.0063558333 0.72500002 -0.041948501 9.6470445e-39 325 273
0.0076585598 0.72799999 -0.042122077 9.6473976e-39 326 273
0.0089349858 0.72799999 -0.042122077 1.0015821e-38 327 273
0.010239467 0.73000002 -0.0422378 9.9254265e-39 328 273
0.011519399 0.73000002 -0.0422378 1.0294569e-38 329 273
-0.048437584 0.727 -0.043338891 1.4457387e-38 282 274
-0.047162913 0.727 -0.043338891 1.0216747e-38 283 274
-0.045761999 0.72500002 -0.043219667 1.0201273e-38 284 274
-0.044368099 0.72299999 -0.043100435 1.1399815e-38 285 274
-0.043100435 0.72299999 -0.043100435 1.1216516e-38 286 274
-0.041774917 0.722 -0.043040827 1.1216516e-38 287 274
-0.040509012 0.722 -0.043040827 1.1031403e-38 288 274
-0.039243106 0.722 -0.043040827 1.0755175e-38 289 274
-0.037871998 0.72000003 -0.042921603 1.075374e-38 290 274
-0.036609601 0.72000003 -0.042921603 1.0477513e-38 291 274
-0.035347197 0.72000003 -0.042921603 1.0293483e-38 292 274
-0.03403746 0.71899998 -0.042861983 9.9250607e-39 293 274
-0.032776814 0.71899998 -0.042861983 1.0108023e-38 294 274
-0.031428497 0.71700001 -0.042742759 1.0015827e-38 295 274
-0.030171359 0.71700001 -0.042742759 9.83144e-39 296 274
-0.028914221 0.71700001 -0.042742759 9.83144e-39 297 274
-0.027657079 0.71700001 -0.042742759 9.6477648e-39 298 274
-0.02639994 0.71700001 -0.042742759 9.4637322e-39 299 274
-0.0251428 0.71700001 -0.042742759 9.5548489e-39 300 274
-0.02388566 0.71700001 -0.042742759 9.4626532e-39 301 274
-0.02262852 0.71700001 -0.042742759 9.4622973e-39 302 274
-0.021371379 0.71700001 -0.042742759 9.4622973e-39 303 274
-0.020170346 0.71899998 -0.042861983 9.1875083e-39 304 274
-0.018909698 0.71899998 -0.042861983 9.0034772e-39 305 274
-0.017649053 0.71899998 -0.042861983 9.0034772e-39 306 274
-0.016388407 0.71899998 -0.042861983 9.0034772e-39 307 274
-0.01512776 0.71899998 -0.042861983 9.2793382e-39 308 274
-0.013867113 0.71899998 -0.042861983 9.1871425e-39 309 274
-0.012606465 0.71899998 -0.042861983 9.2793354e-39 310 274
-0.01134582 0.71899998 -0.042861983 9.2793354e-39 311 274
-0.010085173 0.71899998 -0.042861983 9.1871425e-39 312 274
-0.0088367993 0.72000003 -0.042921603 9.1871425e-39 313 274
-0.0075743999 0.72000003 -0.042921603 9.3704548e-39 314 274
-0.0063120001 0.72000003 -0.042921603 9.3704548e-39 315 274
-0.0050636264 0.722 -0.043040827 9.4630064e-39 316 274
-0.0037977197 0.722 -0.043040827 9.370452e-39 317 274
-0.0025318132 0.722 -0.043040827 9.4622847e-39 318 274
-0.0012659066 0.722 -0.043040827 9.5544803e-39 319 274
0 0.72299999 -0.043100435 9.3697331e-39 320 274
0.0012676599 0.72299999 -0.043100435 9.5544831e-39 321 274
0.0025353199 0.72299999 -0.043100435 9.3704576e-39 322 274
0.0038135003 0.72500002 -0.043219667 9.4626532e-39 323 274
0.0050846669 0.72500002 -0.043219667 9.5548461e-39 324 274
0.0063733663 0.727 -0.043338891 9.7395961e-39 325 274
0.0076585598 0.72799999 -0.043398503 9.8328651e-39 326 274
0.0089349858 0.72799999 -0.043398503 9.8328651e-39 327 274
0.010239467 0.73000002 -0.043517731 1.0110171e-38 328 274
0.011519399 0.73000002 -0.043517731 1.0202368e-38 329 274
-0.048437584 0.727 -0.044613566 1.5289671e-38 282 275
-0.047162913 0.727 -0.044613566 1.1417455e-38 283 275
-0.045888241 0.727 -0.044613566 1.1306898e-38 284 275
-0.044490833 0.72500002 -0.044490833 1.1767875e-38 285 275
-0.043219667 0.72500002 -0.044490833 1.1401613e-38 286 275
-0.041832779 0.72299999 -0.044368099 1.1309417e-38 287 275
-0.040509012 0.722 -0.044306733 1.1399459e-38 288 275
-0.039243106 0.722 -0.044306733 1.1123233e-38 289 275
-0.037871998 0.72000003 -0.044183999 1.1122155e-38 290 275
-0.036609601 0.72000003 -0.044183999 1.0753374e-38 291 275
-0.035298105 0.71899998 -0.044122629 1.0568625e-38 292 275
-0.03403746 0.71899998 -0.044122629 1.0200203e-38 293 275
-0.032776814 0.71899998 -0.044122629 1.019985e-38 294 275
-0.031428497 0.71700001 -0.043999899 1.0107654e-38 295 275
-0.030171359 0.71700001 -0.043999899 9.832512e-39 296 275
-0.028914221 0.71700001 -0.043999899 9.7403163e-39 297 275
-0.027657079 0.71700001 -0.043999899 9.6470445e-39 298 275
-0.02639994 0.71700001 -0.043999899 9.4626532e-39 299 275
-0.0251428 0.71700001 -0.043999899 9.55413e-39 300 275
-0.02388566 0.71700001 -0.043999899 9.55413e-39 301 275
-0.02262852 0.71700001 -0.043999899 9.279341e-39 302 275
-0.021371379 0.71700001 -0.043999899 9.279341e-39 303 275
-0.020170346 0.71899998 -0.044122629 9.1878614e-39 304 275
-0.018909698 0.71899998 -0.044122629 9.1878614e-39 305 275
-0.017649053 0.71899998 -0.044122629 9.1867866e-39 306 275
-0.016388407 0.71899998 -0.044122629 9.1867866e-39 307 275
-0.01512776 0.71899998 -0.044122629 9.1871425e-39 308 275
-0.013867113 0.71899998 -0.044122629 9.2793382e-39 309 275
-0.012624 0.72000003 -0.044183999 9.0038303e-39 310 275
-0.011361601 0.72000003 -0.044183999 9.0038303e-39 311 275
-0.010099201 0.72000003 -0.044183999 9.1871425e-39 312 275
-0.0088367993 0.72000003 -0.044183999 9.1871425e-39 313 275
-0.0075743999 0.72000003 -0.044183999 9.0038303e-39 314 275
-0.0063295332 0.722 -0.044306733 9.1878614e-39 315 275
-0.0050636264 0.722 -0.044306733 9.1878586e-39 316 275
