# .PCD v.7 - Point Cloud Data file format
FIELDS x y z rgb imX imY
SIZE 4 4 4 4 4 4
TYPE F F F F F F
COUNT 1 1 1 1 1 1
WIDTH 831
HEIGHT 1
VIEWPOINT 0 0 0 1 0 0 0
POINTS 831
DATA ascii
-0.039243106 0.722 -0.022786319 1.0662976e-38 289 258
-0.0379772 0.722 -0.022786319 1.0020491e-38 290 258
-0.036609601 0.72000003 -0.022723202 1.0113045e-38 291 258
-0.035298105 0.71899998 -0.022691639 9.2976938e-39 292 258
-0.03403746 0.71899998 -0.022691639 1.0127813e-38 293 258
-0.032685637 0.71700001 -0.02262852 9.2134323e-39 294 258
-0.031384666 0.71600002 -0.022596961 9.2134323e-39 295 258
-0.030045118 0.71399999 -0.022533838 9.3034797e-39 296 258
-0.028793238 0.71399999 -0.022533838 8.750306e-39 297 258
-0.027502786 0.713 -0.022502279 8.5677098e-39 298 258
-0.026179021 0.71100003 -0.022439159 9.2130792e-39 299 258
-0.024932399 0.71100003 -0.022439159 1.0226875e-38 300 258
-0.023685781 0.71100003 -0.022439159 1.1241386e-38 301 258
-0.022439159 0.71100003 -0.022439159 1.2437772e-38 302 258
-0.021192541 0.71100003 -0.022439159 1.2806914e-38 303 258
-0.01994592 0.71100003 -0.022439159 1.1228417e-38 304 258
-0.0186993 0.71100003 -0.022439159 8.2777965e-39 305 258
-0.01745268 0.71100003 -0.022439159 9.7377954e-39 306 258
-0.01620606 0.71100003 -0.022439159 1.0014382e-38 307 258
-0.014959441 0.71100003 -0.022439159 1.0288804e-38 308 258
-0.01371282 0.71100003 -0.022439159 1.0288804e-38 309 258
-0.0124662 0.71100003 -0.022439159 1.0013298e-38 310 258
-0.01121958 0.71100003 -0.022439159 9.9211034e-39 311 258
-0.0099729598 0.71100003 -0.022439159 9.7374325e-39 312 258
-0.0087263398 0.71100003 -0.022439159 9.7374325e-39 313 258
-0.0075007593 0.713 -0.022502279 9.6452382e-39 314 258
-0.0062506334 0.713 -0.022502279 9.6452382e-39 315 258
-0.0050005065 0.713 -0.022502279 9.5534027e-39 316 258
-0.0037556398 0.71399999 -0.022533838 9.369373e-39 317 258
-0.0025107733 0.71600002 -0.022596961 9.3700905e-39 318 258
-0.0012553866 0.71600002 -0.022596961 9.2778962e-39 319 258
0 0.71700001 -0.02262852 9.0942252e-39 320 258
0.00125714 0.71700001 -0.02262852 9.0942252e-39 321 258
0.0025142799 0.71700001 -0.02262852 9.0942252e-39 322 258
0.0037819401 0.71899998 -0.022691639 9.1867782e-39 323 258
0.0050425865 0.71899998 -0.022691639 9.1874957e-39 324 258
0.0063032326 0.71899998 -0.022691639 9.1874957e-39 325 258
0.0076059597 0.72299999 -0.02281788 8.8212341e-39 326 258
0.0088981669 0.72500002 -0.022880999 7.2550042e-39 327 258
0.010197386 0.727 -0.022944121 9.5620487e-39 328 258
0.01147206 0.727 -0.022944121 1.6753308e-38 329 258
-0.048504211 0.72799999 -0.024252106 1.5482008e-38 282 259
-0.047227785 0.72799999 -0.024252106 1.2623942e-38 283 259
-0.045888241 0.727 -0.024218792 1.1224081e-38 284 259
-0.044613566 0.727 -0.024218792 9.287973e-39 285 259
-0.043219667 0.72500002 -0.024152167 1.1307266e-38 286 259
-0.041832779 0.72299999 -0.024085538 1.0846288e-38 287 259
-0.040509012 0.722 -0.024052227 1.0846644e-38 288 259
-0.039243106 0.722 -0.024052227 1.093884e-38 289 259
-0.037871998 0.72000003 -0.0239856 1.0205959e-38 290 259
-0.036609601 0.72000003 -0.0239856 1.0298156e-38 291 259
-0.035298105 0.71899998 -0.023952285 8.9285679e-39 292 259
-0.033942781 0.71700001 -0.02388566 9.5739374e-39 293 259
-0.032685637 0.71700001 -0.02388566 8.2940138e-39 294 259
-0.031384666 0.71600002 -0.023852346 8.2018181e-39 295 259
-0.030045118 0.71399999 -0.02378572 8.8450225e-39 296 259
-0.028752912 0.713 -0.023752406 8.7528269e-39 297 259
-0.027502786 0.713 -0.023752406 8.9397391e-39 298 259
-0.026179021 0.71100003 -0.023685781 1.0414869e-38 299 259
-0.024897331 0.70999998 -0.023652466 1.2072233e-38 300 259
-0.023652466 0.70999998 -0.023652466 1.2809798e-38 301 259
-0.022407599 0.70999998 -0.023652466 1.290018e-38 302 259
-0.021192541 0.71100003 -0.023685781 1.1609441e-38 303 259
-0.01994592 0.71100003 -0.023685781 9.5656487e-39 304 259
-0.0186993 0.71100003 -0.023685781 6.431356e-39 305 259
-0.01745268 0.71100003 -0.023685781 9.645597e-39 306 259
-0.01620606 0.71100003 -0.023685781 9.8303469e-39 307 259
-0.014959441 0.71100003 -0.023685781 9.9214622e-39 308 259
-0.01371282 0.71100003 -0.023685781 9.7374325e-39 309 259
-0.0124662 0.71100003 -0.023685781 9.7374325e-39 310 259
-0.01121958 0.71100003 -0.023685781 9.7374325e-39 311 259
-0.0099729598 0.71100003 -0.023685781 9.6459557e-39 312 259
-0.0087263398 0.71100003 -0.023685781 9.5537615e-39 313 259
-0.0074797203 0.71100003 -0.023685781 9.5534027e-39 314 259
-0.0062506334 0.713 -0.023752406 9.5534027e-39 315 259
-0.0050005065 0.713 -0.023752406 9.369373e-39 316 259
-0.0037503797 0.713 -0.023752406 9.369373e-39 317 259
-0.0025037599 0.71399999 -0.02378572 9.094584e-39 318 259
-0.0012553866 0.71600002 -0.023852346 9.1867782e-39 319 259
0 0.71600002 -0.023852346 8.8194362e-39 320 259
0.0012553866 0.71600002 -0.023852346 8.8194362e-39 321 259
0.0025107733 0.71600002 -0.023852346 8.8194362e-39 322 259
0.0037714199 0.71700001 -0.02388566 8.9116319e-39 323 259
0.0050425865 0.71899998 -0.023952285 8.9116319e-39 324 259
0.0063032326 0.71899998 -0.023952285 9.0038275e-39 325 259
0.0075954394 0.722 -0.024052227 8.6386379e-39 326 259
0.0088981669 0.72500002 -0.024152167 7.2557217e-39 327 259
0.010197386 0.727 -0.024218792 9.3758498e-39 328 259
0.01147206 0.727 -0.024218792 1.6567109e-38 329 259
0.012746733 0.727 -0.024218792 1.4835192e-38 330 259
-0.048437584 0.727 -0.025493465 1.5390167e-38 282 260
-0.047162913 0.727 -0.025493465 1.2071124e-38 283 260
-0.045888241 0.727 -0.025493465 1.1129367e-38 284 260
-0.044490833 0.72500002 -0.025423333 9.8386286e-39 285 260
-0.043100435 0.72299999 -0.025353199 1.1304748e-38 286 260
-0.041832779 0.72299999 -0.025353199 1.1304748e-38 287 260
-0.040509012 0.722 -0.025318133 1.0845569e-38 288 260
-0.039134402 0.72000003 -0.025248 1.0937765e-38 289 260
-0.037871998 0.72000003 -0.025248 1.0022291e-38 290 260
-0.036558751 0.71899998 -0.025212931 1.0114488e-38 291 260
-0.035298105 0.71899998 -0.025212931 8.9256743e-39 292 260
-0.033942781 0.71700001 -0.0251428 9.5706835e-39 293 260
-0.032640055 0.71600002 -0.025107734 8.1964035e-39 294 260
-0.031296998 0.71399999 -0.025037598 9.4871423e-39 295 260
-0.030003037 0.713 -0.025002534 1.0139724e-38 296 260
-0.028752912 0.713 -0.025002534 1.1338267e-38 297 260
-0.027425639 0.71100003 -0.024932399 1.225735e-38 298 260
-0.026142199 0.70999998 -0.024897331 1.2349545e-38 299 260
-0.024897331 0.70999998 -0.024897331 1.2167299e-38 300 260
-0.023652466 0.70999998 -0.024897331 1.2075104e-38 301 260
-0.022407599 0.70999998 -0.024897331 1.068208e-38 302 260
-0.021192541 0.71100003 -0.024932399 6.5332752e-39 303 260
-0.01994592 0.71100003 -0.024932399 8.7258169e-39 304 260
-0.0186993 0.71100003 -0.024932399 8.909848e-39 305 260
-0.01745268 0.71100003 -0.024932399 9.9211105e-39 306 260
-0.01620606 0.71100003 -0.024932399 9.7370793e-39 307 260
-0.014959441 0.71100003 -0.024932399 9.9200272e-39 308 260
-0.01371282 0.71100003 -0.024932399 9.9200272e-39 309 260
-0.0124662 0.71100003 -0.024932399 9.6452382e-39 310 260
-0.01121958 0.71100003 -0.024932399 9.6452382e-39 311 260
-0.0099729598 0.71100003 -0.024932399 9.4622847e-39 312 260
-0.0087263398 0.71100003 -0.024932399 9.2778962e-39 313 260
-0.0074797203 0.71100003 -0.024932399 9.5534027e-39 314 260
-0.0062506334 0.713 -0.025002534 9.5534027e-39 315 260
-0.0050005065 0.713 -0.025002534 9.2778962e-39 316 260
-0.0037503797 0.713 -0.025002534 9.2778962e-39 317 260
-0.0025037599 0.71399999 -0.025037598 9.0942252e-39 318 260
-0.0012553866 0.71600002 -0.025107734 9.0942252e-39 319 260
0 0.71600002 -0.025107734 9.0027485e-39 320 260
0.0012553866 0.71600002 -0.025107734 9.0027485e-39 321 260
0.0025107733 0.71600002 -0.025107734 8.8194362e-39 322 260
0.0037714199 0.71700001 -0.0251428 8.727242e-39 323 260
0.0050425865 0.71899998 -0.025212931 8.8194362e-39 324 260
0.0063032326 0.71899998 -0.025212931 9.0038247e-39 325 260
0.0075954394 0.722 -0.025318133 9.0056183e-39 326 260
0.0088981669 0.72500002 -0.025423333 7.8992876e-39 327 260
0.010197386 0.727 -0.025493465 9.3747708e-39 328 260
0.01147206 0.727 -0.025493465 1.6105411e-38 329 260
0.012746733 0.727 -0.025493465 1.4466767e-38 330 260
-0.048437584 0.727 -0.026768139 1.5297252e-38 282 261
-0.047162913 0.727 -0.026768139 1.1701263e-38 283 261
-0.045761999 0.72500002 -0.026694499 1.0851703e-38 284 261
-0.044490833 0.72500002 -0.026694499 9.8375496e-39 285 261
-0.043100435 0.72299999 -0.026620859 1.1213276e-38 286 261
-0.041832779 0.72299999 -0.026620859 1.0844493e-38 287 261
-0.040509012 0.722 -0.026584039 1.0660825e-38 288 261
-0.039134402 0.72000003 -0.026510401 1.0845575e-38 289 261
-0.037871998 0.72000003 -0.026510401 1.0387481e-38 290 261
-0.036558751 0.71899998 -0.02647358 1.0479676e-38 291 261
-0.035199918 0.71700001 -0.02639994 9.3808917e-39 292 261
-0.033942781 0.71700001 -0.02639994 9.6571184e-39 293 261
-0.032640055 0.71600002 -0.026363119 6.9949765e-39 294 261
-0.031296998 0.71399999 -0.026289478 9.3920628e-39 295 261
-0.030003037 0.713 -0.026252659 1.2164431e-38 296 261
-0.028752912 0.713 -0.026252659 1.2994193e-38 297 261
-0.027425639 0.71100003 -0.026179021 1.36374e-38 298 261
-0.026142199 0.70999998 -0.026142199 1.36374e-38 299 261
-0.024897331 0.70999998 -0.026142199 1.2438476e-38 300 261
-0.023652466 0.70999998 -0.026142199 1.0226139e-38 301 261
-0.022407599 0.70999998 -0.026142199 9.5688857e-39 302 261
-0.021192541 0.71100003 -0.026179021 6.3420386e-39 303 261
-0.01994592 0.71100003 -0.026179021 9.0924386e-39 304 261
-0.0186993 0.71100003 -0.026179021 9.5537769e-39 305 261
-0.01745268 0.71100003 -0.026179021 9.1860706e-39 306 261
-0.01620606 0.71100003 -0.026179021 9.1860706e-39 307 261
-0.014959441 0.71100003 -0.026179021 9.644525e-39 308 261
-0.01371282 0.71100003 -0.026179021 9.644525e-39 309 261
-0.0124662 0.71100003 -0.026179021 9.5526853e-39 310 261
-0.011203799 0.70999998 -0.026142199 9.6448809e-39 311 261
-0.0099589331 0.70999998 -0.026142199 9.3700905e-39 312 261
-0.0087263398 0.71100003 -0.026179021 9.3700905e-39 313 261
-0.0074797203 0.71100003 -0.026179021 9.369373e-39 314 261
-0.0062330998 0.71100003 -0.026179021 9.369373e-39 315 261
-0.0049864799 0.71100003 -0.026179021 9.2775375e-39 316 261
-0.0037503797 0.713 -0.026252659 9.2775375e-39 317 261
-0.0025037599 0.71399999 -0.026289478 9.0027485e-39 318 261
-0.0012553866 0.71600002 -0.026363119 9.0027485e-39 319 261
0 0.71600002 -0.026363119 8.9101955e-39 320 261
0.0012553866 0.71600002 -0.026363119 8.9101955e-39 321 261
0.0025107733 0.71600002 -0.026363119 8.7268861e-39 322 261
0.0037714199 0.71700001 -0.02639994 8.7268861e-39 323 261
0.0050425865 0.71899998 -0.02647358 8.5435738e-39 324 261
0.0063032326 0.71899998 -0.02647358 8.819802e-39 325 261
0.0076059597 0.72299999 -0.026620859 8.7294014e-39 326 261
0.0088981669 0.72500002 -0.026694499 7.6234224e-39 327 261
0.010197386 0.727 -0.026768139 9.282578e-39 328 261
0.01147206 0.727 -0.026768139 1.5828468e-38 329 261
0.012746733 0.727 -0.026768139 1.4372769e-38 330 261
-0.048304334 0.72500002 -0.027965667 1.5205054e-38 282 262
-0.047033165 0.72500002 -0.027965667 1.1425033e-38 283 262
-0.045761999 0.72500002 -0.027965667 1.0757705e-38 284 262
-0.044368099 0.72299999 -0.02788852 9.9279446e-39 285 262
-0.043100435 0.72299999 -0.02788852 1.1028522e-38 286 262
-0.041774917 0.722 -0.027849946 1.0935967e-38 287 262
-0.040509012 0.722 -0.027849946 1.0751221e-38 288 262
-0.039134402 0.72000003 -0.027772799 1.0843417e-38 289 262
-0.037871998 0.72000003 -0.027772799 1.0202371e-38 290 262
-0.036558751 0.71899998 -0.027734226 1.0294566e-38 291 262
-0.035199918 0.71700001 -0.027657079 9.5609669e-39 292 262
-0.03389544 0.71600002 -0.027618507 9.3765757e-39 293 262
-0.032640055 0.71600002 -0.027618507 7.4462464e-39 294 262
-0.031296998 0.71399999 -0.02754136 1.0027724e-38 295 262
-0.030003037 0.713 -0.027502786 1.225051e-38 296 262
-0.028672259 0.71100003 -0.027425639 1.2711848e-38 297 262
-0.027425639 0.71100003 -0.027425639 1.2525652e-38 298 262
-0.026142199 0.70999998 -0.027387066 1.1419663e-38 299 262
-0.024897331 0.70999998 -0.027387066 1.1224101e-38 300 262
-0.023652466 0.70999998 -0.027387066 7.7203068e-39 301 262
-0.022407599 0.70999998 -0.027387066 8.8205278e-39 302 262
-0.021192541 0.71100003 -0.027425639 8.8205278e-39 303 262
-0.01994592 0.71100003 -0.027425639 9.4622973e-39 304 262
-0.0186993 0.71100003 -0.027425639 9.1860706e-39 305 262
-0.017428132 0.70999998 -0.027387066 9.1864237e-39 306 262
-0.016183265 0.70999998 -0.027387066 9.094228e-39 307 262
-0.014938398 0.70999998 -0.027387066 9.4601323e-39 308 262
-0.013693533 0.70999998 -0.027387066 9.5526853e-39 309 262
-0.012448666 0.70999998 -0.027387066 9.27682e-39 310 262
-0.011203799 0.70999998 -0.027387066 9.27682e-39 311 262
-0.0099589331 0.70999998 -0.027387066 9.2771788e-39 312 262
-0.0087140659 0.70999998 -0.027387066 9.2771788e-39 313 262
-0.0074691991 0.70999998 -0.027387066 9.2771788e-39 314 262
-0.0062330998 0.71100003 -0.027425639 9.1849845e-39 315 262
-0.0049864799 0.71100003 -0.027425639 9.185702e-39 316 262
-0.0037503797 0.713 -0.027502786 9.2778962e-39 317 262
-0.0025037599 0.71399999 -0.02754136 9.0027485e-39 318 262
-0.00125188 0.71399999 -0.02754136 8.7265245e-39 319 262
0 0.71600002 -0.027618507 8.9094781e-39 320 262
0.0012553866 0.71600002 -0.027618507 8.9094781e-39 321 262
0.0025107733 0.71600002 -0.027618507 8.7261658e-39 322 262
0.0037714199 0.71700001 -0.027657079 8.7261658e-39 323 262
0.0050425865 0.71899998 -0.027734226 8.727242e-39 324 262
0.0063120001 0.72000003 -0.027772799 8.8194362e-39 325 262
0.0076059597 0.72299999 -0.02788852 8.7290357e-39 326 262
0.0088981669 0.72500002 -0.027965667 7.7148991e-39 327 262
0.010169334 0.72500002 -0.027965667 9.1918117e-39 328 262
0.01147206 0.727 -0.028042812 1.555331e-38 329 262
0.012746733 0.727 -0.028042812 1.4372401e-38 330 262
-0.048304334 0.72500002 -0.029236834 1.5388363e-38 282 263
-0.047033165 0.72500002 -0.029236834 1.1608701e-38 283 263
-0.04563576 0.72299999 -0.029156178 1.0665866e-38 284 263
-0.044368099 0.72299999 -0.029156178 9.559518e-39 285 263
-0.043040827 0.722 -0.029115854 1.1027082e-38 286 263
-0.041774917 0.722 -0.029115854 1.0843051e-38 287 263
-0.040509012 0.722 -0.029115854 1.0566111e-38 288 263
-0.039134402 0.72000003 -0.029035201 1.0566111e-38 289 263
-0.037871998 0.72000003 -0.029035201 1.0383881e-38 290 263
-0.036558751 0.71899998 -0.028994869 1.0383881e-38 291 263
-0.035199918 0.71700001 -0.028914221 9.9254265e-39 292 263
-0.03389544 0.71600002 -0.028873893 9.6491997e-39 293 263
-0.032548878 0.71399999 -0.028793238 8.7312217e-39 294 263
-0.031296998 0.71399999 -0.028793238 9.5609824e-39 295 263
-0.030003037 0.713 -0.028752912 1.0211764e-38 296 263
-0.028672259 0.71100003 -0.028672259 1.0857133e-38 297 263
-0.027425639 0.71100003 -0.028672259 1.0948953e-38 298 263
-0.026142199 0.70999998 -0.028631933 1.0211387e-38 299 263
-0.024897331 0.70999998 -0.028631933 9.7460771e-39 300 263
-0.023652466 0.70999998 -0.028631933 8.270947e-39 301 263
-0.022407599 0.70999998 -0.028631933 9.1889432e-39 302 263
-0.021192541 0.71100003 -0.028672259 9.1889432e-39 303 263
-0.01994592 0.71100003 -0.028672259 9.279341e-39 304 263
-0.0186993 0.71100003 -0.028672259 9.094591e-39 305 263
-0.017428132 0.70999998 -0.028631933 9.1853433e-39 306 263
-0.016183265 0.70999998 -0.028631933 9.2775403e-39 307 263
-0.014938398 0.70999998 -0.028631933 9.27682e-39 308 263
-0.013693533 0.70999998 -0.028631933 9.27682e-39 309 263
-0.012448666 0.70999998 -0.028631933 9.1849845e-39 310 263
-0.011203799 0.70999998 -0.028631933 9.2771788e-39 311 263
-0.0099589331 0.70999998 -0.028631933 9.3682968e-39 312 263
-0.0087140659 0.70999998 -0.028631933 9.3682968e-39 313 263
-0.0074691991 0.70999998 -0.028631933 9.1849845e-39 314 263
-0.0062330998 0.71100003 -0.028672259 9.1849845e-39 315 263
-0.0049864799 0.71100003 -0.028672259 8.9098368e-39 316 263
-0.0037398601 0.71100003 -0.028672259 9.002031e-39 317 263
-0.0025002533 0.713 -0.028752912 9.002031e-39 318 263
-0.00125188 0.71399999 -0.028793238 8.9098368e-39 319 263
0 0.71600002 -0.028873893 8.9098368e-39 320 263
0.0012553866 0.71600002 -0.028873893 8.9098368e-39 321 263
0.0025107733 0.71600002 -0.028873893 8.634689e-39 322 263
0.0037714199 0.71700001 -0.028914221 8.634689e-39 323 263
0.0050425865 0.71899998 -0.028994869 8.543571e-39 324 263
0.0063120001 0.72000003 -0.029035201 8.8201551e-39 325 263
0.0076059597 0.72299999 -0.029156178 8.8215886e-39 326 263
0.0088981669 0.72500002 -0.029236834 7.7148991e-39 327 263
0.010169334 0.72500002 -0.029236834 9.1918089e-39 328 263
0.01147206 0.727 -0.029317487 1.5737699e-38 329 263
0.012746733 0.727 -0.029317487 1.4556069e-38 330 263
-0.047033165 0.72500002 -0.030508002 1.1977841e-38 283 264
-0.04563576 0.72299999 -0.030423839 1.1035368e-38 284 264
-0.044368099 0.72299999 -0.030423839 9.3762057e-39 285 264
-0.043040827 0.722 -0.030381758 1.1210759e-38 286 264
-0.041774917 0.722 -0.030381758 1.0841975e-38 287 264
-0.040509012 0.722 -0.030381758 1.0290247e-38 288 264
-0.039134402 0.72000003 -0.0302976 1.019805e-38 289 264
-0.037819397 0.71899998 -0.030255521 1.0015821e-38 290 264
-0.036558751 0.71899998 -0.030255521 1.0015821e-38 291 264
-0.035150826 0.71600002 -0.03012928 9.8317903e-39 292 264
-0.033800758 0.71399999 -0.030045118 9.7395933e-39 293 264
-0.032548878 0.71399999 -0.030045118 9.2807871e-39 294 264
-0.031253166 0.713 -0.030003037 9.5570139e-39 295 264
-0.030003037 0.713 -0.030003037 9.4662658e-39 296 264
-0.028672259 0.71100003 -0.029918881 9.9272439e-39 297 264
-0.027425639 0.71100003 -0.029918881 9.9286761e-39 298 264
-0.026142199 0.70999998 -0.029876797 9.7439261e-39 299 264
-0.024897331 0.70999998 -0.029876797 9.3754995e-39 300 264
-0.023652466 0.70999998 -0.029876797 9.006717e-39 301 264
-0.022407599 0.70999998 -0.029876797 9.1885873e-39 302 264
-0.021192541 0.71100003 -0.029918881 9.004196e-39 303 264
-0.01994592 0.71100003 -0.029918881 9.1864237e-39 304 264
-0.0186993 0.71100003 -0.029918881 9.002031e-39 305 264
-0.017428132 0.70999998 -0.029876797 9.093149e-39 306 264
-0.016183265 0.70999998 -0.029876797 9.093149e-39 307 264
-0.014938398 0.70999998 -0.029876797 9.1846258e-39 308 264
-0.013693533 0.70999998 -0.029876797 9.0924316e-39 309 264
-0.012448666 0.70999998 -0.029876797 9.0002374e-39 310 264
-0.011203799 0.70999998 -0.029876797 9.0924316e-39 311 264
-0.0099589331 0.70999998 -0.029876797 9.0924316e-39 312 264
-0.0087140659 0.70999998 -0.029876797 9.1849845e-39 313 264
-0.0074691991 0.70999998 -0.029876797 9.0927903e-39 314 264
-0.0062330998 0.71100003 -0.029918881 9.0927903e-39 315 264
-0.0049864799 0.71100003 -0.029918881 8.9091193e-39 316 264
-0.0037398601 0.71100003 -0.029918881 8.9091193e-39 317 264
-0.0025002533 0.713 -0.030003037 8.8176426e-39 318 264
-0.00125188 0.71399999 -0.030045118 8.8176426e-39 319 264
0 0.71600002 -0.03012928 8.8176426e-39 320 264
0.0012553866 0.71600002 -0.03012928 8.7254483e-39 321 264
0.0025107733 0.71600002 -0.03012928 8.634689e-39 322 264
0.0037714199 0.71700001 -0.030171359 8.634689e-39 323 264
0.0050425865 0.71899998 -0.030255521 8.543571e-39 324 264
0.0063295332 0.722 -0.030381758 8.8201551e-39 325 264
0.0076059597 0.72299999 -0.030423839 8.8212313e-39 326 264
0.0088981669 0.72500002 -0.030508002 7.7145404e-39 327 264
0.010169334 0.72500002 -0.030508002 9.4676755e-39 328 264
0.01147206 0.727 -0.030592158 1.6013565e-38 329 264
0.012746733 0.727 -0.030592158 1.4648265e-38 330 264
-0.048437584 0.727 -0.03186683 1.5206126e-38 282 265
-0.047033165 0.72500002 -0.031779166 1.2440258e-38 283 265
-0.04563576 0.72299999 -0.031691495 1.168361e-38 284 265
-0.044368099 0.72299999 -0.031691495 8.9173828e-39 285 265
-0.043100435 0.72299999 -0.031691495 1.1026366e-38 286 265
-0.041774917 0.722 -0.031647664 1.0841975e-38 287 265
-0.040509012 0.722 -0.031647664 9.9221866e-39 288 265
-0.039134402 0.72000003 -0.03156 9.9221866e-39 289 265
-0.037819397 0.71899998 -0.031516165 9.9221866e-39 290 265
-0.036457058 0.71700001 -0.031428497 9.9221866e-39 291 265
-0.035150826 0.71600002 -0.031384666 9.829991e-39 292 265
-0.033800758 0.71399999 -0.031296998 9.829991e-39 293 265
-0.032548878 0.71399999 -0.031296998 9.5541328e-39 294 265
-0.031253166 0.713 -0.031253166 9.7381639e-39 295 265
-0.030003037 0.713 -0.031253166 9.4637491e-39 296 265
-0.028672259 0.71100003 -0.031165501 9.6481403e-39 297 265
-0.027425639 0.71100003 -0.031165501 9.7410576e-39 298 265
-0.026142199 0.70999998 -0.031121666 9.5566664e-39 299 265
-0.024897331 0.70999998 -0.031121666 9.18896e-39 300 265
-0.023652466 0.70999998 -0.031121666 9.0964043e-39 301 265
-0.022407599 0.70999998 -0.031121666 9.2797039e-39 302 265
-0.021192541 0.71100003 -0.031165501 9.0034772e-39 303 265
-0.01994592 0.71100003 -0.031165501 9.1853433e-39 304 265
-0.0186993 0.71100003 -0.031165501 9.093149e-39 305 265
-0.017428132 0.70999998 -0.031121666 9.093149e-39 306 265
-0.016183265 0.70999998 -0.031121666 9.093149e-39 307 265
-0.014938398 0.70999998 -0.031121666 9.0924316e-39 308 265
-0.013693533 0.70999998 -0.031121666 8.9998786e-39 309 265
-0.012448666 0.70999998 -0.031121666 9.0002374e-39 310 265
-0.011203799 0.70999998 -0.031121666 9.0002374e-39 311 265
-0.0099589331 0.70999998 -0.031121666 9.0924316e-39 312 265
-0.0087140659 0.70999998 -0.031121666 9.0924316e-39 313 265
-0.0074691991 0.70999998 -0.031121666 9.0924316e-39 314 265
-0.0062330998 0.71100003 -0.031165501 9.0002374e-39 315 265
-0.0049864799 0.71100003 -0.031165501 8.8169251e-39 316 265
-0.0037503797 0.713 -0.031253166 8.8169251e-39 317 265
-0.0025037599 0.71399999 -0.031296998 8.7250896e-39 318 265
-0.0012553866 0.71600002 -0.031384666 8.8176426e-39 319 265
0 0.71600002 -0.031384666 8.7243721e-39 320 265
0.0012553866 0.71600002 -0.031384666 8.9091193e-39 321 265
0.0025142799 0.71700001 -0.031428497 8.634689e-39 322 265
0.0037714199 0.71700001 -0.031428497 8.7268833e-39 323 265
0.0050425865 0.71899998 -0.031516165 8.635768e-39 324 265
0.0063295332 0.722 -0.031647664 8.9119948e-39 325 265
0.0075954394 0.722 -0.031647664 9.0978168e-39 326 265
0.0088736191 0.72299999 -0.031691495 7.4386752e-39 327 265
0.01014128 0.72299999 -0.031691495 9.8378971e-39 328 265
0.01147206 0.727 -0.03186683 1.610756e-38 329 265
-0.048437584 0.727 -0.033141505 1.5389798e-38 282 266
-0.047033165 0.72500002 -0.033050332 1.3361494e-38 283 266
-0.045761999 0.72500002 -0.033050332 1.2054912e-38 284 266
-0.044368099 0.72299999 -0.032959159 8.8284242e-39 285 266
-0.043100435 0.72299999 -0.032959159 1.0660458e-38 286 266
-0.041774917 0.722 -0.032913569 1.0383871e-38 287 266
-0.040509012 0.722 -0.032913569 1.0014738e-38 288 266
-0.039134402 0.72000003 -0.0328224 9.9225426e-39 289 266
-0.037819397 0.71899998 -0.032776814 9.8296379e-39 290 266
-0.036457058 0.71700001 -0.032685637 9.6452466e-39 291 266
-0.035150826 0.71600002 -0.032640055 9.6452466e-39 292 266
-0.033800758 0.71399999 -0.032548878 9.6452466e-39 293 266
-0.032548878 0.71399999 -0.032548878 9.4615812e-39 294 266
-0.031253166 0.713 -0.032503292 9.4615812e-39 295 266
-0.029918881 0.71100003 -0.032412119 9.369401e-39 296 266
-0.028672259 0.71100003 -0.032412119 9.4615967e-39 297 266
-0.027425639 0.71100003 -0.032412119 9.3704828e-39 298 266
-0.026142199 0.70999998 -0.032366529 9.2779285e-39 299 266
-0.024897331 0.70999998 -0.032366529 9.2786375e-39 300 266
-0.023652466 0.70999998 -0.032366529 9.2786375e-39 301 266
-0.022407599 0.70999998 -0.032366529 9.0034744e-39 302 266
-0.021192541 0.71100003 -0.032412119 8.9112787e-39 303 266
-0.01994592 0.71100003 -0.032412119 9.1853433e-39 304 266
-0.0186993 0.71100003 -0.032412119 9.093149e-39 305 266
-0.017428132 0.70999998 -0.032366529 9.093149e-39 306 266
-0.016183265 0.70999998 -0.032366529 9.093149e-39 307 266
-0.014938398 0.70999998 -0.032366529 9.0917141e-39 308 266
-0.013693533 0.70999998 -0.032366529 9.0917141e-39 309 266
-0.012448666 0.70999998 -0.032366529 8.9998786e-39 310 266
-0.011203799 0.70999998 -0.032366529 9.0924316e-39 311 266
-0.0099589331 0.70999998 -0.032366529 9.0924316e-39 312 266
-0.0087140659 0.70999998 -0.032366529 9.0924316e-39 313 266
-0.0074691991 0.70999998 -0.032366529 8.9998786e-39 314 266
-0.0062330998 0.71100003 -0.032412119 9.0917141e-39 315 266
-0.0049864799 0.71100003 -0.032412119 8.8169251e-39 316 266
-0.0037503797 0.713 -0.032503292 8.8169251e-39 317 266
-0.0025037599 0.71399999 -0.032548878 8.5417773e-39 318 266
-0.0012553866 0.71600002 -0.032640055 8.5417773e-39 319 266
0 0.71600002 -0.032640055 8.5424948e-39 320 266
0.0012553866 0.71600002 -0.032640055 8.634689e-39 321 266
0.0025142799 0.71700001 -0.032685637 8.543571e-39 322 266
0.0037819401 0.71899998 -0.032776814 8.636124e-39 323 266
0.0050496003 0.72000003 -0.0328224 8.6372058e-39 324 266
0.0063295332 0.722 -0.032913569 8.821597e-39 325 266
0.0075954394 0.722 -0.032913569 8.639354e-39 326 266
0.0088736191 0.72299999 -0.032959159 7.4411863e-39 327 266
0.01014128 0.72299999 -0.032959159 1.0667292e-38 328 266
-0.047162913 0.727 -0.03441618 1.4097627e-38 283 267
-0.045761999 0.72500002 -0.034321502 1.298083e-38 284 267
-0.044368099 0.72299999 -0.03422682 9.1086138e-39 285 267
-0.043100435 0.72299999 -0.03422682 1.0386036e-38 286 267
-0.041774917 0.722 -0.034179479 1.0478232e-38 287 267
-0.040509012 0.722 -0.034179479 9.8317903e-39 288 267
-0.039134402 0.72000003 -0.034084801 9.6473976e-39 289 267
-0.037819397 0.71899998 -0.03403746 9.5541272e-39 290 267
-0.036558751 0.71899998 -0.03403746 9.4619316e-39 291 267
-0.035150826 0.71600002 -0.03389544 9.6452438e-39 292 267
-0.033800758 0.71399999 -0.033800758 9.5530482e-39 293 267
-0.032548878 0.71399999 -0.033800758 9.553051e-39 294 267
-0.031253166 0.713 -0.033753417 9.3690199e-39 295 267
-0.029918881 0.71100003 -0.033658739 9.1860706e-39 296 267
-0.028672259 0.71100003 -0.033658739 9.0938749e-39 297 267
-0.027425639 0.71100003 -0.033658739 9.1860677e-39 298 267
-0.026142199 0.70999998 -0.033611398 9.1860677e-39 299 267
-0.024897331 0.70999998 -0.033611398 9.1867866e-39 300 267
-0.023652466 0.70999998 -0.033611398 9.1867866e-39 301 267
-0.022407599 0.70999998 -0.033611398 9.094591e-39 302 267
-0.021192541 0.71100003 -0.033658739 9.094591e-39 303 267
-0.01994592 0.71100003 -0.033658739 9.0942252e-39 304 267
-0.0186993 0.71100003 -0.033658739 9.002031e-39 305 267
-0.017428132 0.70999998 -0.033611398 9.1849845e-39 306 267
-0.016183265 0.70999998 -0.033611398 9.0002374e-39 307 267
-0.014938398 0.70999998 -0.033611398 9.0917141e-39 308 267
-0.013693533 0.70999998 -0.033611398 8.9998786e-39 309 267
-0.012448666 0.70999998 -0.033611398 8.9998786e-39 310 267
-0.011203799 0.70999998 -0.033611398 8.9998786e-39 311 267
-0.0099589331 0.70999998 -0.033611398 8.9091193e-39 312 267
-0.0087140659 0.70999998 -0.033611398 8.9091193e-39 313 267
-0.0074797203 0.71100003 -0.033658739 8.8169251e-39 314 267
-0.0062330998 0.71100003 -0.033658739 8.8169251e-39 315 267
-0.0049864799 0.71100003 -0.033658739 8.7254483e-39 316 267
-0.0037503797 0.713 -0.033753417 8.7254483e-39 317 267
-0.0025037599 0.71399999 -0.033800758 8.5428535e-39 318 267
-0.0012553866 0.71600002 -0.03389544 8.5428535e-39 319 267
0 0.71600002 -0.03389544 8.634689e-39 320 267
0.0012553866 0.71600002 -0.03389544 8.727242e-39 321 267
0.0025142799 0.71700001 -0.033942781 8.5439297e-39 322 267
0.0037819401 0.71899998 -0.03403746 8.636124e-39 323 267
0.0050496003 0.72000003 -0.034084801 8.637203e-39 324 267
0.0063295332 0.722 -0.034179479 8.821953e-39 325 267
0.0075954394 0.722 -0.034179479 9.1900068e-39 326 267
0.0088736191 0.72299999 -0.03422682 8.3602587e-39 327 267
0.01014128 0.72299999 -0.03422682 1.168576e-38 328 267
-0.047357533 0.73000002 -0.035838135 1.446569e-38 283 268
-0.045761999 0.72500002 -0.035592668 1.3628718e-38 284 268
-0.044368099 0.72299999 -0.035494477 9.1111319e-39 285 268
-0.043100435 0.72299999 -0.035494477 1.0570783e-38 286 268
-0.041774917 0.722 -0.035445385 1.0570783e-38 287 268
-0.040509012 0.722 -0.035445385 1.0384237e-38 288 268
-0.039134402 0.72000003 -0.035347197 1.0015456e-38 289 268
-0.037871998 0.72000003 -0.035347197 9.8307071e-39 290 268
-0.036558751 0.71899998 -0.035298105 9.7385115e-39 291 268
-0.035199918 0.71700001 -0.035199918 9.5544803e-39 292 268
-0.03389544 0.71600002 -0.035150826 9.4622847e-39 293 268
-0.032548878 0.71399999 -0.035052639 9.1864209e-39 294 268
-0.031253166 0.713 -0.035003547 9.1864209e-39 295 268
-0.030003037 0.713 -0.035003547 9.1864237e-39 296 268
-0.028672259 0.71100003 -0.034905359 9.094228e-39 297 268
-0.027425639 0.71100003 -0.034905359 9.3697331e-39 298 268
-0.026179021 0.71100003 -0.034905359 9.2775375e-39 299 268
-0.024897331 0.70999998 -0.034856264 9.3697331e-39 300 268
-0.023652466 0.70999998 -0.034856264 9.3697331e-39 301 268
-0.022407599 0.70999998 -0.034856264 9.0949441e-39 302 268
-0.021192541 0.71100003 -0.034905359 9.0027485e-39 303 268
-0.01994592 0.71100003 -0.034905359 9.185702e-39 304 268
-0.0186993 0.71100003 -0.034905359 9.185702e-39 305 268
-0.017428132 0.70999998 -0.034856264 9.0927903e-39 306 268
-0.016183265 0.70999998 -0.034856264 9.0005961e-39 307 268
-0.014938398 0.70999998 -0.034856264 9.0924316e-39 308 268
-0.013693533 0.70999998 -0.034856264 9.0002374e-39 309 268
-0.012448666 0.70999998 -0.034856264 8.9998786e-39 310 268
-0.011203799 0.70999998 -0.034856264 9.0917141e-39 311 268
-0.0099729598 0.71100003 -0.034905359 9.0002374e-39 312 268
-0.0087263398 0.71100003 -0.034905359 9.0002374e-39 313 268
-0.0074797203 0.71100003 -0.034905359 8.8169251e-39 314 268
-0.0062330998 0.71100003 -0.034905359 8.7243721e-39 315 268
-0.0050005065 0.713 -0.035003547 8.7247309e-39 316 268
-0.0037503797 0.713 -0.035003547 8.8169251e-39 317 268
-0.0025037599 0.71399999 -0.035052639 8.6343303e-39 318 268
-0.0012553866 0.71600002 -0.035150826 8.7265245e-39 319 268
0 0.71600002 -0.035150826 8.6350478e-39 320 268
0.00125714 0.71700001 -0.035199918 8.6350478e-39 321 268
0.0025142799 0.71700001 -0.035199918 8.5439297e-39 322 268
0.0037819401 0.71899998 -0.035298105 8.8201537e-39 323 268
0.0050425865 0.71899998 -0.035298105 8.6372058e-39 324 268
0.0063295332 0.722 -0.035445385 8.821597e-39 325 268
0.0075954394 0.722 -0.035445385 8.6382764e-39 326 268
0.0088613462 0.722 -0.035445385 1.0850957e-38 327 268
-0.047357533 0.73000002 -0.037118066 1.4650082e-38 283 269
-0.045888241 0.727 -0.036965527 1.390746e-38 284 269
-0.044490833 0.72500002 -0.036863834 9.4817095e-39 285 269
-0.043100435 0.72299999 -0.036762137 1.0663695e-38 286 269
-0.041774917 0.722 -0.03671129 1.0755891e-38 287 269
-0.040509012 0.722 -0.03671129 1.0385316e-38 288 269
-0.039134402 0.72000003 -0.036609601 1.010837e-38 289 269
-0.037871998 0.72000003 -0.036609601 9.7395905e-39 290 269
-0.036558751 0.71899998 -0.036558751 9.6473948e-39 291 269
-0.035199918 0.71700001 -0.036457058 9.4644385e-39 292 269
-0.03389544 0.71600002 -0.036406212 9.1874957e-39 293 269
-0.032548878 0.71399999 -0.036304519 9.3708079e-39 294 269
-0.031296998 0.71399999 -0.036304519 9.3708079e-39 295 269
-0.030003037 0.713 -0.036253672 9.3708079e-39 296 269
-0.028672259 0.71100003 -0.036151983 9.1867782e-39 297 269
-0.027425639 0.71100003 -0.036151983 9.2778962e-39 298 269
-0.026179021 0.71100003 -0.036151983 9.2778962e-39 299 269
-0.024932399 0.71100003 -0.036151983 9.0942252e-39 300 269
-0.023652466 0.70999998 -0.036101133 9.0942252e-39 301 269
-0.022407599 0.70999998 -0.036101133 9.1867782e-39 302 269
-0.021192541 0.71100003 -0.036151983 9.0942252e-39 303 269
-0.01994592 0.71100003 -0.036151983 9.3682968e-39 304 269
-0.0186993 0.71100003 -0.036151983 9.3682968e-39 305 269
-0.01745268 0.71100003 -0.036151983 9.093149e-39 306 269
-0.01620606 0.71100003 -0.036151983 9.093149e-39 307 269
-0.014959441 0.71100003 -0.036151983 9.0005961e-39 308 269
-0.01371282 0.71100003 -0.036151983 9.0005961e-39 309 269
-0.0124662 0.71100003 -0.036151983 8.9998786e-39 310 269
-0.01121958 0.71100003 -0.036151983 9.0917141e-39 311 269
-0.0099729598 0.71100003 -0.036151983 8.9080431e-39 312 269
-0.0087263398 0.71100003 -0.036151983 9.0002374e-39 313 269
-0.0074797203 0.71100003 -0.036151983 8.7254483e-39 314 269
-0.0062506334 0.713 -0.036253672 8.7254483e-39 315 269
-0.0050005065 0.713 -0.036253672 8.8169251e-39 316 269
-0.0037556398 0.71399999 -0.036304519 8.9094781e-39 317 269
-0.0025107733 0.71600002 -0.036406212 8.7265245e-39 318 269
-0.0012553866 0.71600002 -0.036406212 8.7265245e-39 319 269
0 0.71700001 -0.036457058 8.727242e-39 320 269
0.00125714 0.71700001 -0.036457058 8.727242e-39 321 269
0.0025142799 0.71700001 -0.036457058 8.727242e-39 322 269
0.0037819401 0.71899998 -0.036558751 8.8194362e-39 323 269
0.0050425865 0.71899998 -0.036558751 8.8212341e-39 324 269
0.0063295332 0.722 -0.03671129 8.8212341e-39 325 269
0.0075954394 0.722 -0.03671129 8.727242e-39 326 269
0.0088613462 0.722 -0.03671129 1.3521036e-38 327 269
-0.045888241 0.727 -0.038240198 1.4003251e-38 284 270
-0.044490833 0.72500002 -0.038135 1.0131035e-38 285 270
-0.043100435 0.72299999 -0.038029801 1.103427e-38 286 270
-0.041774917 0.722 -0.0379772 1.0112674e-38 287 270
-0.040509012 0.722 -0.0379772 1.0753374e-38 288 270
-0.039134402 0.72000003 -0.037871998 1.0384231e-38 289 270
-0.037871998 0.72000003 -0.037871998 1.0015458e-38 290 270
-0.036558751 0.71899998 -0.037819397 9.9232614e-39 291 270
-0.035199918 0.71700001 -0.037714198 9.6477494e-39 292 270
-0.03389544 0.71600002 -0.037661601 9.4633609e-39 293 270
-0.032548878 0.71399999 -0.037556399 9.4633609e-39 294 270
-0.031296998 0.71399999 -0.037556399 9.3711667e-39 295 270
-0.030003037 0.713 -0.037503798 9.3708079e-39 296 270
-0.028752912 0.713 -0.037503798 9.3708079e-39 297 270
-0.027425639 0.71100003 -0.037398599 9.1867782e-39 298 270
-0.026179021 0.71100003 -0.037398599 9.0942252e-39 299 270
-0.024932399 0.71100003 -0.037398599 9.3700905e-39 300 270
-0.023652466 0.70999998 -0.037345998 9.3700905e-39 301 270
-0.022407599 0.70999998 -0.037345998 9.2778962e-39 302 270
-0.021192541 0.71100003 -0.037398599 9.185702e-39 303 270
-0.01994592 0.71100003 -0.037398599 9.2775375e-39 304 270
-0.0186993 0.71100003 -0.037398599 9.093149e-39 305 270
-0.01745268 0.71100003 -0.037398599 9.093149e-39 306 270
-0.01620606 0.71100003 -0.037398599 9.093149e-39 307 270
-0.014959441 0.71100003 -0.037398599 9.0005961e-39 308 270
-0.01371282 0.71100003 -0.037398599 9.0005961e-39 309 270
-0.0124662 0.71100003 -0.037398599 9.0002374e-39 310 270
-0.01121958 0.71100003 -0.037398599 9.0002374e-39 311 270
-0.0099729598 0.71100003 -0.037398599 8.8169251e-39 312 270
-0.0087263398 0.71100003 -0.037398599 8.8169251e-39 313 270
-0.0074797203 0.71100003 -0.037398599 8.7254483e-39 314 270
-0.0062506334 0.713 -0.037503798 8.7254483e-39 315 270
-0.0050005065 0.713 -0.037503798 8.8176426e-39 316 270
-0.0037556398 0.71399999 -0.037556399 8.8176426e-39 317 270
-0.0025107733 0.71600002 -0.037661601 8.7268833e-39 318 270
-0.0012553866 0.71600002 -0.037661601 8.634689e-39 319 270
0 0.71700001 -0.037714198 8.910913e-39 320 270
0.00125714 0.71700001 -0.037714198 8.910913e-39 321 270
0.0025142799 0.71700001 -0.037714198 8.727242e-39 322 270
0.0037819401 0.71899998 -0.037819397 8.9119892e-39 323 270
0.0050496003 0.72000003 -0.037871998 8.8219502e-39 324 270
0.0063382997 0.72299999 -0.038029801 8.268782e-39 325 270
0.0076059597 0.72299999 -0.038029801 8.634689e-39 326 270
-0.044490833 0.72500002 -0.039406165 1.1699802e-38 285 271
-0.043100435 0.72299999 -0.039297458 1.1773637e-38 286 271
-0.041774917 0.722 -0.039243106 9.930083e-39 287 271
-0.040509012 0.722 -0.039243106 1.0937765e-38 288 271
-0.039134402 0.72000003 -0.039134402 1.0476786e-38 289 271
-0.037819397 0.71899998 -0.039080046 1.0291322e-38 290 271
-0.036558751 0.71899998 -0.039080046 1.0014735e-38 291 271
-0.035199918 0.71700001 -0.038971342 9.5555551e-39 292 271
-0.03389544 0.71600002 -0.038916986 9.5555551e-39 293 271
-0.032640055 0.71600002 -0.038916986 9.4633609e-39 294 271
-0.031296998 0.71399999 -0.038808275 9.4633609e-39 295 271
-0.030045118 0.71399999 -0.038808275 9.4630022e-39 296 271
-0.028752912 0.713 -0.038753927 9.3708079e-39 297 271
-0.027502786 0.713 -0.038753927 9.3711667e-39 298 271
-0.026179021 0.71100003 -0.038645219 9.1867782e-39 299 271
-0.024932399 0.71100003 -0.038645219 9.3704492e-39 300 271
-0.023685781 0.71100003 -0.038645219 9.278255e-39 301 271
-0.022439159 0.71100003 -0.038645219 9.2771788e-39 302 271
-0.021192541 0.71100003 -0.038645219 9.1849845e-39 303 271
-0.01994592 0.71100003 -0.038645219 9.2775375e-39 304 271
-0.0186993 0.71100003 -0.038645219 9.1853433e-39 305 271
-0.01745268 0.71100003 -0.038645219 9.0938665e-39 306 271
-0.01620606 0.71100003 -0.038645219 9.0938665e-39 307 271
-0.014959441 0.71100003 -0.038645219 9.0927903e-39 308 271
-0.01371282 0.71100003 -0.038645219 9.0005961e-39 309 271
-0.0124662 0.71100003 -0.038645219 9.0927903e-39 310 271
-0.01121958 0.71100003 -0.038645219 9.0927903e-39 311 271
-0.010001013 0.713 -0.038753927 8.8176426e-39 312 271
-0.0087508867 0.713 -0.038753927 8.8176426e-39 313 271
-0.0075007593 0.713 -0.038753927 8.8180013e-39 314 271
-0.0062506334 0.713 -0.038753927 8.8180013e-39 315 271
-0.0050075199 0.71399999 -0.038808275 8.7268833e-39 316 271
-0.0037556398 0.71399999 -0.038808275 8.7268833e-39 317 271
-0.0025107733 0.71600002 -0.038916986 8.7276007e-39 318 271
-0.00125714 0.71700001 -0.038971342 8.7276007e-39 319 271
0 0.71700001 -0.038971342 8.6364827e-39 320 271
0.00125714 0.71700001 -0.038971342 8.5442885e-39 321 271
0.0025212932 0.71899998 -0.039080046 8.6364827e-39 322 271
0.0037977197 0.722 -0.039243106 8.9127066e-39 323 271
0.0050706398 0.72299999 -0.039297458 8.7311881e-39 324 271
0.0063382997 0.72299999 -0.039297458 8.1776639e-39 325 271
0.0076059597 0.72299999 -0.039297458 9.7385086e-39 326 271
-0.041774917 0.722 -0.040509012 9.2901156e-39 287 272
-0.040509012 0.722 -0.040509012 1.093849e-38 288 272
-0.039134402 0.72000003 -0.040396802 1.0661544e-38 289 272
-0.037819397 0.71899998 -0.040340692 1.0383886e-38 290 272
-0.036558751 0.71899998 -0.040340692 1.0015105e-38 291 272
-0.035199918 0.71700001 -0.040228479 9.7395905e-39 292 272
-0.033942781 0.71700001 -0.040228479 9.5551992e-39 293 272
-0.032640055 0.71600002 -0.040172372 9.4640826e-39 294 272
-0.031296998 0.71399999 -0.040060159 9.2796913e-39 295 272
-0.030045118 0.71399999 -0.040060159 9.4630064e-39 296 272
-0.028793238 0.71399999 -0.040060159 9.4630064e-39 297 272
-0.027502786 0.713 -0.040004052 9.3708079e-39 298 272
-0.026252659 0.713 -0.040004052 9.3708079e-39 299 272
-0.024932399 0.71100003 -0.039891839 9.5534027e-39 300 272
-0.023685781 0.71100003 -0.039891839 9.369373e-39 301 272
-0.022439159 0.71100003 -0.039891839 9.460491e-39 302 272
-0.021252153 0.713 -0.040004052 9.460491e-39 303 272
-0.01994592 0.71100003 -0.039891839 9.185702e-39 304 272
-0.0186993 0.71100003 -0.039891839 9.185702e-39 305 272
-0.01745268 0.71100003 -0.039891839 9.0023898e-39 306 272
-0.01620606 0.71100003 -0.039891839 9.0023898e-39 307 272
-0.014959441 0.71100003 -0.039891839 9.0935078e-39 308 272
-0.01371282 0.71100003 -0.039891839 8.9094781e-39 309 272
-0.0124662 0.71100003 -0.039891839 8.9101955e-39 310 272
-0.011251139 0.713 -0.040004052 8.9101955e-39 311 272
-0.010001013 0.713 -0.040004052 8.7268833e-39 312 272
-0.0087508867 0.713 -0.040004052 8.7268833e-39 313 272
-0.0075112795 0.71399999 -0.040060159 8.7268833e-39 314 272
-0.0062593995 0.71399999 -0.040060159 8.7268833e-39 315 272
-0.0050075199 0.71399999 -0.040060159 8.9101955e-39 316 272
-0.00376616 0.71600002 -0.040172372 9.0023898e-39 317 272
-0.0025107733 0.71600002 -0.040172372 8.7279595e-39 318 272
-0.00125714 0.71700001 -0.040228479 8.7279595e-39 319 272
0 0.71700001 -0.040228479 8.6364827e-39 320 272
0.0012606466 0.71899998 -0.040340692 8.6364827e-39 321 272
0.0025318132 0.722 -0.040509012 8.8205124e-39 322 272
0.0037977197 0.722 -0.040509012 9.0049009e-39 323 272
0.0050706398 0.72299999 -0.040565118 8.8219473e-39 324 272
0.0063382997 0.72299999 -0.040565118 9.4673069e-39 325 272
-0.040509012 0.722 -0.041774917 1.112143e-38 288 273
-0.039134402 0.72000003 -0.041659199 1.0937039e-38 289 273
-0.037871998 0.72000003 -0.041659199 1.0476067e-38 290 273
-0.036609601 0.72000003 -0.041659199 1.0199121e-38 291 273
-0.035298105 0.71899998 -0.041601337 9.8310616e-39 292 273
-0.03403746 0.71899998 -0.041601337 9.8310616e-39 293 273
-0.032640055 0.71600002 -0.041427758 9.7388674e-39 294 273
-0.031384666 0.71600002 -0.041427758 9.5548377e-39 295 273
-0.030045118 0.71399999 -0.041312039 9.5544803e-39 296 273
-0.028793238 0.71399999 -0.041312039 9.3700905e-39 297 273
-0.027502786 0.713 -0.041254178 9.3708079e-39 298 273
-0.026252659 0.713 -0.041254178 9.3708079e-39 299 273
-0.024932399 0.71100003 -0.041138459 9.2778962e-39 300 273
-0.023685781 0.71100003 -0.041138459 9.2778962e-39 301 273
-0.022502279 0.713 -0.041254178 9.3682968e-39 302 273
-0.021252153 0.713 -0.041254178 9.5526853e-39 303 273
-0.020002026 0.713 -0.041254178 9.0949427e-39 304 273
-0.018751899 0.713 -0.041254178 9.0949427e-39 305 273
-0.017501773 0.713 -0.041254178 9.1860607e-39 306 273
-0.016251646 0.713 -0.041254178 9.0938665e-39 307 273
-0.015001519 0.713 -0.041254178 9.1849845e-39 308 273
-0.013751393 0.713 -0.041254178 9.1849845e-39 309 273
-0.012501267 0.713 -0.041254178 9.2764613e-39 310 273
-0.011266919 0.71399999 -0.041312039 9.3686555e-39 311 273
-0.01001504 0.71399999 -0.041312039 8.9098368e-39 312 273
-0.0087631596 0.71399999 -0.041312039 9.0938665e-39 313 273
-0.0075112795 0.71399999 -0.041312039 8.7268833e-39 314 273
-0.0062593995 0.71399999 -0.041312039 8.7268833e-39 315 273
-0.0050215465 0.71600002 -0.041427758 8.7268833e-39 316 273
-0.00376616 0.71600002 -0.041427758 8.910913e-39 317 273
-0.0025142799 0.71700001 -0.041485619 8.910913e-39 318 273
-0.00125714 0.71700001 -0.041485619 8.910913e-39 319 273
0 0.71700001 -0.041485619 8.819795e-39 320 273
0.0012606466 0.71899998 -0.041601337 8.819795e-39 321 273
0.0025318132 0.722 -0.041774917 8.7290357e-39 322 273
0.0037977197 0.722 -0.041774917 8.8212313e-39 323 273
0.0050706398 0.72299999 -0.041832779 8.4549641e-39 324 273
-0.040509012 0.722 -0.043040827 1.1309417e-38 288 274
-0.039134402 0.72000003 -0.042921603 1.0295267e-38 289 274
-0.037871998 0.72000003 -0.042921603 1.0386389e-38 290 274
-0.036609601 0.72000003 -0.042921603 9.925411e-39 291 274
-0.035347197 0.72000003 -0.042921603 9.7406666e-39 292 274
-0.03403746 0.71899998 -0.042861983 9.4644385e-39 293 274
-0.032685637 0.71700001 -0.042742759 9.555202e-39 294 274
-0.031428497 0.71700001 -0.042742759 9.370452e-39 295 274
-0.03012928 0.71600002 -0.042683143 9.4622875e-39 296 274
-0.028793238 0.71399999 -0.042563915 9.3697331e-39 297 274
-0.02754136 0.71399999 -0.042563915 9.1867782e-39 298 274
-0.026289478 0.71399999 -0.042563915 9.1867782e-39 299 274
-0.025002534 0.713 -0.042504307 9.460491e-39 300 274
-0.023752406 0.713 -0.042504307 9.5526853e-39 301 274
-0.022502279 0.713 -0.042504307 9.460491e-39 302 274
-0.021281958 0.71399999 -0.042563915 9.5526853e-39 303 274
-0.020030079 0.71399999 -0.042563915 9.185702e-39 304 274
-0.018778199 0.71399999 -0.042563915 9.2778962e-39 305 274
-0.017526319 0.71399999 -0.042563915 9.094584e-39 306 274
-0.016274439 0.71399999 -0.042563915 9.0023898e-39 307 274
-0.015022559 0.71399999 -0.042563915 9.1853433e-39 308 274
-0.01377068 0.71399999 -0.042563915 9.1853433e-39 309 274
-0.012518799 0.71399999 -0.042563915 9.0938665e-39 310 274
-0.011266919 0.71399999 -0.042563915 8.9094781e-39 311 274
-0.01001504 0.71399999 -0.042563915 8.910913e-39 312 274
-0.0087877065 0.71600002 -0.042683143 8.910913e-39 313 274
-0.00753232 0.71600002 -0.042683143 8.910913e-39 314 274
-0.0062769335 0.71600002 -0.042683143 8.910913e-39 315 274
-0.0050215465 0.71600002 -0.042683143 8.910913e-39 316 274
-0.00376616 0.71600002 -0.042683143 8.910913e-39 317 274
-0.0025142799 0.71700001 -0.042742759 8.727242e-39 318 274
-0.00125714 0.71700001 -0.042742759 8.8194362e-39 319 274
0 0.71899998 -0.042861983 8.8194362e-39 320 274
0.0012624001 0.72000003 -0.042921603 8.9119892e-39 321 274
0.0025318132 0.722 -0.043040827 8.6368414e-39 322 274
0.0038029798 0.72299999 -0.043100435 8.5446472e-39 323 274
0.0050706398 0.72299999 -0.043100435 8.452453e-39 324 274
-0.039134402 0.72000003 -0.044183999 1.0391058e-38 289 275
-0.037871998 0.72000003 -0.044183999 1.0571128e-38 290 275
-0.036609601 0.72000003 -0.044183999 1.0110514e-38 291 275
-0.035347197 0.72000003 -0.044183999 9.925411e-39 292 275
-0.034084801 0.72000003 -0.044183999 9.4644371e-39 293 275
-0.032776814 0.71899998 -0.044122629 9.5555551e-39 294 275
-0.031516165 0.71899998 -0.044122629 9.4630022e-39 295 275
-0.030171359 0.71700001 -0.043999899 9.3708079e-39 296 275
-0.028873893 0.71600002 -0.043938532 9.1867782e-39 297 275
-0.027618507 0.71600002 -0.043938532 9.3700905e-39 298 275
-0.026289478 0.71399999 -0.043815799 9.2778962e-39 299 275
-0.025037598 0.71399999 -0.043815799 9.2771788e-39 300 275
-0.02378572 0.71399999 -0.043815799 9.2771788e-39 301 275
-0.022533838 0.71399999 -0.043815799 9.2771788e-39 302 275
-0.021341572 0.71600002 -0.043938532 9.3697317e-39 303 275
-0.020086186 0.71600002 -0.043938532 9.278255e-39 304 275
-0.0188308 0.71600002 -0.043938532 9.278255e-39 305 275
-0.017575413 0.71600002 -0.043938532 9.278255e-39 306 275
-0.016320027 0.71600002 -0.043938532 9.278255e-39 307 275
-0.01506464 0.71600002 -0.043938532 9.1860607e-39 308 275
-0.013809253 0.71600002 -0.043938532 9.0938665e-39 309 275
-0.012553867 0.71600002 -0.043938532 9.1860607e-39 310 275
-0.01129848 0.71600002 -0.043938532 9.0938665e-39 311 275
-0.010043093 0.71600002 -0.043938532 8.9094781e-39 312 275
-0.0087877065 0.71600002 -0.043938532 9.1860607e-39 313 275
-0.00753232 0.71600002 -0.043938532 8.910913e-39 314 275
-0.0062769335 0.71600002 -0.043938532 9.0031072e-39 315 275
-0.0050285598 0.71700001 -0.043999899 8.819795e-39 316 275
-0.0037714199 0.71700001 -0.043999899 8.819795e-39 317 275
-0.0025142799 0.71700001 -0.043999899 8.5439297e-39 318 275
-0.00125714 0.71700001 -0.043999899 8.636124e-39 319 275
0 0.72000003 -0.044183999 8.636124e-39 320 275
0.0012659066 0.722 -0.044306733 8.9127066e-39 321 275
0.0025353199 0.72299999 -0.044368099 8.5464423e-39 322 275
0.0038029798 0.72299999 -0.044368099 8.6386379e-39 323 275
0.0050706398 0.72299999 -0.044368099 9.101058e-39 324 275
-0.037871998 0.72000003 -0.045446403 1.0664397e-38 290 276
-0.036609601 0.72000003 -0.045446403 1.011159e-38 291 276
-0.035347197 0.72000003 -0.045446403 9.925767e-39 292 276
-0.034084801 0.72000003 -0.045446403 9.6488255e-39 293 276
-0.032776814 0.71899998 -0.045383278 9.6477508e-39 294 276
-0.031516165 0.71899998 -0.045383278 9.4630022e-39 295 276
-0.030171359 0.71700001 -0.045257039 9.4630036e-39 296 276
-0.028914221 0.71700001 -0.045257039 9.3708079e-39 297 276
-0.027618507 0.71600002 -0.045193922 9.278255e-39 298 276
-0.026363119 0.71600002 -0.045193922 9.3704492e-39 299 276
-0.025037598 0.71399999 -0.045067675 9.2786137e-39 300 276
-0.02378572 0.71399999 -0.045067675 9.2786137e-39 301 276
-0.022533838 0.71399999 -0.045067675 9.2778962e-39 302 276
-0.021341572 0.71600002 -0.045193922 9.2778962e-39 303 276
-0.020086186 0.71600002 -0.045193922 9.2775375e-39 304 276
-0.0188308 0.71600002 -0.045193922 9.3697317e-39 305 276
-0.017575413 0.71600002 -0.045193922 9.2778962e-39 306 276
-0.016320027 0.71600002 -0.045193922 9.3700905e-39 307 276
-0.01506464 0.71600002 -0.045193922 9.0949427e-39 308 276
-0.013809253 0.71600002 -0.045193922 9.0023898e-39 309 276
-0.012553867 0.71600002 -0.045193922 9.0023898e-39 310 276
-0.01129848 0.71600002 -0.045193922 9.0023898e-39 311 276
-0.010043093 0.71600002 -0.045193922 8.9101955e-39 312 276
-0.0087877065 0.71600002 -0.045193922 9.0023898e-39 313 276
-0.00753232 0.71600002 -0.045193922 8.910913e-39 314 276
-0.0062857 0.71700001 -0.045257039 8.910913e-39 315 276
-0.0050285598 0.71700001 -0.045257039 8.636124e-39 316 276
-0.0037714199 0.71700001 -0.045257039 8.5439297e-39 317 276
-0.0025142799 0.71700001 -0.045257039 8.5439297e-39 318 276
-0.0012606466 0.71899998 -0.045383278 8.636124e-39 319 276
0 0.722 -0.045572639 8.8201537e-39 320 276
0.0012659066 0.722 -0.045572639 8.9123479e-39 321 276
