# .PCD v.7 - Point Cloud Data file format
FIELDS x y z rgb imX imY
SIZE 4 4 4 4 4 4
TYPE F F F F F F
COUNT 1 1 1 1 1 1
WIDTH 840
HEIGHT 1
VIEWPOINT 0 0 0 1 0 0 0
POINTS 840
DATA ascii
0.012746733 0.727 -0.021669446 8.727242e-39 330 257
0.014021406 0.727 -0.021669446 8.0818824e-39 331 257
0.015296079 0.727 -0.021669446 1.1414584e-38 332 257
0.016593546 0.72799999 -0.021699252 1.52868e-38 333 257
0.017869972 0.72799999 -0.021699252 1.5112853e-38 334 257
-0.040004052 0.736 -0.023228159 1.5297249e-38 289 258
-0.038713597 0.736 -0.023228159 1.3632333e-38 290 258
-0.037423145 0.736 -0.023228159 9.8523123e-39 291 258
-0.036034506 0.73400003 -0.023165042 9.9268586e-39 292 258
-0.034700219 0.73299998 -0.023133477 9.649913e-39 293 258
-0.033415023 0.73299998 -0.023133477 1.0291317e-38 294 258
-0.031998333 0.73000002 -0.023038799 9.9228971e-39 295 258
-0.030634239 0.72799999 -0.022975679 1.0105136e-38 296 258
-0.029317487 0.727 -0.022944121 1.001294e-38 297 258
-0.02788852 0.72299999 -0.02281788 9.7385115e-39 298 258
-0.026620859 0.72299999 -0.02281788 9.5544803e-39 299 258
-0.025248 0.72000003 -0.022723202 9.2800837e-39 300 258
-0.0239856 0.72000003 -0.022723202 1.2967907e-38 301 258
-0.022723202 0.72000003 -0.022723202 1.2254113e-38 302 258
-0.021520413 0.722 -0.022786319 1.3729243e-38 303 258
-0.020198401 0.72000003 -0.022723202 1.2168747e-38 304 258
-0.018935999 0.72000003 -0.022723202 1.1708129e-38 305 258
-0.017673599 0.72000003 -0.022723202 1.0786166e-38 306 258
-0.0164112 0.72000003 -0.022723202 9.956405e-39 307 258
-0.0151488 0.72000003 -0.022723202 1.0321222e-38 308 258
-0.013867113 0.71899998 -0.022691639 1.0413419e-38 309 258
-0.012606465 0.71899998 -0.022691639 1.1423604e-38 310 258
-0.01131426 0.71700001 -0.02262852 1.1147017e-38 311 258
-0.01005712 0.71700001 -0.02262852 1.1604758e-38 312 258
-0.0087999795 0.71700001 -0.02262852 1.2065736e-38 313 258
-0.0075428397 0.71700001 -0.02262852 1.0401173e-38 314 258
-0.0062857 0.71700001 -0.02262852 5.9757827e-39 315 258
-0.0050285598 0.71700001 -0.02262852 9.3679381e-39 316 258
-0.0037714199 0.71700001 -0.02262852 9.644525e-39 317 258
-0.0025212932 0.71899998 -0.022691639 9.2778962e-39 318 258
-0.0012606466 0.71899998 -0.022691639 9.2778962e-39 319 258
0 0.71899998 -0.022691639 9.5537615e-39 320 258
0.0012624001 0.72000003 -0.022723202 9.3697317e-39 321 258
0.0025248001 0.72000003 -0.022723202 9.5534027e-39 322 258
0.0037977197 0.722 -0.022786319 9.6459557e-39 323 258
0.0050636264 0.722 -0.022786319 9.4622847e-39 324 258
0.0063295332 0.722 -0.022786319 9.4622847e-39 325 258
0.0076059597 0.72299999 -0.02281788 9.1867782e-39 326 258
0.0088736191 0.72299999 -0.02281788 9.094584e-39 327 258
0.010169334 0.72500002 -0.022880999 8.8194362e-39 328 258
0.0114405 0.72500002 -0.022880999 9.0038275e-39 329 258
0.012711667 0.72500002 -0.022880999 8.7265245e-39 330 258
0.013982833 0.72500002 -0.022880999 8.3573889e-39 331 258
0.015254001 0.72500002 -0.022880999 1.1229471e-38 332 258
0.016570752 0.727 -0.022944121 1.4917294e-38 333 258
0.017845426 0.727 -0.022944121 1.5112132e-38 334 258
-0.040112756 0.73799998 -0.024585238 1.5205054e-38 289 259
-0.038713597 0.736 -0.024518613 1.3263905e-38 290 259
-0.037321456 0.73400003 -0.024451986 9.2994916e-39 291 259
-0.036034506 0.73400003 -0.024451986 1.0109455e-38 292 259
-0.034700219 0.73299998 -0.024418673 9.8325092e-39 293 259
-0.033323854 0.73100001 -0.024352046 1.0381716e-38 294 259
-0.031998333 0.73000002 -0.024318734 1.0105492e-38 295 259
-0.030634239 0.72799999 -0.024252106 9.9214622e-39 296 259
-0.029317487 0.727 -0.024218792 9.7374325e-39 297 259
-0.02788852 0.72299999 -0.024085538 9.5541328e-39 298 259
-0.026620859 0.72299999 -0.024085538 9.8303596e-39 299 259
-0.025318133 0.722 -0.024052227 9.2804494e-39 300 259
-0.0239856 0.72000003 -0.0239856 1.0755579e-38 301 259
-0.022723202 0.72000003 -0.0239856 1.0590275e-38 302 259
-0.021520413 0.722 -0.024052227 1.3632731e-38 303 259
-0.020198401 0.72000003 -0.0239856 1.2351346e-38 304 259
-0.018935999 0.72000003 -0.0239856 1.1521227e-38 305 259
-0.017673599 0.72000003 -0.0239856 1.1151703e-38 306 259
-0.0164112 0.72000003 -0.0239856 1.0783279e-38 307 259
-0.0151488 0.72000003 -0.0239856 1.1242086e-38 308 259
-0.013867113 0.71899998 -0.023952285 1.1242086e-38 309 259
-0.012606465 0.71899998 -0.023952285 1.1698743e-38 310 259
-0.01131426 0.71700001 -0.02388566 1.1790939e-38 311 259
-0.01005712 0.71700001 -0.02388566 1.2158285e-38 312 259
-0.0087999795 0.71700001 -0.02388566 1.0498403e-38 313 259
-0.0075428397 0.71700001 -0.02388566 9.8443866e-39 314 259
-0.0062857 0.71700001 -0.02388566 6.340954e-39 315 259
-0.0050285598 0.71700001 -0.02388566 8.9094781e-39 316 259
-0.0037714199 0.71700001 -0.02388566 9.2778962e-39 317 259
-0.0025142799 0.71700001 -0.02388566 9.1867782e-39 318 259
-0.00125714 0.71700001 -0.02388566 9.1867782e-39 319 259
0 0.71899998 -0.023952285 9.3704492e-39 320 259
0.0012606466 0.71899998 -0.023952285 9.3704492e-39 321 259
0.0025248001 0.72000003 -0.0239856 9.1867782e-39 322 259
0.0037872 0.72000003 -0.0239856 9.3708079e-39 323 259
0.0050636264 0.722 -0.024052227 9.1867782e-39 324 259
0.0063295332 0.722 -0.024052227 9.0942252e-39 325 259
0.0075954394 0.722 -0.024052227 9.0027485e-39 326 259
0.0088736191 0.72299999 -0.024085538 8.9105543e-39 327 259
0.010169334 0.72500002 -0.024152167 8.8190831e-39 328 259
0.0114405 0.72500002 -0.024152167 8.9112787e-39 329 259
0.012711667 0.72500002 -0.024152167 8.8194362e-39 330 259
0.013982833 0.72500002 -0.024152167 8.0818824e-39 331 259
0.015254001 0.72500002 -0.024152167 1.1136918e-38 332 259
0.01647958 0.72299999 -0.024085538 1.445596e-38 333 259
0.017747238 0.72299999 -0.024085538 1.4927744e-38 334 259
-0.038713597 0.736 -0.025809066 1.3264258e-38 290 260
-0.037321456 0.73400003 -0.025738932 9.2076491e-39 291 260
-0.035985414 0.73299998 -0.025703866 1.0200922e-38 292 260
-0.034605537 0.73100001 -0.025633732 1.0108726e-38 293 260
-0.033323854 0.73100001 -0.025633732 1.0291674e-38 294 260
-0.031910665 0.72799999 -0.025528532 9.8307029e-39 295 260
-0.030634239 0.72799999 -0.025528532 9.9218209e-39 296 260
-0.029317487 0.727 -0.025493465 9.6452382e-39 297 260
-0.02788852 0.72299999 -0.025353199 9.5537615e-39 298 260
-0.026620859 0.72299999 -0.025353199 9.5537615e-39 299 260
-0.025318133 0.722 -0.025318133 9.1885901e-39 300 260
-0.0239856 0.72000003 -0.025248 9.1885901e-39 301 260
-0.022723202 0.72000003 -0.025248 8.8309927e-39 302 260
-0.021520413 0.722 -0.025318133 1.1228079e-38 303 260
-0.020198401 0.72000003 -0.025248 1.1148115e-38 304 260
-0.018935999 0.72000003 -0.025248 1.2622885e-38 305 260
-0.017673599 0.72000003 -0.025248 1.2164413e-38 306 260
-0.016388407 0.71899998 -0.025212931 1.1611598e-38 307 260
-0.01512776 0.71899998 -0.025212931 1.1149903e-38 308 260
-0.013867113 0.71899998 -0.025212931 1.0873677e-38 309 260
-0.012606465 0.71899998 -0.025212931 1.1976057e-38 310 260
-0.01131426 0.71700001 -0.0251428 1.2713624e-38 311 260
-0.01005712 0.71700001 -0.0251428 1.2433427e-38 312 260
-0.0087999795 0.71700001 -0.0251428 7.0860805e-39 313 260
-0.0075428397 0.71700001 -0.0251428 8.4513768e-39 314 260
-0.0062857 0.71700001 -0.0251428 8.3591825e-39 315 260
-0.0050285598 0.71700001 -0.0251428 9.0938665e-39 316 260
-0.0037714199 0.71700001 -0.0251428 9.278255e-39 317 260
-0.0025142799 0.71700001 -0.0251428 9.0949427e-39 318 260
-0.00125714 0.71700001 -0.0251428 9.0949427e-39 319 260
0 0.71899998 -0.025212931 9.2778962e-39 320 260
0.0012606466 0.71899998 -0.025212931 9.2778962e-39 321 260
0.0025212932 0.71899998 -0.025212931 9.094584e-39 322 260
0.0037872 0.72000003 -0.025248 9.3708079e-39 323 260
0.0050636264 0.722 -0.025318133 8.9119892e-39 324 260
0.0063295332 0.722 -0.025318133 8.819795e-39 325 260
0.0075954394 0.722 -0.025318133 8.910913e-39 326 260
0.0088736191 0.72299999 -0.025353199 8.7265245e-39 327 260
0.010169334 0.72500002 -0.025423333 8.9105543e-39 328 260
0.0114405 0.72500002 -0.025423333 9.0949441e-39 329 260
0.012711667 0.72500002 -0.025423333 8.7276007e-39 330 260
0.01394426 0.72299999 -0.025353199 8.5428535e-39 331 260
0.015211919 0.72299999 -0.025353199 1.1229471e-38 332 260
0.01647958 0.72299999 -0.025353199 1.4456316e-38 333 260
0.017747238 0.72299999 -0.025353199 1.4925943e-38 334 260
-0.038713597 0.736 -0.02709952 1.3356454e-38 290 261
-0.037321456 0.73400003 -0.02702588 9.2076491e-39 291 261
-0.035985414 0.73299998 -0.026989058 1.0110873e-38 292 261
-0.034605537 0.73100001 -0.026915418 1.0295623e-38 293 261
-0.033278264 0.73000002 -0.026878599 1.010872e-38 294 261
-0.031910665 0.72799999 -0.026804959 9.8321378e-39 295 261
-0.030592158 0.727 -0.026768139 9.7377912e-39 296 261
-0.029236834 0.72500002 -0.026694499 9.553044e-39 297 261
-0.02788852 0.72299999 -0.026620859 9.2778962e-39 298 261
-0.026620859 0.72299999 -0.026620859 9.3700905e-39 299 261
-0.025318133 0.722 -0.026584039 9.003124e-39 300 261
-0.0239856 0.72000003 -0.026510401 9.2793508e-39 301 261
-0.022723202 0.72000003 -0.026510401 8.6375967e-39 302 261
-0.021520413 0.722 -0.026584039 9.9283355e-39 303 261
-0.020198401 0.72000003 -0.026510401 1.0032044e-38 304 261
-0.018935999 0.72000003 -0.026510401 1.242877e-38 305 261
-0.017673599 0.72000003 -0.026510401 1.2252645e-38 306 261
-0.016388407 0.71899998 -0.02647358 1.216045e-38 307 261
-0.01512776 0.71899998 -0.02647358 1.0961554e-38 308 261
-0.013828539 0.71700001 -0.02639994 1.0869358e-38 309 261
-0.0125714 0.71700001 -0.02639994 1.1971736e-38 310 261
-0.01131426 0.71700001 -0.02639994 1.1326366e-38 311 261
-0.01005712 0.71700001 -0.02639994 1.113512e-38 312 261
-0.0087999795 0.71700001 -0.02639994 6.9866766e-39 313 261
-0.0075428397 0.71700001 -0.02639994 8.3570302e-39 314 261
-0.0062857 0.71700001 -0.02639994 9.094228e-39 315 261
-0.0050285598 0.71700001 -0.02639994 8.9105543e-39 316 261
-0.0037714199 0.71700001 -0.02639994 9.0027485e-39 317 261
-0.0025142799 0.71700001 -0.02639994 9.0023898e-39 318 261
-0.00125714 0.71700001 -0.02639994 9.0023898e-39 319 261
0 0.71899998 -0.02647358 9.002031e-39 320 261
0.0012606466 0.71899998 -0.02647358 9.002031e-39 321 261
0.0025212932 0.71899998 -0.02647358 9.0942252e-39 322 261
0.0037872 0.72000003 -0.026510401 9.0942252e-39 323 261
0.0050636264 0.722 -0.026584039 9.185702e-39 324 261
0.0063295332 0.722 -0.026584039 9.185702e-39 325 261
0.0076059597 0.72299999 -0.026620859 8.910913e-39 326 261
0.0088736191 0.72299999 -0.026620859 8.7268833e-39 327 261
0.010169334 0.72500002 -0.026694499 9.0027485e-39 328 261
0.0114405 0.72500002 -0.026694499 9.1874957e-39 329 261
0.012676599 0.72299999 -0.026620859 8.6372002e-39 330 261
0.01394426 0.72299999 -0.026620859 8.5450059e-39 331 261
0.015211919 0.72299999 -0.026620859 1.1322738e-38 332 261
0.01647958 0.72299999 -0.026620859 1.4641781e-38 333 261
0.017747238 0.72299999 -0.026620859 1.455788e-38 334 261
-0.038608398 0.73400003 -0.028312827 1.3449724e-38 290 262
-0.037321456 0.73400003 -0.028312827 9.4853122e-39 291 262
-0.035985414 0.73299998 -0.028274251 1.0204146e-38 292 262
-0.034558199 0.73000002 -0.028158534 1.0204146e-38 293 262
-0.033278264 0.73000002 -0.028158534 1.0109079e-38 294 262
-0.031910665 0.72799999 -0.028081384 9.5559139e-39 295 262
-0.030592158 0.727 -0.028042812 9.6459557e-39 296 262
-0.029236834 0.72500002 -0.027965667 9.3697317e-39 297 262
-0.02788852 0.72299999 -0.02788852 9.2771788e-39 298 262
-0.026620859 0.72299999 -0.02788852 9.3697317e-39 299 262
-0.025318133 0.722 -0.027849946 9.0942252e-39 300 262
-0.0239856 0.72000003 -0.027772799 9.3708079e-39 301 262
-0.022723202 0.72000003 -0.027772799 8.9109284e-39 302 262
-0.021520413 0.722 -0.027849946 8.8187328e-39 303 262
-0.020254506 0.722 -0.027849946 8.4528397e-39 304 262
-0.018935999 0.72000003 -0.027772799 9.7435785e-39 305 262
-0.017673599 0.72000003 -0.027772799 9.7529294e-39 306 262
-0.016388407 0.71899998 -0.027734226 1.0582691e-38 307 262
-0.01512776 0.71899998 -0.027734226 1.0858908e-38 308 262
-0.013828539 0.71700001 -0.027657079 1.0490126e-38 309 262
-0.0125714 0.71700001 -0.027657079 1.0026614e-38 310 262
-0.01131426 0.71700001 -0.027657079 7.813559e-39 311 262
-0.01005712 0.71700001 -0.027657079 8.3570302e-39 312 262
-0.0087999795 0.71700001 -0.027657079 8.4488656e-39 313 262
-0.0075428397 0.71700001 -0.027657079 8.9105543e-39 314 262
-0.0062857 0.71700001 -0.027657079 8.9105543e-39 315 262
-0.0050285598 0.71700001 -0.027657079 8.7265245e-39 316 262
-0.0037714199 0.71700001 -0.027657079 8.7265245e-39 317 262
-0.0025142799 0.71700001 -0.027657079 8.9101955e-39 318 262
-0.00125714 0.71700001 -0.027657079 8.9101955e-39 319 262
0 0.71700001 -0.027657079 9.0935078e-39 320 262
0.0012606466 0.71899998 -0.027734226 9.185702e-39 321 262
0.0025212932 0.71899998 -0.027734226 9.0935078e-39 322 262
0.0037872 0.72000003 -0.027772799 9.185702e-39 323 262
0.0050636264 0.722 -0.027849946 8.9101955e-39 324 262
0.0063295332 0.722 -0.027849946 8.9101955e-39 325 262
0.0076059597 0.72299999 -0.02788852 8.9101955e-39 326 262
0.0088736191 0.72299999 -0.02788852 8.9101955e-39 327 262
0.01014128 0.72299999 -0.02788852 8.8194362e-39 328 262
0.0114405 0.72500002 -0.027965667 9.0038247e-39 329 262
0.012676599 0.72299999 -0.02788852 8.8205124e-39 330 262
0.01394426 0.72299999 -0.02788852 8.5442885e-39 331 262
0.015211919 0.72299999 -0.02788852 1.1598602e-38 332 262
-0.038608398 0.73400003 -0.029599773 1.3725951e-38 290 263
-0.037321456 0.73400003 -0.029599773 1.0130682e-38 291 263
-0.035739943 0.72799999 -0.029357811 1.057185e-38 292 263
-0.034463517 0.72799999 -0.029357811 1.0479654e-38 293 263
-0.033278264 0.73000002 -0.029438468 1.001832e-38 294 263
-0.031910665 0.72799999 -0.029357811 9.6491843e-39 295 263
-0.030592158 0.727 -0.029317487 9.7388674e-39 296 263
-0.029317487 0.727 -0.029317487 9.4626434e-39 297 263
-0.027965667 0.72500002 -0.029236834 9.278255e-39 298 263
-0.026620859 0.72299999 -0.029156178 9.3704492e-39 299 263
-0.025318133 0.722 -0.029115854 9.0953014e-39 300 263
-0.024052227 0.722 -0.029115854 9.0953014e-39 301 263
-0.022786319 0.722 -0.029115854 9.0038303e-39 302 263
-0.021520413 0.722 -0.029115854 8.9112759e-39 303 263
-0.020254506 0.722 -0.029115854 8.909848e-39 304 263
-0.018935999 0.72000003 -0.029035201 9.0942407e-39 305 263
-0.017673599 0.72000003 -0.029035201 9.1893104e-39 306 263
-0.016388407 0.71899998 -0.028994869 9.9268754e-39 307 263
-0.01512776 0.71899998 -0.028994869 9.6524339e-39 308 263
-0.013828539 0.71700001 -0.028914221 9.5602369e-39 309 263
-0.0125714 0.71700001 -0.028914221 9.098544e-39 310 263
-0.01131426 0.71700001 -0.028914221 8.268782e-39 311 263
-0.01005712 0.71700001 -0.028914221 8.448867e-39 312 263
-0.0087999795 0.71700001 -0.028914221 8.9091263e-39 313 263
-0.0075428397 0.71700001 -0.028914221 8.8176426e-39 314 263
-0.0062857 0.71700001 -0.028914221 8.8176426e-39 315 263
-0.0050285598 0.71700001 -0.028914221 8.8180013e-39 316 263
-0.0037714199 0.71700001 -0.028914221 8.8180013e-39 317 263
-0.0025142799 0.71700001 -0.028914221 8.9101955e-39 318 263
-0.00125714 0.71700001 -0.028914221 8.9101955e-39 319 263
0 0.71700001 -0.028914221 9.0935078e-39 320 263
0.0012606466 0.71899998 -0.028994869 9.0935078e-39 321 263
0.0025212932 0.71899998 -0.028994869 9.0935078e-39 322 263
0.0037872 0.72000003 -0.029035201 9.0935078e-39 323 263
0.0050636264 0.722 -0.029115854 8.9094781e-39 324 263
0.0063295332 0.722 -0.029115854 8.9094781e-39 325 263
0.0076059597 0.72299999 -0.029156178 8.9101955e-39 326 263
0.0088736191 0.72299999 -0.029156178 9.0023898e-39 327 263
0.01014128 0.72299999 -0.029156178 8.8201537e-39 328 263
0.0114405 0.72500002 -0.029236834 9.0045435e-39 329 263
0.012711667 0.72500002 -0.029236834 8.9127066e-39 330 263
0.013982833 0.72500002 -0.029236834 8.4520942e-39 331 263
-0.037016369 0.72799999 -0.030634239 1.0868612e-38 291 264
-0.035739943 0.72799999 -0.030634239 1.0388556e-38 292 264
-0.034463517 0.72799999 -0.030634239 9.9275788e-39 293 264
-0.033187091 0.72799999 -0.030634239 1.0017604e-38 294 264
-0.031910665 0.72799999 -0.030634239 9.7410198e-39 295 264
-0.030592158 0.727 -0.030592158 9.6481081e-39 296 264
-0.029317487 0.727 -0.030592158 9.3711667e-39 297 264
-0.027965667 0.72500002 -0.030508002 9.3704492e-39 298 264
-0.026620859 0.72299999 -0.030423839 9.3704492e-39 299 264
-0.025318133 0.722 -0.030381758 9.0956602e-39 300 264
-0.024052227 0.722 -0.030381758 9.0956602e-39 301 264
-0.022786319 0.722 -0.030381758 9.0953014e-39 302 264
-0.021520413 0.722 -0.030381758 9.0953014e-39 303 264
-0.020254506 0.722 -0.030381758 9.0942407e-39 304 264
-0.0189886 0.722 -0.030381758 9.1864363e-39 305 264
-0.017673599 0.72000003 -0.0302976 9.0009885e-39 306 264
-0.0164112 0.72000003 -0.0302976 8.7247603e-39 307 264
-0.01512776 0.71899998 -0.030255521 8.7244044e-39 308 264
-0.013867113 0.71899998 -0.030255521 8.5407306e-39 309 264
-0.0125714 0.71700001 -0.030171359 8.7258295e-39 310 264
-0.01131426 0.71700001 -0.030171359 8.7258295e-39 311 264
-0.01005712 0.71700001 -0.030171359 8.6343345e-39 312 264
-0.0087999795 0.71700001 -0.030171359 8.5421389e-39 313 264
-0.0075428397 0.71700001 -0.030171359 8.8169251e-39 314 264
-0.0062857 0.71700001 -0.030171359 8.9094781e-39 315 264
-0.0050285598 0.71700001 -0.030171359 8.634689e-39 316 264
-0.0037714199 0.71700001 -0.030171359 8.7268833e-39 317 264
-0.0025142799 0.71700001 -0.030171359 8.8176426e-39 318 264
-0.00125714 0.71700001 -0.030171359 8.7254483e-39 319 264
0 0.71700001 -0.030171359 8.8172838e-39 320 264
0.0012606466 0.71899998 -0.030255521 8.8172838e-39 321 264
0.0025212932 0.71899998 -0.030255521 8.7258071e-39 322 264
0.0037872 0.72000003 -0.0302976 8.7258071e-39 323 264
0.0050636264 0.722 -0.030381758 8.7254483e-39 324 264
0.0063295332 0.722 -0.030381758 8.8176426e-39 325 264
0.0076059597 0.72299999 -0.030423839 8.7265245e-39 326 264
0.0088736191 0.72299999 -0.030423839 8.910913e-39 327 264
0.010169334 0.72500002 -0.030508002 8.6368428e-39 328 264
0.0114405 0.72500002 -0.030508002 9.0052652e-39 329 264
0.012711667 0.72500002 -0.030508002 8.6379176e-39 330 264
0.013982833 0.72500002 -0.030508002 8.3613349e-39 331 264
-0.037118066 0.73000002 -0.031998333 1.1422865e-38 291 265
-0.035838135 0.73000002 -0.031998333 1.0480398e-38 292 265
-0.034463517 0.72799999 -0.031910665 1.0019421e-38 293 265
-0.033187091 0.72799999 -0.031910665 1.0202724e-38 294 265
-0.031910665 0.72799999 -0.031910665 9.64955e-39 295 265
-0.030592158 0.727 -0.03186683 9.7399436e-39 296 265
-0.029317487 0.727 -0.03186683 9.5555551e-39 297 265
-0.027965667 0.72500002 -0.031779166 9.4633609e-39 298 265
-0.026620859 0.72299999 -0.031691495 9.3711667e-39 299 265
-0.025318133 0.722 -0.031647664 9.1874957e-39 300 265
-0.024052227 0.722 -0.031647664 9.2796899e-39 301 265
-0.022786319 0.722 -0.031647664 9.0949427e-39 302 265
-0.021550218 0.72299999 -0.031691495 9.0949427e-39 303 265
-0.020254506 0.722 -0.031647664 8.8190803e-39 304 265
-0.0189886 0.722 -0.031647664 8.8190803e-39 305 265
-0.017673599 0.72000003 -0.03156 9.0020422e-39 306 265
-0.0164112 0.72000003 -0.03156 9.0020422e-39 307 265
-0.01512776 0.71899998 -0.031516165 8.909848e-39 308 265
-0.013867113 0.71899998 -0.031516165 8.7258169e-39 309 265
-0.0125714 0.71700001 -0.031428497 8.6346904e-39 310 265
-0.01131426 0.71700001 -0.031428497 8.6346904e-39 311 265
-0.01005712 0.71700001 -0.031428497 8.6350478e-39 312 265
-0.0087999795 0.71700001 -0.031428497 8.5428535e-39 313 265
-0.0075428397 0.71700001 -0.031428497 8.9101955e-39 314 265
-0.0062857 0.71700001 -0.031428497 8.9101955e-39 315 265
-0.0050285598 0.71700001 -0.031428497 8.634689e-39 316 265
-0.0037714199 0.71700001 -0.031428497 8.634689e-39 317 265
-0.0025142799 0.71700001 -0.031428497 8.8169251e-39 318 265
-0.00125714 0.71700001 -0.031428497 8.7247309e-39 319 265
0 0.71700001 -0.031428497 8.9080431e-39 320 265
0.0012606466 0.71899998 -0.031516165 9.0005961e-39 321 265
0.0025212932 0.71899998 -0.031516165 8.7254483e-39 322 265
0.0037872 0.72000003 -0.03156 8.7254483e-39 323 265
0.0050636264 0.722 -0.031647664 8.6343303e-39 324 265
0.0063295332 0.722 -0.031647664 8.6343303e-39 325 265
0.0075954394 0.722 -0.031647664 8.6350478e-39 326 265
0.0088613462 0.722 -0.031647664 8.727242e-39 327 265
0.010127253 0.722 -0.031647664 8.7290357e-39 328 265
0.01139316 0.722 -0.031647664 9.1900124e-39 329 265
0.012711667 0.72500002 -0.031779166 8.8219473e-39 330 265
-0.037118066 0.73000002 -0.033278264 1.2344819e-38 291 266
-0.035838135 0.73000002 -0.033278264 1.0574393e-38 292 266
-0.034463517 0.72799999 -0.033187091 9.7446323e-39 293 266
-0.033187091 0.72799999 -0.033187091 1.047751e-38 294 266
-0.031910665 0.72799999 -0.033187091 1.0200922e-38 295 266
-0.030592158 0.727 -0.033141505 1.0015809e-38 296 266
-0.029317487 0.727 -0.033141505 9.7392261e-39 297 266
-0.027965667 0.72500002 -0.033050332 9.7388674e-39 298 266
-0.026620859 0.72299999 -0.032959159 9.7388674e-39 299 266
-0.025353199 0.72299999 -0.032959159 9.4633609e-39 300 266
-0.024052227 0.722 -0.032913569 9.4633609e-39 301 266
-0.022786319 0.722 -0.032913569 9.3711667e-39 302 266
-0.021550218 0.72299999 -0.032959159 9.1871369e-39 303 266
-0.020254506 0.722 -0.032913569 9.0031072e-39 304 266
-0.0189886 0.722 -0.032913569 9.0031072e-39 305 266
-0.017673599 0.72000003 -0.0328224 9.002031e-39 306 266
-0.0164112 0.72000003 -0.0328224 9.002031e-39 307 266
-0.01512776 0.71899998 -0.032776814 8.9105543e-39 308 266
-0.013867113 0.71899998 -0.032776814 8.7265245e-39 309 266
-0.012606465 0.71899998 -0.032776814 8.6350478e-39 310 266
-0.01134582 0.71899998 -0.032776814 8.6350478e-39 311 266
-0.01005712 0.71700001 -0.032685637 8.6350478e-39 312 266
-0.0087999795 0.71700001 -0.032685637 8.6350478e-39 313 266
-0.0075428397 0.71700001 -0.032685637 8.6354065e-39 314 266
-0.0062857 0.71700001 -0.032685637 8.6354065e-39 315 266
-0.0050285598 0.71700001 -0.032685637 8.634689e-39 316 266
-0.0037714199 0.71700001 -0.032685637 8.7268833e-39 317 266
-0.0025142799 0.71700001 -0.032685637 8.8180013e-39 318 266
-0.00125714 0.71700001 -0.032685637 8.8180013e-39 319 266
0 0.71899998 -0.032776814 8.8180013e-39 320 266
0.0012606466 0.71899998 -0.032776814 8.7258071e-39 321 266
0.0025212932 0.71899998 -0.032776814 8.7268833e-39 322 266
0.0037872 0.72000003 -0.0328224 8.7268833e-39 323 266
0.0050636264 0.722 -0.032913569 8.6350478e-39 324 266
0.0063295332 0.722 -0.032913569 8.6350478e-39 325 266
0.0075954394 0.722 -0.032913569 8.727242e-39 326 266
0.0088613462 0.722 -0.032913569 8.9116305e-39 327 266
0.010127253 0.722 -0.032913569 8.7297573e-39 328 266
0.01139316 0.722 -0.032913569 9.0063442e-39 329 266
-0.035838135 0.73000002 -0.034558199 1.0759505e-38 292 267
-0.034558199 0.73000002 -0.034558199 9.5613201e-39 293 267
-0.033187091 0.72799999 -0.034463517 1.0480748e-38 294 267
-0.031910665 0.72799999 -0.034463517 9.6509878e-39 295 267
-0.030592158 0.727 -0.03441618 9.8328651e-39 296 267
-0.029317487 0.727 -0.03441618 9.4640826e-39 297 267
-0.027965667 0.72500002 -0.034321502 9.555202e-39 298 267
-0.026620859 0.72299999 -0.03422682 9.555202e-39 299 267
-0.025353199 0.72299999 -0.03422682 9.3718869e-39 300 267
-0.024052227 0.722 -0.034179479 9.2796913e-39 301 267
-0.022786319 0.722 -0.034179479 9.1882131e-39 302 267
-0.021550218 0.72299999 -0.03422682 9.0041834e-39 303 267
-0.020282559 0.72299999 -0.03422682 8.9116305e-39 304 267
-0.0189886 0.722 -0.034179479 8.727242e-39 305 267
-0.017722692 0.722 -0.034179479 9.0027485e-39 306 267
-0.0164112 0.72000003 -0.034084801 8.9105543e-39 307 267
-0.0151488 0.72000003 -0.034084801 8.727242e-39 308 267
-0.013867113 0.71899998 -0.03403746 8.727242e-39 309 267
-0.012606465 0.71899998 -0.03403746 8.6350478e-39 310 267
-0.01134582 0.71899998 -0.03403746 8.6350478e-39 311 267
-0.010085173 0.71899998 -0.03403746 8.634689e-39 312 267
-0.0088245263 0.71899998 -0.03403746 8.634689e-39 313 267
-0.0075638802 0.71899998 -0.03403746 8.4513768e-39 314 267
-0.0063032326 0.71899998 -0.03403746 8.4513768e-39 315 267
-0.0050425865 0.71899998 -0.03403746 8.6350478e-39 316 267
-0.0037819401 0.71899998 -0.03403746 8.5428535e-39 317 267
-0.0025212932 0.71899998 -0.03403746 8.8176426e-39 318 267
-0.0012606466 0.71899998 -0.03403746 8.8176426e-39 319 267
0 0.71899998 -0.03403746 8.8176426e-39 320 267
0.0012606466 0.71899998 -0.03403746 8.8176426e-39 321 267
0.0025318132 0.722 -0.034179479 8.6343303e-39 322 267
0.0037977197 0.722 -0.034179479 8.7265245e-39 323 267
0.0050636264 0.722 -0.034179479 8.727242e-39 324 267
0.0063295332 0.722 -0.034179479 8.727242e-39 325 267
0.0075954394 0.722 -0.034179479 8.636124e-39 326 267
0.0088613462 0.722 -0.034179479 8.8201537e-39 327 267
0.010127253 0.722 -0.034179479 9.0056183e-39 328 267
-0.035838135 0.73000002 -0.035838135 1.1408465e-38 292 268
-0.034558199 0.73000002 -0.035838135 9.1961305e-39 293 268
-0.033187091 0.72799999 -0.035739943 1.0478938e-38 294 268
-0.031910665 0.72799999 -0.035739943 1.0110155e-38 295 268
-0.030592158 0.727 -0.035690852 1.0108362e-38 296 268
-0.029317487 0.727 -0.035690852 9.9236146e-39 297 268
-0.027965667 0.72500002 -0.035592668 9.6477508e-39 298 268
-0.026620859 0.72299999 -0.035494477 9.5555551e-39 299 268
-0.025353199 0.72299999 -0.035494477 9.3718869e-39 300 268
-0.024052227 0.722 -0.035445385 9.3718869e-39 301 268
-0.022786319 0.722 -0.035445385 9.1882131e-39 302 268
-0.021550218 0.72299999 -0.035494477 9.0041834e-39 303 268
-0.020282559 0.72299999 -0.035494477 9.1867782e-39 304 268
-0.0189886 0.722 -0.035445385 9.1867782e-39 305 268
-0.017722692 0.722 -0.035445385 9.0953014e-39 306 268
-0.016456785 0.722 -0.035445385 9.0031072e-39 307 268
-0.0151488 0.72000003 -0.035347197 8.819795e-39 308 268
-0.0138864 0.72000003 -0.035347197 8.7276007e-39 309 268
-0.012624 0.72000003 -0.035347197 8.6350478e-39 310 268
-0.01134582 0.71899998 -0.035298105 8.6350478e-39 311 268
-0.010085173 0.71899998 -0.035298105 8.634689e-39 312 268
-0.0088245263 0.71899998 -0.035298105 8.634689e-39 313 268
-0.0075638802 0.71899998 -0.035298105 8.6350478e-39 314 268
-0.0063032326 0.71899998 -0.035298105 8.727242e-39 315 268
-0.0050425865 0.71899998 -0.035298105 8.6350478e-39 316 268
-0.0037819401 0.71899998 -0.035298105 8.727242e-39 317 268
-0.0025248001 0.72000003 -0.035347197 8.6350478e-39 318 268
-0.0012624001 0.72000003 -0.035347197 8.6350478e-39 319 268
0 0.72000003 -0.035347197 8.6354065e-39 320 268
0.0012624001 0.72000003 -0.035347197 8.6354065e-39 321 268
0.0025318132 0.722 -0.035445385 8.6354065e-39 322 268
0.0037977197 0.722 -0.035445385 8.7276007e-39 323 268
0.0050636264 0.722 -0.035445385 8.910913e-39 324 268
0.0063382997 0.72299999 -0.035494477 9.0031072e-39 325 268
0.0076059597 0.72299999 -0.035494477 8.9116305e-39 326 268
0.0088736191 0.72299999 -0.035494477 9.0038247e-39 327 268
0.010197386 0.727 -0.035690852 8.8223061e-39 328 268
-0.034463517 0.72799999 -0.037016369 8.9231351e-39 293 269
-0.033187091 0.72799999 -0.037016369 1.0203426e-38 294 269
-0.031910665 0.72799999 -0.037016369 1.0203426e-38 295 269
-0.030634239 0.72799999 -0.037016369 1.0109079e-38 296 269
-0.029317487 0.727 -0.036965527 9.8328553e-39 297 269
-0.028042812 0.727 -0.036965527 9.7403023e-39 298 269
-0.026694499 0.72500002 -0.036863834 9.5555551e-39 299 269
-0.025423333 0.72500002 -0.036863834 9.1882131e-39 300 269
-0.024052227 0.722 -0.03671129 9.1882131e-39 301 269
-0.022786319 0.722 -0.03671129 9.1882131e-39 302 269
-0.021550218 0.72299999 -0.036762137 9.1882131e-39 303 269
-0.020282559 0.72299999 -0.036762137 9.3708079e-39 304 269
-0.019014901 0.72299999 -0.036762137 9.3708079e-39 305 269
-0.017722692 0.722 -0.03671129 9.0953014e-39 306 269
-0.016456785 0.722 -0.03671129 9.0031072e-39 307 269
-0.0151488 0.72000003 -0.036609601 8.9119892e-39 308 269
-0.0138864 0.72000003 -0.036609601 8.819795e-39 309 269
-0.012624 0.72000003 -0.036609601 8.7265245e-39 310 269
-0.011361601 0.72000003 -0.036609601 8.7265245e-39 311 269
-0.010099201 0.72000003 -0.036609601 8.634689e-39 312 269
-0.0088367993 0.72000003 -0.036609601 8.634689e-39 313 269
-0.0075743999 0.72000003 -0.036609601 8.6343303e-39 314 269
-0.0063120001 0.72000003 -0.036609601 8.9105543e-39 315 269
-0.0050496003 0.72000003 -0.036609601 8.910913e-39 316 269
-0.0037872 0.72000003 -0.036609601 8.910913e-39 317 269
-0.0025248001 0.72000003 -0.036609601 8.7276007e-39 318 269
-0.0012624001 0.72000003 -0.036609601 8.7276007e-39 319 269
0 0.722 -0.03671129 8.5442885e-39 320 269
0.0012659066 0.722 -0.03671129 8.4520942e-39 321 269
0.0025318132 0.722 -0.03671129 8.7279595e-39 322 269
0.0037977197 0.722 -0.03671129 8.7279595e-39 323 269
0.0050706398 0.72299999 -0.036762137 8.819795e-39 324 269
0.0063382997 0.72299999 -0.036762137 8.819795e-39 325 269
0.0076270006 0.72500002 -0.036863834 8.9127066e-39 326 269
0.0088981669 0.72500002 -0.036863834 9.0049009e-39 327 269
0.010197386 0.727 -0.036965527 8.8223061e-39 328 269
0.01147206 0.727 -0.036965527 8.4538879e-39 329 269
-0.034558199 0.73000002 -0.038398001 9.5735394e-39 293 270
-0.033278264 0.73000002 -0.038398001 1.0478215e-38 294 270
-0.031910665 0.72799999 -0.038292799 1.0662603e-38 295 270
-0.030634239 0.72799999 -0.038292799 1.0293468e-38 296 270
-0.029357811 0.72799999 -0.038292799 9.8328553e-39 297 270
-0.028042812 0.727 -0.038240198 9.5555551e-39 298 270
-0.026768139 0.727 -0.038240198 9.4633609e-39 299 270
-0.025493465 0.727 -0.038240198 9.4630022e-39 300 270
-0.024052227 0.722 -0.0379772 9.3708079e-39 301 270
-0.022786319 0.722 -0.0379772 9.1874957e-39 302 270
-0.021550218 0.72299999 -0.038029801 9.1874957e-39 303 270
-0.020282559 0.72299999 -0.038029801 9.1874957e-39 304 270
-0.019014901 0.72299999 -0.038029801 9.0953014e-39 305 270
-0.017722692 0.722 -0.0379772 9.0953014e-39 306 270
-0.016456785 0.722 -0.0379772 9.0953014e-39 307 270
-0.015190879 0.722 -0.0379772 9.0031072e-39 308 270
-0.013924973 0.722 -0.0379772 8.910913e-39 309 270
-0.012624 0.72000003 -0.037871998 8.9101955e-39 310 270
-0.011361601 0.72000003 -0.037871998 8.8176426e-39 311 270
-0.010099201 0.72000003 -0.037871998 8.7265245e-39 312 270
-0.0088367993 0.72000003 -0.037871998 8.7265245e-39 313 270
-0.0075743999 0.72000003 -0.037871998 8.6343303e-39 314 270
-0.0063120001 0.72000003 -0.037871998 8.7265245e-39 315 270
-0.0050496003 0.72000003 -0.037871998 8.910913e-39 316 270
-0.0037872 0.72000003 -0.037871998 8.7265245e-39 317 270
-0.0025248001 0.72000003 -0.037871998 8.6354065e-39 318 270
-0.0012624001 0.72000003 -0.037871998 8.6354065e-39 319 270
0 0.722 -0.0379772 8.6354065e-39 320 270
0.0012659066 0.722 -0.0379772 8.6354065e-39 321 270
0.0025353199 0.72299999 -0.038029801 8.9112717e-39 322 270
0.0038029798 0.72299999 -0.038029801 9.0034659e-39 323 270
0.0050706398 0.72299999 -0.038029801 8.9119892e-39 324 270
0.0063558333 0.72500002 -0.038135 8.9119892e-39 325 270
0.0076270006 0.72500002 -0.038135 8.9119892e-39 326 270
0.0089227129 0.727 -0.038240198 9.372603e-39 327 270
0.010197386 0.727 -0.038240198 9.1903655e-39 328 270
0.01147206 0.727 -0.038240198 9.2825598e-39 329 270
-0.033187091 0.72799999 -0.039569225 1.0478938e-38 294 271
-0.031910665 0.72799999 -0.039569225 1.0110155e-38 295 271
-0.030634239 0.72799999 -0.039569225 1.0477139e-38 296 271
-0.029357811 0.72799999 -0.039569225 1.0108362e-38 297 271
-0.028081384 0.72799999 -0.039569225 9.8314203e-39 298 271
-0.026768139 0.727 -0.039514873 9.5551964e-39 299 271
-0.025493465 0.727 -0.039514873 9.4622847e-39 300 271
-0.024152167 0.72500002 -0.039406165 9.4622847e-39 301 271
-0.022880999 0.72500002 -0.039406165 9.1871397e-39 302 271
-0.021609833 0.72500002 -0.039406165 9.1871397e-39 303 271
-0.020282559 0.72299999 -0.039297458 9.1874957e-39 304 271
-0.019014901 0.72299999 -0.039297458 9.1874957e-39 305 271
-0.017722692 0.722 -0.039243106 9.0041834e-39 306 271
-0.016456785 0.722 -0.039243106 8.9119892e-39 307 271
-0.015190879 0.722 -0.039243106 8.910913e-39 308 271
-0.013924973 0.722 -0.039243106 8.910913e-39 309 271
-0.012659066 0.722 -0.039243106 8.9101955e-39 310 271
-0.01139316 0.722 -0.039243106 9.0023898e-39 311 271
-0.010127253 0.722 -0.039243106 8.910913e-39 312 271
-0.0088613462 0.722 -0.039243106 8.6343303e-39 313 271
-0.0075743999 0.72000003 -0.039134402 8.6343303e-39 314 271
-0.0063120001 0.72000003 -0.039134402 8.7265245e-39 315 271
-0.0050636264 0.722 -0.039243106 8.9101955e-39 316 271
-0.0037977197 0.722 -0.039243106 8.9101955e-39 317 271
-0.0025318132 0.722 -0.039243106 8.727242e-39 318 271
-0.0012676599 0.72299999 -0.039297458 8.727242e-39 319 271
0 0.72299999 -0.039297458 8.727242e-39 320 271
0.0012676599 0.72299999 -0.039297458 8.727242e-39 321 271
0.0025353199 0.72299999 -0.039297458 9.0027485e-39 322 271
0.0038029798 0.72299999 -0.039297458 9.0949427e-39 323 271
0.0050846669 0.72500002 -0.039406165 9.0031072e-39 324 271
0.0063558333 0.72500002 -0.039406165 9.0956602e-39 325 271
0.0076480396 0.727 -0.039514873 8.9123507e-39 326 271
0.0089349858 0.72799999 -0.039569225 9.281492e-39 327 271
0.010253493 0.73100001 -0.039732285 9.1003293e-39 328 271
0.01153518 0.73100001 -0.039732285 1.0760211e-38 329 271
-0.033187091 0.72799999 -0.040845651 1.103427e-38 294 272
-0.031910665 0.72799999 -0.040845651 9.9282823e-39 295 272
-0.030634239 0.72799999 -0.040845651 1.0386379e-38 296 272
-0.029357811 0.72799999 -0.040845651 1.0201632e-38 297 272
-0.028081384 0.72799999 -0.040845651 9.7403023e-39 298 272
-0.026804959 0.72799999 -0.040845651 9.5559139e-39 299 272
-0.025528532 0.72799999 -0.040845651 9.4633609e-39 300 272
-0.024218792 0.727 -0.040789545 9.4633609e-39 301 272
-0.022880999 0.72500002 -0.040677335 9.1874957e-39 302 272
-0.021609833 0.72500002 -0.040677335 9.2796899e-39 303 272
-0.020282559 0.72299999 -0.040565118 9.0041834e-39 304 272
-0.019014901 0.72299999 -0.040565118 8.9119892e-39 305 272
-0.017747238 0.72299999 -0.040565118 9.0041834e-39 306 272
-0.01647958 0.72299999 -0.040565118 8.819795e-39 307 272
-0.015190879 0.722 -0.040509012 8.819795e-39 308 272
-0.013924973 0.722 -0.040509012 8.7276007e-39 309 272
-0.012659066 0.722 -0.040509012 8.7276007e-39 310 272
-0.01139316 0.722 -0.040509012 8.7276007e-39 311 272
-0.010127253 0.722 -0.040509012 8.910913e-39 312 272
-0.0088613462 0.722 -0.040509012 8.7268833e-39 313 272
-0.0075954394 0.722 -0.040509012 8.7268833e-39 314 272
-0.0063295332 0.722 -0.040509012 8.910913e-39 315 272
-0.0050636264 0.722 -0.040509012 8.9105543e-39 316 272
-0.0037977197 0.722 -0.040509012 8.9105543e-39 317 272
-0.0025353199 0.72299999 -0.040565118 8.910913e-39 318 272
-0.0012676599 0.72299999 -0.040565118 8.910913e-39 319 272
0 0.72299999 -0.040565118 9.0031072e-39 320 272
0.0012676599 0.72299999 -0.040565118 8.910913e-39 321 272
0.0025423334 0.72500002 -0.040677335 9.0023898e-39 322 272
0.0038135003 0.72500002 -0.040677335 9.0949427e-39 323 272
0.0050986931 0.727 -0.040789545 9.0956602e-39 324 272
0.0063733663 0.727 -0.040789545 9.0956602e-39 325 272
0.0076585598 0.72799999 -0.040845651 9.0056183e-39 326 272
0.0089595336 0.73000002 -0.040957868 9.0056183e-39 327 272
0.010253493 0.73100001 -0.041013971 9.2868786e-39 328 272
-0.031910665 0.72799999 -0.042122077 9.4730579e-39 295 273
-0.030634239 0.72799999 -0.042122077 1.0845916e-38 296 273
-0.029357811 0.72799999 -0.042122077 1.0569333e-38 297 273
-0.028081384 0.72799999 -0.042122077 1.0016526e-38 298 273
-0.026804959 0.72799999 -0.042122077 9.8317791e-39 299 273
-0.025528532 0.72799999 -0.042122077 9.4644371e-39 300 273
-0.024218792 0.727 -0.042064216 9.2800486e-39 301 273
-0.022944121 0.727 -0.042064216 9.1882131e-39 302 273
-0.021609833 0.72500002 -0.041948501 9.0041834e-39 303 273
-0.020282559 0.72299999 -0.041832779 9.0041834e-39 304 273
-0.019014901 0.72299999 -0.041832779 8.9119892e-39 305 273
-0.017747238 0.72299999 -0.041832779 9.0031072e-39 306 273
-0.01647958 0.72299999 -0.041832779 9.0031072e-39 307 273
-0.015211919 0.72299999 -0.041832779 8.819795e-39 308 273
-0.01394426 0.72299999 -0.041832779 8.7276007e-39 309 273
-0.012676599 0.72299999 -0.041832779 8.7276007e-39 310 273
-0.01140894 0.72299999 -0.041832779 8.7276007e-39 311 273
-0.010127253 0.722 -0.041774917 8.7276007e-39 312 273
-0.0088613462 0.722 -0.041774917 8.7276007e-39 313 273
-0.0075954394 0.722 -0.041774917 8.7268833e-39 314 273
-0.0063295332 0.722 -0.041774917 8.634689e-39 315 273
-0.0050636264 0.722 -0.041774917 9.0938665e-39 316 273
-0.0037977197 0.722 -0.041774917 9.1860607e-39 317 273
-0.0025353199 0.72299999 -0.041832779 9.1860607e-39 318 273
-0.0012676599 0.72299999 -0.041832779 9.1860607e-39 319 273
0 0.72299999 -0.041832779 8.9112717e-39 320 273
0.0012711667 0.72500002 -0.041948501 8.9112717e-39 321 273
0.0025423334 0.72500002 -0.041948501 9.0031072e-39 322 273
0.0038240198 0.727 -0.042064216 9.0953014e-39 323 273
0.0050986931 0.727 -0.042064216 8.9119892e-39 324 273
0.0063821329 0.72799999 -0.042122077 9.1882131e-39 325 273
0.0076795998 0.73000002 -0.0422378 8.914859e-39 326 273
0.0089595336 0.73000002 -0.0422378 8.8223061e-39 327 273
-0.030634239 0.72799999 -0.043398503 1.0478216e-38 296 274
-0.029357811 0.72799999 -0.043398503 1.0386021e-38 297 274
-0.028081384 0.72799999 -0.043398503 9.8339343e-39 298 274
-0.026804959 0.72799999 -0.043398503 9.5573488e-39 299 274
-0.025528532 0.72799999 -0.043398503 9.3722429e-39 300 274
-0.024218792 0.727 -0.043338891 9.3722429e-39 301 274
-0.022944121 0.727 -0.043338891 9.2804074e-39 302 274
-0.021609833 0.72500002 -0.043219667 9.1882131e-39 303 274
-0.020338668 0.72500002 -0.043219667 9.0949427e-39 304 274
-0.0190675 0.72500002 -0.043219667 9.0949427e-39 305 274
-0.017747238 0.72299999 -0.043100435 9.0031072e-39 306 274
-0.01647958 0.72299999 -0.043100435 9.0031072e-39 307 274
-0.015211919 0.72299999 -0.043100435 9.0031072e-39 308 274
-0.01394426 0.72299999 -0.043100435 9.0031072e-39 309 274
-0.012676599 0.72299999 -0.043100435 8.727242e-39 310 274
-0.01140894 0.72299999 -0.043100435 8.727242e-39 311 274
-0.01014128 0.72299999 -0.043100435 8.910913e-39 312 274
-0.0088736191 0.72299999 -0.043100435 8.910913e-39 313 274
-0.0076059597 0.72299999 -0.043100435 8.8180013e-39 314 274
-0.0063382997 0.72299999 -0.043100435 8.7258071e-39 315 274
-0.0050706398 0.72299999 -0.043100435 8.9098368e-39 316 274
-0.0038029798 0.72299999 -0.043100435 9.1860607e-39 317 274
-0.0025353199 0.72299999 -0.043100435 9.0027485e-39 318 274
-0.0012676599 0.72299999 -0.043100435 9.0949427e-39 319 274
0 0.72500002 -0.043219667 8.819795e-39 320 274
0.0012711667 0.72500002 -0.043219667 8.819795e-39 321 274
0.0025493465 0.727 -0.043338891 8.819795e-39 322 274
0.0038292799 0.72799999 -0.043398503 8.9119892e-39 323 274
0.0051057064 0.72799999 -0.043398503 8.9127066e-39 324 274
0.0063821329 0.72799999 -0.043398503 9.0970951e-39 325 274
0.0076795998 0.73000002 -0.043517731 8.916301e-39 326 274
-0.029357811 0.72799999 -0.044674929 9.3779826e-39 297 275
-0.028081384 0.72799999 -0.044674929 9.8335727e-39 298 275
-0.026804959 0.72799999 -0.044674929 9.8335727e-39 299 275
-0.025528532 0.72799999 -0.044674929 9.5555551e-39 300 275
-0.024218792 0.727 -0.044613566 9.5555551e-39 301 275
-0.022944121 0.727 -0.044613566 9.1882145e-39 302 275
-0.021669446 0.727 -0.044613566 9.1882145e-39 303 275
-0.020394772 0.727 -0.044613566 9.0041834e-39 304 275
-0.0190675 0.72500002 -0.044490833 8.9119892e-39 305 275
-0.017796334 0.72500002 -0.044490833 8.9119892e-39 306 275
-0.016525166 0.72500002 -0.044490833 8.819795e-39 307 275
-0.015254001 0.72500002 -0.044490833 8.819795e-39 308 275
-0.013982833 0.72500002 -0.044490833 8.819795e-39 309 275
-0.012711667 0.72500002 -0.044490833 8.4517355e-39 310 275
-0.0114405 0.72500002 -0.044490833 8.4517355e-39 311 275
-0.010169334 0.72500002 -0.044490833 8.6350478e-39 312 275
-0.0088736191 0.72299999 -0.044368099 8.6350478e-39 313 275
-0.0076059597 0.72299999 -0.044368099 8.7268833e-39 314 275
-0.0063382997 0.72299999 -0.044368099 8.634689e-39 315 275
-0.0050706398 0.72299999 -0.044368099 8.7268833e-39 316 275
-0.0038029798 0.72299999 -0.044368099 8.910913e-39 317 275
-0.0025353199 0.72299999 -0.044368099 8.819795e-39 318 275
-0.0012676599 0.72299999 -0.044368099 8.7276007e-39 319 275
0 0.72500002 -0.044490833 8.6364827e-39 320 275
0.0012711667 0.72500002 -0.044490833 8.8205124e-39 321 275
0.0025493465 0.727 -0.044613566 8.6364827e-39 322 275
0.0038292799 0.72799999 -0.044674929 8.9127066e-39 323 275
0.0051057064 0.72799999 -0.044674929 8.7297573e-39 324 275
0.0063996664 0.73000002 -0.044797666 8.9141486e-39 325 275
-0.029357811 0.72799999 -0.045951359 9.6621379e-39 297 276
-0.028081384 0.72799999 -0.045951359 1.0111595e-38 298 276
-0.026804959 0.72799999 -0.045951359 9.8353664e-39 299 276
-0.025528532 0.72799999 -0.045951359 9.8321434e-39 300 276
-0.024252106 0.72799999 -0.045951359 9.6477508e-39 301 276
-0.022975679 0.72799999 -0.045951359 9.1882145e-39 302 276
-0.021699252 0.72799999 -0.045951359 9.1882145e-39 303 276
-0.020422826 0.72799999 -0.045951359 9.1882131e-39 304 276
-0.019120099 0.727 -0.045888241 9.0041834e-39 305 276
-0.017845426 0.727 -0.045888241 8.9119892e-39 306 276
-0.016570752 0.727 -0.045888241 8.8194362e-39 307 276
-0.015296079 0.727 -0.045888241 8.636124e-39 308 276
-0.014021406 0.727 -0.045888241 8.5439297e-39 309 276
-0.012746733 0.727 -0.045888241 8.5439297e-39 310 276
-0.0114405 0.72500002 -0.045761999 8.4517355e-39 311 276
-0.010169334 0.72500002 -0.045761999 8.6350478e-39 312 276
-0.0088981669 0.72500002 -0.045761999 8.5428535e-39 313 276
-0.0076270006 0.72500002 -0.045761999 8.634689e-39 314 276
-0.0063382997 0.72299999 -0.04563576 8.7268833e-39 315 276
-0.0050706398 0.72299999 -0.04563576 8.7268833e-39 316 276
-0.0038029798 0.72299999 -0.04563576 8.910913e-39 317 276
-0.0025353199 0.72299999 -0.04563576 8.7276007e-39 318 276
-0.0012711667 0.72500002 -0.045761999 8.819795e-39 319 276
0 0.727 -0.045888241 8.5446472e-39 320 276
0.0012746733 0.727 -0.045888241 8.5446472e-39 321 276
0.0025493465 0.727 -0.045888241 8.636124e-39 322 276
0.0038292799 0.72799999 -0.045951359 8.9123507e-39 323 276
0.0051057064 0.72799999 -0.045951359 8.6386407e-39 324 276
-0.028081384 0.72799999 -0.047227785 1.0302472e-38 298 277
-0.026804959 0.72799999 -0.047227785 9.1039292e-39 299 277
-0.025528532 0.72799999 -0.047227785 9.8346601e-39 300 277
-0.024252106 0.72799999 -0.047227785 9.5580733e-39 301 277
-0.022975679 0.72799999 -0.047227785 9.1892935e-39 302 277
-0.021758866 0.73000002 -0.047357533 9.0970979e-39 303 277
-0.020422826 0.72799999 -0.047227785 9.0038247e-39 304 277
-0.0191464 0.72799999 -0.047227785 8.9116305e-39 305 277
-0.017869972 0.72799999 -0.047227785 8.9119892e-39 306 277
-0.016593546 0.72799999 -0.047227785 8.8194362e-39 307 277
-0.015296079 0.727 -0.047162913 8.636124e-39 308 277
-0.014021406 0.727 -0.047162913 8.5439297e-39 309 277
-0.012746733 0.727 -0.047162913 8.5439297e-39 310 277
-0.01147206 0.727 -0.047162913 8.5439297e-39 311 277
-0.010197386 0.727 -0.047162913 8.5442885e-39 312 277
-0.0089227129 0.727 -0.047162913 8.5442885e-39 313 277
-0.0076480396 0.727 -0.047162913 8.5442885e-39 314 277
-0.0063558333 0.72500002 -0.047033165 8.5442885e-39 315 277
-0.0050846669 0.72500002 -0.047033165 8.5442885e-39 316 277
-0.0038135003 0.72500002 -0.047033165 8.5442885e-39 317 277
-0.0025423334 0.72500002 -0.047033165 8.6364827e-39 318 277
-0.0012746733 0.727 -0.047162913 8.6364827e-39 319 277
0 0.727 -0.047162913 8.636124e-39 320 277
0.0012746733 0.727 -0.047162913 8.543571e-39 321 277
0.0025493465 0.727 -0.047162913 8.6364869e-39 322 277
0.0038240198 0.727 -0.047162913 8.6364869e-39 323 277
0.0051057064 0.72799999 -0.047227785 8.4564102e-39 324 277
-0.026804959 0.72799999 -0.048504211 9.3869957e-39 299 278
-0.025528532 0.72799999 -0.048504211 9.3797959e-39 300 278
-0.024252106 0.72799999 -0.048504211 8.9188177e-39 301 278
-0.022975679 0.72799999 -0.048504211 9.2829255e-39 302 278
-0.021758866 0.73000002 -0.048637468 8.9145017e-39 303 278
-0.020478934 0.73000002 -0.048637468 9.0041834e-39 304 278
-0.019199001 0.73000002 -0.048637468 8.9119892e-39 305 278
-0.017919067 0.73000002 -0.048637468 8.8205124e-39 306 278
-0.016639132 0.73000002 -0.048637468 8.8205124e-39 307 278
-0.01531712 0.72799999 -0.048504211 8.6364827e-39 308 278
-0.014040692 0.72799999 -0.048504211 8.6364827e-39 309 278
-0.012764266 0.72799999 -0.048504211 8.5442885e-39 310 278
-0.01148784 0.72799999 -0.048504211 8.5442885e-39 311 278
-0.010211413 0.72799999 -0.048504211 8.7276007e-39 312 278
-0.0089349858 0.72799999 -0.048504211 8.819795e-39 313 278
-0.0076585598 0.72799999 -0.048504211 8.5442885e-39 314 278
-0.0063733663 0.727 -0.048437584 8.5442885e-39 315 278
-0.0050986931 0.727 -0.048437584 8.5442885e-39 316 278
-0.0038240198 0.727 -0.048437584 8.5442885e-39 317 278
-0.0025528532 0.72799999 -0.048504211 8.636124e-39 318 278
-0.0012764266 0.72799999 -0.048504211 8.636124e-39 319 278
0 0.72500002 -0.048304334 8.5442913e-39 320 278
0.0012711667 0.72500002 -0.048304334 8.5442913e-39 321 278
0.0025493465 0.727 -0.048437584 8.6372086e-39 322 278
0.0038240198 0.727 -0.048437584 8.8215998e-39 323 278
-0.025528532 0.72799999 -0.049780637 9.5695947e-39 300 279
-0.024252106 0.72799999 -0.049780637 8.5554428e-39 301 279
-0.022975679 0.72799999 -0.049780637 9.1950487e-39 302 279
-0.021758866 0.73000002 -0.0499174 8.6418749e-39 303 279
-0.020478934 0.73000002 -0.0499174 9.0052624e-39 304 279
-0.019199001 0.73000002 -0.0499174 8.8212313e-39 305 279
-0.017919067 0.73000002 -0.0499174 8.7290357e-39 306 279
-0.016639132 0.73000002 -0.0499174 8.5446472e-39 307 279
-0.0153592 0.73000002 -0.0499174 8.6364827e-39 308 279
-0.014079267 0.73000002 -0.0499174 8.5442885e-39 309 279
-0.012764266 0.72799999 -0.049780637 8.727242e-39 310 279
-0.01148784 0.72799999 -0.049780637 8.727242e-39 311 279
-0.010211413 0.72799999 -0.049780637 8.636124e-39 312 279
-0.0089349858 0.72799999 -0.049780637 8.636124e-39 313 279
-0.0076585598 0.72799999 -0.049780637 8.636124e-39 314 279
-0.0063821329 0.72799999 -0.049780637 8.636124e-39 315 279
-0.0050986931 0.727 -0.049712259 8.5442885e-39 316 279
-0.0038240198 0.727 -0.049712259 8.5442885e-39 317 279
-0.0025493465 0.727 -0.049712259 8.636124e-39 318 279
-0.0012764266 0.72799999 -0.049780637 8.636124e-39 319 279
0 0.72500002 -0.0495755 8.360979e-39 320 279
0.0012711667 0.72500002 -0.0495755 8.4531746e-39 321 279
0.0025423334 0.72500002 -0.0495755 8.2716659e-39 322 279
-0.023038799 0.73000002 -0.051197331 9.0164027e-39 302 280
-0.021758866 0.73000002 -0.051197331 8.463229e-39 303 280
-0.020478934 0.73000002 -0.051197331 9.0099231e-39 304 280
-0.019225299 0.73100001 -0.051267464 8.7329817e-39 305 280
-0.017943613 0.73100001 -0.051267464 8.7304706e-39 306 280
-0.016661927 0.73100001 -0.051267464 8.7304706e-39 307 280
-0.0153592 0.73000002 -0.051197331 8.6372002e-39 308 280
-0.014079267 0.73000002 -0.051197331 8.5450059e-39 309 280
-0.012799333 0.73000002 -0.051197331 8.3613349e-39 310 280
-0.011519399 0.73000002 -0.051197331 8.3613349e-39 311 280
-0.010239467 0.73000002 -0.051197331 8.3613349e-39 312 280
-0.0089595336 0.73000002 -0.051197331 8.3613349e-39 313 280
-0.0076585598 0.72799999 -0.051057063 8.2698582e-39 314 280
-0.0063821329 0.72799999 -0.051057063 8.2698582e-39 315 280
-0.0050986931 0.727 -0.050986931 8.2698582e-39 316 280
-0.0038240198 0.727 -0.050986931 8.2698582e-39 317 280
-0.0025493465 0.727 -0.050986931 8.1783814e-39 318 280
-0.0012799334 0.73000002 -0.051197331 8.1783814e-39 319 280
0 0.73000002 -0.051197331 7.9039595e-39 320 280
-0.022116546 0.74199998 -0.053339902 8.7427277e-39 303 281
-0.020787518 0.741 -0.053268019 8.9242253e-39 304 281
-0.019488299 0.741 -0.053268019 8.0944661e-39 305 281
-0.018066347 0.736 -0.052908584 8.5507583e-39 306 281
-0.016730307 0.73400003 -0.052764814 8.1816156e-39 307 281
-0.015422319 0.73299998 -0.052692924 8.3638489e-39 308 281
-0.014079267 0.73000002 -0.052477267 8.1790989e-39 309 281
-0.012799333 0.73000002 -0.052477267 8.1783814e-39 310 281
-0.011519399 0.73000002 -0.052477267 8.1783814e-39 311 281
-0.010239467 0.73000002 -0.052477267 8.0869046e-39 312 281
-0.0089595336 0.73000002 -0.052477267 7.9028749e-39 313 281
-0.0076795998 0.73000002 -0.052477267 7.8113982e-39 314 281
-0.0063996664 0.73000002 -0.052477267 7.8113982e-39 315 281
-0.0051197335 0.73000002 -0.052477267 7.9028749e-39 316 281
