# .PCD v.7 - Point Cloud Data file format
FIELDS x y z rgb imX imY
SIZE 4 4 4 4 4 4
TYPE F F F F F F
COUNT 1 1 1 1 1 1
WIDTH 832
HEIGHT 1
VIEWPOINT 0 0 0 1 0 0 0
POINTS 832
DATA ascii
0.032948639 0.69599998 -0.045151837 1.8528075e-38 347 277
-0.045043133 0.73400003 -0.048903972 1.7669505e-39 285 278
-0.043756187 0.73400003 -0.048903972 2.1332191e-39 286 278
-0.042411376 0.73299998 -0.048837345 2.0410234e-39 287 278
-0.041126184 0.73299998 -0.048837345 1.5832823e-39 288 278
-0.039732285 0.73100001 -0.048704091 1.5832823e-39 289 278
-0.038398001 0.73000002 -0.048637468 1.6754807e-39 290 278
-0.037118066 0.73000002 -0.048637468 1.7676764e-39 291 278
-0.035739943 0.72799999 -0.048504211 1.5850802e-39 292 278
-0.034463517 0.72799999 -0.048504211 2.2304496e-39 293 278
-0.033187091 0.72799999 -0.048504211 2.7861303e-39 294 278
-0.03186683 0.727 -0.048437584 3.7077278e-39 295 278
-0.030508002 0.72500002 -0.048304334 4.8119048e-39 296 278
-0.029156178 0.72299999 -0.048171077 5.4572742e-39 297 278
-0.027772799 0.72000003 -0.0479712 6.0104312e-39 298 278
-0.02647358 0.71899998 -0.04790457 6.2870194e-39 299 278
-0.025212931 0.71899998 -0.04790457 7.1142578e-39 300 278
-0.02388566 0.71700001 -0.04777132 6.7454767e-39 301 278
-0.02262852 0.71700001 -0.04777132 6.7458424e-39 302 278
-0.021341572 0.71600002 -0.047704693 6.7458424e-39 303 278
-0.020086186 0.71600002 -0.047704693 6.4696128e-39 304 278
-0.0188308 0.71600002 -0.047704693 6.2852202e-39 305 278
-0.017501773 0.713 -0.047504812 5.7338485e-39 306 278
-0.01620606 0.71100003 -0.047371563 5.9178796e-39 307 278
-0.014959441 0.71100003 -0.047371563 6.009362e-39 308 278
-0.013693533 0.70999998 -0.047304932 6.1015576e-39 309 278
-0.012448666 0.70999998 -0.047304932 6.3781389e-39 310 278
-0.011203799 0.70999998 -0.047304932 6.4703345e-39 311 278
-0.0099308798 0.708 -0.047171678 6.4703317e-39 312 278
-0.008677247 0.70700002 -0.047105055 6.4703317e-39 313 278
-0.0074376399 0.70700002 -0.047105055 6.1044233e-39 314 278
-0.0061892662 0.70599997 -0.047038425 6.3810087e-39 315 278
-0.0049514128 0.70599997 -0.047038425 6.5632364e-39 316 278
-0.0037030398 0.704 -0.046905171 5.917867e-39 317 278
-0.0024686933 0.704 -0.046905171 5.9203809e-39 318 278
-0.0012343467 0.704 -0.046905171 6.7505017e-39 319 278
0 0.70300001 -0.046838548 9.6942711e-39 320 278
0.0012273333 0.69999999 -0.046638668 9.9708593e-39 321 278
0.0024546667 0.69999999 -0.046638668 9.2311265e-39 322 278
0.0036714801 0.69800001 -0.046505414 9.7843003e-39 323 278
0.0048953067 0.69800001 -0.046505414 1.2175273e-38 324 278
0.006119133 0.69800001 -0.046505414 1.2267827e-38 325 278
0.00733244 0.69700003 -0.046438783 1.1808285e-38 326 278
0.0085545136 0.69700003 -0.046438783 1.1808285e-38 327 278
0.0097625591 0.69599998 -0.046372157 1.0979606e-38 328 278
0.01095132 0.69400001 -0.046238903 9.8728988e-39 329 278
0.012168133 0.69400001 -0.046238903 1.0796635e-38 330 278
0.01336566 0.69300002 -0.04617228 1.2917134e-38 331 278
0.014538639 0.69099998 -0.046039023 1.7610813e-38 332 278
0.015750192 0.69099998 -0.046039023 1.8809356e-38 333 278
0.016961746 0.69099998 -0.046039023 1.8164703e-38 334 278
0.0181733 0.69099998 -0.046039023 1.7980672e-38 335 278
0.019384852 0.69099998 -0.046039023 1.8256535e-38 336 278
0.020596405 0.69099998 -0.046039023 1.6965797e-38 337 278
0.021807959 0.69099998 -0.046039023 1.5032569e-38 338 278
0.023019511 0.69099998 -0.046039023 1.4756343e-38 339 278
0.024231065 0.69099998 -0.046039023 1.4573393e-38 340 278
0.02551626 0.69300002 -0.04617228 1.5771937e-38 341 278
0.02673132 0.69300002 -0.04617228 2.1663822e-38 342 278
0.027986705 0.69400001 -0.046238903 2.3509886e-38 343 278
0.029203519 0.69400001 -0.046238903 2.3509886e-38 344 278
0.030420333 0.69400001 -0.046238903 2.1572708e-38 345 278
0.031728316 0.69599998 -0.046372157 1.9175249e-38 346 278
0.03299598 0.69700003 -0.046438783 1.9175249e-38 347 278
0.034218054 0.69700003 -0.046438783 1.8992637e-38 348 278
0.035925802 0.68300003 -0.045506012 1.8713542e-38 350 278
0.037123326 0.68300003 -0.045506012 1.8345118e-38 351 278
0.038320854 0.68300003 -0.045506012 1.6968665e-38 352 278
0.039518382 0.68300003 -0.045506012 1.5770122e-38 353 278
0.040715907 0.68300003 -0.045506012 1.4937487e-38 354 278
0.043426562 0.68800002 -0.045839146 1.2540411e-38 356 278
0.044567976 0.68699998 -0.045772515 1.2908833e-38 357 278
0.045772515 0.68699998 -0.045772515 1.2725884e-38 358 278
0.047045439 0.68800002 -0.045839146 1.2541492e-38 359 278
0.048251733 0.68800002 -0.045839146 1.1714976e-38 360 278
-0.039732285 0.73100001 -0.049985781 1.7665974e-39 289 279
-0.038398001 0.73000002 -0.0499174 1.8591489e-39 290 279
-0.037118066 0.73000002 -0.0499174 1.8591489e-39 291 279
-0.035739943 0.72799999 -0.049780637 2.0435374e-39 292 279
-0.034463517 0.72799999 -0.049780637 2.4123199e-39 293 279
-0.033187091 0.72799999 -0.049780637 3.3328343e-39 294 279
-0.03186683 0.727 -0.049712259 3.7934523e-39 295 279
-0.030508002 0.72500002 -0.0495755 3.8899541e-39 296 279
-0.029156178 0.72299999 -0.049438741 4.1661822e-39 297 279
-0.027772799 0.72000003 -0.0492336 4.0761348e-39 298 279
-0.02647358 0.71899998 -0.049165215 4.4452775e-39 299 279
-0.0251428 0.71700001 -0.04902846 5.1795985e-39 300 279
-0.02388566 0.71700001 -0.04902846 5.2717941e-39 301 279
-0.02262852 0.71700001 -0.04902846 6.2823503e-39 302 279
-0.021341572 0.71600002 -0.048960082 6.374546e-39 303 279
-0.020086186 0.71600002 -0.048960082 6.3749019e-39 304 279
-0.018778199 0.71399999 -0.048823316 6.1901505e-39 305 279
-0.017501773 0.713 -0.048754938 5.732052e-39 306 279
-0.01620606 0.71100003 -0.048618179 5.6394976e-39 307 279
-0.014959441 0.71100003 -0.048618179 5.9153615e-39 308 279
-0.013693533 0.70999998 -0.048549797 6.0075585e-39 309 279
-0.012448666 0.70999998 -0.048549797 6.1930217e-39 310 279
-0.01117224 0.708 -0.048413038 6.1930217e-39 311 279
-0.0099168532 0.70700002 -0.048344657 6.4688856e-39 312 279
-0.008677247 0.70700002 -0.048344657 6.5610812e-39 313 279
-0.0074271196 0.70599997 -0.048276275 6.3777689e-39 314 279
-0.0061892662 0.70599997 -0.048276275 6.469966e-39 315 279
-0.0049373866 0.704 -0.048139516 6.65363e-39 316 279
-0.0037030398 0.704 -0.048139516 6.8383813e-39 317 279
-0.0024651866 0.70300001 -0.048071139 7.8500067e-39 318 279
-0.0012325933 0.70300001 -0.048071139 8.3109835e-39 319 279
0 0.70099998 -0.047934376 7.4822962e-39 320 279
0.0012273333 0.69999999 -0.047865998 7.7592432e-39 321 279
0.0024546667 0.69999999 -0.047865998 8.5861256e-39 322 279
0.0036714801 0.69800001 -0.047729239 8.9552683e-39 323 279
0.0048953067 0.69800001 -0.047729239 9.3215425e-39 324 279
0.006119133 0.69800001 -0.047729239 6.8322605e-39 325 279
0.00733244 0.69700003 -0.047660861 3.1538086e-39 326 279
0.0085545136 0.69700003 -0.047660861 2.6006348e-39 327 279
0.0097625591 0.69599998 -0.047592476 8.6114415e-40 328 279
0.01095132 0.69400001 -0.047455717 2.6128611e-39 329 279
0.012168133 0.69400001 -0.047455717 1.1072871e-38 330 279
0.01336566 0.69300002 -0.047387339 1.383874e-38 331 279
0.014538639 0.69099998 -0.047250576 1.751898e-38 332 279
0.015750192 0.69099998 -0.047250576 1.816435e-38 333 279
0.0169372 0.69 -0.047182199 1.8348732e-38 334 279
0.018146999 0.69 -0.047182199 1.8348732e-38 335 279
0.019356798 0.69 -0.047182199 1.8072139e-38 336 279
0.020566599 0.69 -0.047182199 1.6412977e-38 337 279
0.021776399 0.69 -0.047182199 1.4571951e-38 338 279
0.022986198 0.69 -0.047182199 1.5677939e-38 339 279
0.024195999 0.69 -0.047182199 1.7429663e-38 340 279
0.025405798 0.69 -0.047182199 1.9642357e-38 341 279
0.026654173 0.69099998 -0.047250576 2.341805e-38 342 279
0.027865725 0.69099998 -0.047250576 2.3509886e-38 343 279
0.029161438 0.69300002 -0.047387339 2.3509886e-38 344 279
0.0303765 0.69300002 -0.047387339 2.0651465e-38 345 279
0.031637147 0.69400001 -0.047455717 1.9360356e-38 346 279
0.03299598 0.69700003 -0.047660861 1.9637303e-38 347 279
0.034880809 0.68599999 -0.046908677 1.9914236e-38 349 279
0.035925802 0.68300003 -0.04670354 2.0187956e-38 350 279
0.037123326 0.68300003 -0.04670354 1.8712826e-38 351 279
0.038320854 0.68300003 -0.04670354 1.5952721e-38 352 279
0.039518382 0.68300003 -0.04670354 1.3278689e-38 353 279
0.040715907 0.68300003 -0.04670354 1.2451448e-38 354 279
0.042097531 0.68599999 -0.046908677 1.2451448e-38 355 279
0.043300316 0.68599999 -0.046908677 1.3276897e-38 356 279
0.044567976 0.68699998 -0.046977058 1.3369092e-38 357 279
0.045772515 0.68699998 -0.046977058 1.3093947e-38 358 279
0.046977058 0.68699998 -0.046977058 1.3093947e-38 359 279
0.048251733 0.68800002 -0.047045439 1.2910279e-38 360 279
0.049673684 0.69099998 -0.047250576 1.2818083e-38 361 279
0.051106159 0.69400001 -0.047455717 1.3280857e-38 362 279
-0.035739943 0.72799999 -0.051057063 2.1339379e-39 292 280
-0.034463517 0.72799999 -0.051057063 2.5027191e-39 293 280
-0.033187091 0.72799999 -0.051057063 2.4123227e-39 294 280
-0.03186683 0.727 -0.050986931 2.6889096e-39 295 280
-0.030508002 0.72500002 -0.050846666 2.5992321e-39 296 280
-0.029156178 0.72299999 -0.050706398 3.0602088e-39 297 280
-0.027772799 0.72000003 -0.050496001 3.3378663e-39 298 280
-0.02647358 0.71899998 -0.050425861 3.707009e-39 299 280
-0.0251428 0.71700001 -0.0502856 4.5335256e-39 300 280
-0.02388566 0.71700001 -0.0502856 4.5335256e-39 301 280
-0.022596961 0.71600002 -0.050215468 4.5342445e-39 302 280
-0.021341572 0.71600002 -0.050215468 4.7186358e-39 303 280
-0.020030079 0.71399999 -0.050075196 4.9033815e-39 304 280
-0.018751899 0.713 -0.050005067 4.9033815e-39 305 280
-0.01745268 0.71100003 -0.049864799 4.9037375e-39 306 280
-0.01620606 0.71100003 -0.049864799 4.9959331e-39 307 280
-0.014959441 0.71100003 -0.049864799 4.9959331e-39 308 280
-0.013693533 0.70999998 -0.049794663 5.1799642e-39 309 280
-0.012448666 0.70999998 -0.049794663 4.9055353e-39 310 280
-0.01117224 0.708 -0.049654398 5.0895665e-39 311 280
-0.0099168532 0.70700002 -0.049584266 5.4569042e-39 312 280
-0.0086649731 0.70599997 -0.04951413 5.6412969e-39 313 280
-0.0074060797 0.704 -0.049373865 6.0082774e-39 314 280
-0.0061717331 0.704 -0.049373865 6.100473e-39 315 280
-0.0049373866 0.704 -0.049373865 6.100473e-39 316 280
-0.0036977797 0.70300001 -0.049303733 6.3774186e-39 317 280
-0.0024651866 0.70300001 -0.049303733 7.483748e-39 318 280
-0.0012290865 0.70099998 -0.049163464 8.0369217e-39 319 280
0 0.70099998 -0.049163464 7.3893845e-39 320 280
0.0012273333 0.69999999 -0.049093332 7.2046345e-39 321 280
0.0024476533 0.69800001 -0.048953064 8.9531159e-39 322 280
0.0036714801 0.69800001 -0.048953064 9.0453129e-39 323 280
0.0048882933 0.69700003 -0.048882935 7.941136e-39 324 280
0.0061103669 0.69700003 -0.048882935 5.5436895e-39 325 280
0.0073219193 0.69599998 -0.048812799 2.4191372e-39 326 280
0.0085422397 0.69599998 -0.048812799 1.3131498e-39 327 280
0.0097625591 0.69599998 -0.048812799 8.5969801e-40 328 280
0.01095132 0.69400001 -0.048672531 5.0088615e-39 329 280
0.012150601 0.69300002 -0.048602402 1.3280159e-38 330 280
0.01336566 0.69300002 -0.048602402 1.5584689e-38 331 280
0.014538639 0.69099998 -0.04846213 1.6782851e-38 332 280
0.015727401 0.69 -0.048391998 1.7151274e-38 333 280
0.0169372 0.69 -0.048391998 1.7703726e-38 334 280
0.0180944 0.68800002 -0.048251733 1.7888476e-38 335 280
0.019300694 0.68800002 -0.048251733 1.715198e-38 336 280
0.020506985 0.68800002 -0.048251733 1.6045633e-38 337 280
0.021713281 0.68800002 -0.048251733 1.5951283e-38 338 280
0.022919573 0.68800002 -0.048251733 1.936288e-38 339 280
0.024125867 0.68800002 -0.048251733 2.1483029e-38 340 280
0.02533216 0.68800002 -0.048251733 2.3509886e-38 341 280
0.026499879 0.68699998 -0.048181597 2.3509886e-38 342 280
0.027704418 0.68699998 -0.048181597 2.3509886e-38 343 280
0.028951041 0.68800002 -0.048251733 2.1851791e-38 344 280
0.030157333 0.68800002 -0.048251733 1.8624944e-38 345 280
0.031637147 0.69400001 -0.048672531 1.9177748e-38 346 280
0.034880809 0.68599999 -0.048111461 2.0834042e-38 349 280
0.035978399 0.68400002 -0.0479712 1.9087379e-38 350 280
0.037123326 0.68300003 -0.047901068 1.5953087e-38 351 280
0.038320854 0.68300003 -0.047901068 1.3647847e-38 352 280
0.039518382 0.68300003 -0.047901068 1.2633335e-38 353 280
0.040775519 0.68400002 -0.0479712 1.2450379e-38 354 280
0.042097531 0.68599999 -0.048111461 1.2726607e-38 355 280
0.043300316 0.68599999 -0.048111461 1.2818086e-38 356 280
0.044503104 0.68599999 -0.048111461 1.2818086e-38 357 280
0.045772515 0.68699998 -0.048181597 1.2818086e-38 358 280
0.046977058 0.68699998 -0.048181597 1.2818086e-38 359 280
0.048251733 0.68800002 -0.048251733 1.2911001e-38 360 280
0.049601797 0.69 -0.048391998 1.2911001e-38 361 280
0.051032521 0.69300002 -0.048602402 1.263549e-38 362 280
0.05224758 0.69300002 -0.048602402 1.411062e-38 363 280
-0.03186683 0.727 -0.052261602 2.5949119e-39 295 281
-0.030508002 0.72500002 -0.052117832 3.0555243e-39 296 281
-0.029156178 0.72299999 -0.051974058 3.3321112e-39 297 281
-0.027772799 0.72000003 -0.051758397 3.2420679e-39 298 281
-0.02647358 0.71899998 -0.05168651 3.702686e-39 299 281
-0.0251428 0.71700001 -0.051542737 3.4278941e-39 300 281
-0.02388566 0.71700001 -0.051542737 3.6126455e-39 301 281
-0.022596961 0.71600002 -0.051470853 4.2562157e-39 302 281
-0.021341572 0.71600002 -0.051470853 4.532804e-39 303 281
-0.020030079 0.71399999 -0.05132708 4.8093838e-39 304 281
-0.018751899 0.713 -0.051255193 4.8093838e-39 305 281
-0.01745268 0.71100003 -0.051111419 4.994131e-39 306 281
-0.01620606 0.71100003 -0.051111419 4.994131e-39 307 281
-0.014959441 0.71100003 -0.051111419 4.9941282e-39 308 281
-0.013693533 0.70999998 -0.051039528 5.1788796e-39 309 281
-0.012448666 0.70999998 -0.051039528 5.1795985e-39 310 281
-0.01117224 0.708 -0.050895758 5.2717941e-39 311 281
-0.0099168532 0.70700002 -0.050823875 5.5476551e-39 312 281
-0.0086649731 0.70599997 -0.050751984 5.7320464e-39 313 281
-0.0074060797 0.704 -0.050608214 5.9157146e-39 314 281
-0.0061717331 0.704 -0.050608214 6.0079116e-39 315 281
-0.0049303733 0.70300001 -0.050536323 6.1915798e-39 316 281
-0.0036977797 0.70300001 -0.050536323 6.652558e-39 317 281
-0.0024581731 0.70099998 -0.050392549 8.1247986e-39 318 281
-0.0012290865 0.70099998 -0.050392549 8.770168e-39 319 281
0 0.69999999 -0.050320663 8.2173445e-39 320 281
0.0012273333 0.69999999 -0.050320663 8.1251489e-39 321 281
0.0024476533 0.69800001 -0.050176892 8.5854096e-39 322 281
0.0036714801 0.69800001 -0.050176892 8.4928552e-39 323 281
0.0048882933 0.69700003 -0.050105009 7.6623883e-39 324 281
0.0061015999 0.69599998 -0.050033119 6.4642038e-39 325 281
0.0073219193 0.69599998 -0.050033119 5.4543847e-39 326 281
0.0085176928 0.69400001 -0.049889345 4.0714503e-39 327 281
0.0097345067 0.69400001 -0.049889345 4.6285505e-39 328 281
0.010935539 0.69300002 -0.049817458 9.238332e-39 329 281
0.012115533 0.69099998 -0.049673684 1.4476897e-38 330 281
0.013327086 0.69099998 -0.049673684 1.5952027e-38 331 281
0.014517599 0.69 -0.049601797 1.6137848e-38 332 281
0.015727401 0.69 -0.049601797 1.6137848e-38 333 281
0.016888106 0.68800002 -0.049458027 1.6229322e-38 334 281
0.0180944 0.68800002 -0.049458027 1.6505907e-38 335 281
0.019300694 0.68800002 -0.049458027 1.6047447e-38 336 281
0.020506985 0.68800002 -0.049458027 1.6692817e-38 337 281
0.021681719 0.68699998 -0.049386136 1.9915345e-38 338 281
0.022886258 0.68699998 -0.049386136 2.3509886e-38 339 281
0.024090799 0.68699998 -0.049386136 2.3509886e-38 340 281
0.025258519 0.68599999 -0.049314249 2.3509886e-38 341 281
0.026461305 0.68599999 -0.049314249 2.3509886e-38 342 281
0.027664091 0.68599999 -0.049314249 2.203403e-38 343 281
0.02886688 0.68599999 -0.049314249 1.8165759e-38 344 281
0.030157333 0.68800002 -0.049458027 1.7704783e-38 345 281
0.031363625 0.68800002 -0.049458027 1.9635854e-38 346 281
0.034880809 0.68599999 -0.049314249 2.0373069e-38 349 281
0.035978399 0.68400002 -0.049170479 1.6873245e-38 350 281
0.037177678 0.68400002 -0.049170479 1.3646398e-38 351 281
0.038376961 0.68400002 -0.049170479 1.1805728e-38 352 281
0.03957624 0.68400002 -0.049170479 1.2174512e-38 353 281
0.040775519 0.68400002 -0.049170479 1.2909199e-38 354 281
0.042097531 0.68599999 -0.049314249 1.2909199e-38 355 281
0.043300316 0.68599999 -0.049314249 1.272517e-38 356 281
0.044503104 0.68599999 -0.049314249 1.272517e-38 357 281
0.045772515 0.68699998 -0.049386136 1.2909201e-38 358 281
0.046977058 0.68699998 -0.049386136 1.2909201e-38 359 281
0.048251733 0.68800002 -0.049458027 1.3001398e-38 360 281
0.049601797 0.69 -0.049601797 1.318579e-38 361 281
0.051032521 0.69300002 -0.049817458 1.2818802e-38 362 281
0.05224758 0.69300002 -0.049817458 1.3741117e-38 363 281
0.053694077 0.69599998 -0.050033119 1.6226431e-38 364 281
-0.027772799 0.72000003 -0.053020801 2.4123171e-39 298 282
-0.02647358 0.71899998 -0.05294716 2.7814583e-39 299 282
-0.0251428 0.71700001 -0.052799881 3.4257459e-39 300 282
-0.023852346 0.71600002 -0.052726239 3.4257459e-39 301 282
-0.022596961 0.71600002 -0.052726239 3.3357041e-39 302 282
-0.021281958 0.71399999 -0.052578956 3.6122924e-39 303 282
-0.020030079 0.71399999 -0.052578956 3.9810707e-39 304 282
-0.018751899 0.713 -0.052505318 4.1654634e-39 305 282
-0.01745268 0.71100003 -0.052358042 4.4413244e-39 306 282
-0.01620606 0.71100003 -0.052358042 4.5338788e-39 307 282
-0.014959441 0.71100003 -0.052358042 4.6260688e-39 308 282
-0.013693533 0.70999998 -0.052284397 4.7186231e-39 309 282
-0.012448666 0.70999998 -0.052284397 4.8115376e-39 310 282
-0.011156459 0.70700002 -0.05206348 4.9037347e-39 311 282
-0.0099028256 0.70599997 -0.051989835 4.9959275e-39 312 282
-0.0086404262 0.704 -0.051842559 5.1803174e-39 313 282
-0.0074060797 0.704 -0.051842559 5.363987e-39 314 282
-0.0061717331 0.704 -0.051842559 5.4565413e-39 315 282
-0.0049303733 0.70300001 -0.051768921 5.6398508e-39 316 282
-0.0036977797 0.70300001 -0.051768921 5.8242434e-39 317 282
-0.0024581731 0.70099998 -0.051621638 6.6529139e-39 318 282
-0.0012290865 0.70099998 -0.051621638 7.4823144e-39 319 282
0 0.69999999 -0.051547997 7.5723436e-39 320 282
0.0012273333 0.69999999 -0.051547997 7.6645393e-39 321 282
0.0024476533 0.69800001 -0.051400717 7.9414863e-39 322 282
0.00366622 0.69700003 -0.051327083 7.5723436e-39 323 282
0.0048882933 0.69700003 -0.051327083 6.4678038e-39 324 282
0.0061015999 0.69599998 -0.051253434 6.0986611e-39 325 282
0.0073008798 0.69400001 -0.051106159 5.7302485e-39 326 282
0.0085176928 0.69400001 -0.051106159 4.3473141e-39 327 282
0.0097204801 0.69300002 -0.051032521 6.3737878e-39 328 282
0.010935539 0.69300002 -0.051032521 1.135235e-38 329 282
0.012115533 0.69099998 -0.050885238 1.4754557e-38 330 282
0.013327086 0.69099998 -0.050885238 1.5676872e-38 331 282
0.014517599 0.69 -0.050811596 1.567687e-38 332 282
0.015681813 0.68800002 -0.050664321 1.567687e-38 333 282
0.016888106 0.68800002 -0.050664321 1.6044213e-38 334 282
0.0180944 0.68800002 -0.050664321 1.6320441e-38 335 282
0.019300694 0.68800002 -0.050664321 1.5862706e-38 336 282
0.020477179 0.68699998 -0.050590675 1.6876859e-38 337 282
0.021681719 0.68699998 -0.050590675 1.8907685e-38 338 282
0.022886258 0.68699998 -0.050590675 2.2040518e-38 339 282
0.024055731 0.68599999 -0.050517038 2.3509886e-38 340 282
0.025184879 0.68400002 -0.050369758 2.3509886e-38 341 282
0.02638416 0.68400002 -0.050369758 2.3509886e-38 342 282
0.027583439 0.68400002 -0.050369758 2.2957062e-38 343 282
0.02878272 0.68400002 -0.050369758 2.1389734e-38 344 282
0.029982001 0.68400002 -0.050369758 2.1574484e-38 345 282
0.03118128 0.68400002 -0.050369758 2.2492487e-38 346 282
0.034880809 0.68599999 -0.050517038 1.8896867e-38 349 282
0.035978399 0.68400002 -0.050369758 1.4109541e-38 350 282
0.037177678 0.68400002 -0.050369758 1.2450379e-38 351 282
0.038376961 0.68400002 -0.050369758 1.2265631e-38 352 282
0.03957624 0.68400002 -0.050369758 1.2542218e-38 353 282
0.040775519 0.68400002 -0.050369758 1.2633335e-38 354 282
0.042097531 0.68599999 -0.050517038 1.2541139e-38 355 282
0.043300316 0.68599999 -0.050517038 1.2450023e-38 356 282
0.044567976 0.68699998 -0.050590675 1.2450023e-38 357 282
0.045772515 0.68699998 -0.050590675 1.2633338e-38 358 282
0.046977058 0.68699998 -0.050590675 1.2725533e-38 359 282
0.048251733 0.68800002 -0.050664321 1.2726254e-38 360 282
0.049601797 0.69 -0.050811596 1.2726254e-38 361 282
0.051032521 0.69300002 -0.051032521 1.2726607e-38 362 282
0.052322973 0.69400001 -0.051106159 1.3464172e-38 363 282
0.053694077 0.69599998 -0.051253434 1.5490664e-38 364 282
0.0550722 0.69800001 -0.051400717 1.6320424e-38 365 282
-0.02647358 0.71899998 -0.054207806 2.6878152e-39 299 283
-0.0251428 0.71700001 -0.054057021 2.9633259e-39 300 283
-0.023852346 0.71600002 -0.053981625 3.3321084e-39 301 283
-0.022596961 0.71600002 -0.053981625 3.6086925e-39 302 283
-0.021281958 0.71399999 -0.053830836 3.7934425e-39 303 283
-0.020030079 0.71399999 -0.053830836 3.886357e-39 304 283
-0.018751899 0.713 -0.053755447 4.1629452e-39 305 283
-0.01745268 0.71100003 -0.053604662 4.1650962e-39 306 283
-0.01620606 0.71100003 -0.053604662 4.3491288e-39 307 283
-0.014959441 0.71100003 -0.053604662 4.3505637e-39 308 283
-0.013693533 0.70999998 -0.053529263 4.3505637e-39 309 283
-0.012448666 0.70999998 -0.053529263 4.6267877e-39 310 283
-0.011156459 0.70700002 -0.053303085 4.719342e-39 311 283
-0.0099028256 0.70599997 -0.053227689 4.9948471e-39 312 283
-0.0086404262 0.704 -0.053076904 5.1795985e-39 313 283
-0.0074060797 0.704 -0.053076904 5.1795957e-39 314 283
-0.0061717331 0.704 -0.053076904 5.2717913e-39 315 283
-0.0049303733 0.70300001 -0.053001512 5.3643429e-39 316 283
-0.0036977797 0.70300001 -0.053001512 5.4565385e-39 317 283
-0.0024581731 0.70099998 -0.052850723 5.7320464e-39 318 283
-0.0012290865 0.70099998 -0.052850723 5.8242434e-39 319 283
0 0.69999999 -0.052775331 6.9262708e-39 320 283
0.0012238267 0.69800001 -0.052624546 7.1110208e-39 321 283
0.0024476533 0.69800001 -0.052624546 7.0206216e-39 322 283
0.00366622 0.69700003 -0.052549154 6.651479e-39 323 283
0.0048882933 0.69700003 -0.052549154 6.2827006e-39 324 283
0.0061015999 0.69599998 -0.052473757 6.098308e-39 325 283
0.0073008798 0.69400001 -0.052322973 5.4551036e-39 326 283
0.0085176928 0.69400001 -0.052322973 4.7175385e-39 327 283
0.0097204801 0.69300002 -0.05224758 7.9400346e-39 328 283
0.010935539 0.69300002 -0.05224758 1.1904447e-38 329 283
0.012115533 0.69099998 -0.052096792 1.4846037e-38 330 283
0.0133078 0.69 -0.052021399 1.5307014e-38 331 283
0.014517599 0.69 -0.052021399 1.5215896e-38 332 283
0.015681813 0.68800002 -0.051870614 1.5492122e-38 333 283
0.016888106 0.68800002 -0.051870614 1.5583955e-38 334 283
0.018068098 0.68699998 -0.051795214 1.5767986e-38 335 283
0.019272638 0.68699998 -0.051795214 1.5769065e-38 336 283
0.020447372 0.68599999 -0.051719822 1.6506989e-38 337 283
0.021650158 0.68599999 -0.051719822 1.7336767e-38 338 283
0.022852944 0.68599999 -0.051719822 1.835056e-38 339 283
0.024055731 0.68599999 -0.051719822 2.0099754e-38 340 283
0.025184879 0.68400002 -0.051569041 2.1851824e-38 341 283
0.026345588 0.68300003 -0.051493648 2.3509886e-38 342 283
0.027543113 0.68300003 -0.051493648 2.3509886e-38 343 283
0.028740639 0.68300003 -0.051493648 2.3509886e-38 344 283
0.029894331 0.68199998 -0.051418249 2.3509886e-38 345 283
0.030998932 0.68000001 -0.051267464 2.3509886e-38 346 283
0.032191198 0.68000001 -0.051267464 2.3139305e-38 347 283
0.033334374 0.67900002 -0.051192071 1.9449685e-38 348 283
0.034524884 0.67900002 -0.051192071 1.6683816e-38 349 283
0.035925802 0.68300003 -0.051493648 1.2082316e-38 350 283
0.037123326 0.68300003 -0.051493648 1.1897925e-38 351 283
0.038376961 0.68400002 -0.051569041 1.2633338e-38 352 283
0.03957624 0.68400002 -0.051569041 1.2633338e-38 353 283
0.040775519 0.68400002 -0.051569041 1.2541142e-38 354 283
0.042097531 0.68599999 -0.051719822 1.2541142e-38 355 283
0.043300316 0.68599999 -0.051719822 1.2541139e-38 356 283
0.044567976 0.68699998 -0.051795214 1.2633335e-38 357 283
0.045772515 0.68699998 -0.051795214 1.2633335e-38 358 283
0.046977058 0.68699998 -0.051795214 1.2725889e-38 359 283
0.048251733 0.68800002 -0.051870614 1.2542221e-38 360 283
0.049673684 0.69099998 -0.052096792 1.2726254e-38 361 283
0.051032521 0.69300002 -0.05224758 1.2818086e-38 362 283
0.052322973 0.69400001 -0.052322973 1.3371259e-38 363 283
0.053771228 0.69700003 -0.052549154 1.4937856e-38 364 283
0.0550722 0.69800001 -0.052624546 1.5952368e-38 365 283
0.056296028 0.69800001 -0.052624546 1.7054391e-38 366 283
-0.0251428 0.71700001 -0.055314157 4.3422918e-39 300 284
-0.02388566 0.71700001 -0.055314157 3.4206943e-39 301 284
-0.022596961 0.71600002 -0.055237014 2.0438905e-39 302 284
-0.021341572 0.71600002 -0.055237014 2.412673e-39 303 284
-0.020030079 0.71399999 -0.05508272 2.5970643e-39 304 284
-0.018751899 0.713 -0.055005573 3.0580424e-39 305 284
-0.01745268 0.71100003 -0.054851279 3.8874374e-39 306 284
-0.01620606 0.71100003 -0.054851279 4.1636641e-39 307 284
-0.014959441 0.71100003 -0.054851279 4.4409601e-39 308 284
-0.013693533 0.70999998 -0.054774132 4.4409601e-39 309 284
-0.012448666 0.70999998 -0.054774132 4.5342291e-39 310 284
-0.011156459 0.70700002 -0.054542694 4.6264247e-39 311 284
-0.0099028256 0.70599997 -0.054465543 4.8111719e-39 312 284
-0.0086404262 0.704 -0.054311249 4.995203e-39 313 284
-0.0074060797 0.704 -0.054311249 5.178874e-39 314 284
-0.0061717331 0.704 -0.054311249 5.3632639e-39 315 284
-0.0049303733 0.70300001 -0.054234106 5.2721473e-39 316 284
-0.0036977797 0.70300001 -0.054234106 5.2721473e-39 317 284
-0.0024581731 0.70099998 -0.054079808 5.5476551e-39 318 284
-0.0012273333 0.69999999 -0.054002665 5.5476551e-39 319 284
0 0.69999999 -0.054002665 6.1905064e-39 320 284
0.0012238267 0.69800001 -0.053848371 6.1905064e-39 321 284
0.0024441467 0.69700003 -0.053771228 6.5574925e-39 322 284
0.00366622 0.69700003 -0.053771228 6.4652954e-39 323 284
0.0048812795 0.69599998 -0.053694077 5.9149985e-39 324 284
0.0060840664 0.69400001 -0.053539783 5.7302485e-39 325 284
0.0073008798 0.69400001 -0.053539783 4.8118852e-39 326 284
0.0085176928 0.69400001 -0.053539783 4.9966366e-39 327 284
0.0097204801 0.69300002 -0.053462639 9.4137227e-39 328 284
0.010935539 0.69300002 -0.053462639 1.2732765e-38 329 284
0.012115533 0.69099998 -0.053308345 1.4570892e-38 330 284
0.0133078 0.69 -0.053231198 1.4663446e-38 331 284
0.014475521 0.68800002 -0.053076908 1.4940026e-38 332 284
0.015681813 0.68800002 -0.053076908 1.5032222e-38 333 284
0.01686356 0.68699998 -0.052999757 1.5399564e-38 334 284
0.018041799 0.68599999 -0.05292261 1.5491759e-38 335 284
0.019244585 0.68599999 -0.05292261 1.5491757e-38 336 284
0.020447372 0.68599999 -0.05292261 1.5583952e-38 337 284
0.02158704 0.68400002 -0.05276832 1.5399927e-38 338 284
0.022786319 0.68400002 -0.05276832 1.5492122e-38 339 284
0.0239856 0.68400002 -0.05276832 1.549357e-38 340 284
0.02514806 0.68300003 -0.052691177 1.6046744e-38 341 284
0.026345588 0.68300003 -0.052691177 1.8360622e-38 342 284
0.027543113 0.68300003 -0.052691177 2.1856847e-38 343 284
0.02869856 0.68199998 -0.052614026 2.3509886e-38 344 284
0.029806666 0.68000001 -0.052459732 2.3509886e-38 345 284
0.030953348 0.67900002 -0.052382588 2.3230425e-38 346 284
0.032143861 0.67900002 -0.052382588 2.0464916e-38 347 284
0.033334374 0.67900002 -0.052382588 1.5307361e-38 348 284
0.034524884 0.67900002 -0.052382588 1.36482e-38 349 284
0.035715401 0.67900002 -0.052382588 1.153058e-38 350 284
0.037068974 0.68199998 -0.052614026 1.1715332e-38 351 284
0.038320854 0.68300003 -0.052691177 1.2450023e-38 352 284
0.039518382 0.68300003 -0.052691177 1.2450023e-38 353 284
0.040775519 0.68400002 -0.05276832 1.2358546e-38 354 284
0.042097531 0.68599999 -0.05292261 1.2358546e-38 355 284
0.043363437 0.68699998 -0.052999757 1.2541139e-38 356 284
0.044567976 0.68699998 -0.052999757 1.2633335e-38 357 284
0.045839146 0.68800002 -0.053076908 1.2633335e-38 358 284
0.047045439 0.68800002 -0.053076908 1.2633335e-38 359 284
0.048391998 0.69 -0.053231198 1.2542218e-38 360 284
0.049817458 0.69300002 -0.053462639 1.2726609e-38 361 284
0.051106159 0.69400001 -0.053539783 1.2818086e-38 362 284
0.052322973 0.69400001 -0.053539783 1.3371259e-38 363 284
0.053771228 0.69700003 -0.053771228 1.4844938e-38 364 284
0.054993302 0.69700003 -0.053771228 1.6043482e-38 365 284
0.056215372 0.69700003 -0.053771228 1.7146226e-38 366 284
-0.02388566 0.71700001 -0.056571297 7.1934844e-39 301 285
-0.02262852 0.71700001 -0.056571297 3.6097519e-39 302 285
-0.021341572 0.71600002 -0.056492399 3.2409693e-39 303 285
-0.020030079 0.71399999 -0.0563346 3.4228593e-39 304 285
-0.018778199 0.71399999 -0.0563346 3.6076093e-39 305 285
-0.017501773 0.713 -0.056255698 3.9767519e-39 306 285
-0.01620606 0.71100003 -0.056097899 4.3458946e-39 307 285
-0.014959441 0.71100003 -0.056097899 4.4395251e-39 308 285
-0.013693533 0.70999998 -0.056018997 4.5317208e-39 309 285
-0.012448666 0.70999998 -0.056018997 4.4416775e-39 310 285
-0.011156459 0.70700002 -0.055782299 4.5338732e-39 311 285
-0.0099028256 0.70599997 -0.055703394 4.534948e-39 312 285
-0.0086404262 0.704 -0.055545598 4.7193392e-39 313 285
-0.0074060797 0.704 -0.055545598 4.995203e-39 314 285
-0.0061717331 0.704 -0.055545598 4.995203e-39 315 285
-0.0049303733 0.70300001 -0.0554667 5.1788768e-39 316 285
-0.0036977797 0.70300001 -0.0554667 5.1788768e-39 317 285
-0.0024581731 0.70099998 -0.055308893 5.362908e-39 318 285
-0.0012273333 0.69999999 -0.055229999 5.4551036e-39 319 285
0 0.69800001 -0.0550722 5.5469391e-39 320 285
0.0012238267 0.69800001 -0.0550722 5.5469391e-39 321 285
0.0024441467 0.69700003 -0.054993302 5.6391319e-39 322 285
0.00366622 0.69700003 -0.054993302 5.6391319e-39 323 285
0.0048812795 0.69599998 -0.054914396 5.5469391e-39 324 285
0.0060840664 0.69400001 -0.054756597 5.4543847e-39 325 285
0.0073008798 0.69400001 -0.054756597 4.7196895e-39 326 285
0.0085054198 0.69300002 -0.054677699 6.102624e-39 327 285
0.0097204801 0.69300002 -0.054677699 9.9683384e-39 328 285
0.01090398 0.69099998 -0.054519895 1.245762e-38 329 285
0.012115533 0.69099998 -0.054519895 1.4203557e-38 330 285
0.0133078 0.69 -0.054440998 1.4203557e-38 331 285
0.014475521 0.68800002 -0.054283202 1.4296106e-38 332 285
0.015659019 0.68699998 -0.054204296 1.4388301e-38 333 285
0.01686356 0.68699998 -0.054204296 1.4755642e-38 334 285
0.018041799 0.68599999 -0.054125395 1.4939673e-38 335 285
0.019244585 0.68599999 -0.054125395 1.5123696e-38 336 285
0.020387759 0.68400002 -0.053967599 1.5123696e-38 337 285
0.02158704 0.68400002 -0.053967599 1.4939305e-38 338 285
0.022753006 0.68300003 -0.053888701 1.4754913e-38 339 285
0.023950534 0.68300003 -0.053888701 1.4110991e-38 340 285
0.025111238 0.68199998 -0.053809796 1.3465622e-38 341 285
0.026307013 0.68199998 -0.053809796 1.319876e-38 342 285
0.027502786 0.68199998 -0.053809796 1.6425607e-38 343 285
0.028614398 0.68000001 -0.053652 2.2221295e-38 344 285
0.029762832 0.67900002 -0.053573098 2.3509886e-38 345 285
0.030953348 0.67900002 -0.053573098 2.0650354e-38 346 285
0.03209652 0.67799997 -0.053494196 1.7147279e-38 347 285
0.033285279 0.67799997 -0.053494196 1.30979e-38 348 285
0.034474038 0.67799997 -0.053494196 1.226778e-38 349 285
0.035715401 0.67900002 -0.053573098 1.1990121e-38 350 285
0.036960267 0.68000001 -0.053652 1.2358543e-38 351 285
0.038264744 0.68199998 -0.053809796 1.2450023e-38 352 285
0.039460517 0.68199998 -0.053809796 1.2357827e-38 353 285
0.040775519 0.68400002 -0.053967599 1.2174515e-38 354 285
0.042097531 0.68599999 -0.054125395 1.2174515e-38 355 285
0.043363437 0.68699998 -0.054204296 1.2174517e-38 356 285
0.044567976 0.68699998 -0.054204296 1.2174517e-38 357 285
0.045839146 0.68800002 -0.054283202 1.2450025e-38 358 285
0.047045439 0.68800002 -0.054283202 1.2450025e-38 359 285
0.04846213 0.69099998 -0.054519895 1.2542221e-38 360 285
0.049817458 0.69300002 -0.054677699 1.2726254e-38 361 285
0.051106159 0.69400001 -0.054756597 1.2635493e-38 362 285
0.052322973 0.69400001 -0.054756597 1.3188308e-38 363 285
0.053694077 0.69599998 -0.054914396 1.4844219e-38 364 285
0.054993302 0.69700003 -0.054993302 1.6319348e-38 365 285
0.056215372 0.69700003 -0.054993302 1.7054747e-38 366 285
-0.020030079 0.71399999 -0.057586476 9.5945196e-39 304 286
-0.018778199 0.71399999 -0.057586476 8.1190308e-39 305 286
-0.017501773 0.713 -0.057505824 4.8954488e-39 306 286
-0.01620606 0.71100003 -0.057344519 4.1578838e-39 307 286
-0.014959441 0.71100003 -0.057344519 3.1527422e-39 308 286
-0.01371282 0.71100003 -0.057344519 3.2449378e-39 309 286
-0.012448666 0.70999998 -0.057263866 4.2558471e-39 310 286
-0.011156459 0.70700002 -0.057021905 4.6242695e-39 311 286
-0.0099028256 0.70599997 -0.056941248 4.8090153e-39 312 286
-0.0086649731 0.70599997 -0.056941248 4.9015697e-39 313 286
-0.0074060797 0.704 -0.056779943 5.1770748e-39 314 286
-0.0061717331 0.704 -0.056779943 5.2696291e-39 315 286
-0.0049303733 0.70300001 -0.056699295 5.3618247e-39 316 286
-0.0036977797 0.70300001 -0.056699295 5.5458573e-39 317 286
-0.0024581731 0.70099998 -0.056537982 5.3625422e-39 318 286
-0.0012273333 0.69999999 -0.056457333 5.5469335e-39 319 286
0 0.69800001 -0.056296028 5.5472894e-39 320 286
0.0012238267 0.69800001 -0.056296028 5.639485e-39 321 286
0.0024441467 0.69700003 -0.056215372 5.5476523e-39 322 286
0.0036609597 0.69599998 -0.056134716 5.5476523e-39 323 286
0.0048672534 0.69400001 -0.055973411 5.4554567e-39 324 286
0.0060840664 0.69400001 -0.055973411 5.3632611e-39 325 286
0.0073008798 0.69400001 -0.055973411 4.6271254e-39 326 286
0.0085054198 0.69300002 -0.055892758 7.0242103e-39 327 286
0.0097204801 0.69300002 -0.055892758 1.015236e-38 328 286
0.01090398 0.69099998 -0.055731449 1.2272859e-38 329 286
0.012115533 0.69099998 -0.055731449 1.3742579e-38 330 286
0.0133078 0.69 -0.055650797 1.392697e-38 331 286
0.014475521 0.68800002 -0.055489492 1.4477979e-38 332 286
0.015659019 0.68699998 -0.055408835 1.4570176e-38 333 286
0.016839013 0.68599999 -0.055328183 1.493751e-38 334 286
0.0179892 0.68400002 -0.055166878 1.5029705e-38 335 286
0.01918848 0.68400002 -0.055166878 1.5121898e-38 336 286
0.020387759 0.68400002 -0.055166878 1.5121898e-38 337 286
0.02158704 0.68400002 -0.055166878 1.521445e-38 338 286
0.022753006 0.68300003 -0.055086225 1.521445e-38 339 286
0.023950534 0.68300003 -0.055086225 1.4938586e-38 340 286
0.025111238 0.68199998 -0.055005573 1.4477247e-38 341 286
0.026307013 0.68199998 -0.055005573 1.3833327e-38 342 286
0.027422134 0.68000001 -0.054844268 1.3464903e-38 343 286
0.028572321 0.67900002 -0.054763615 1.3925879e-38 344 286
0.029718997 0.67799997 -0.054682959 1.4755639e-38 345 286
0.030907756 0.67799997 -0.054682959 1.4939302e-38 346 286
0.03209652 0.67799997 -0.054682959 1.4478682e-38 347 286
0.033285279 0.67799997 -0.054682959 1.2358543e-38 348 286
0.034474038 0.67799997 -0.054682959 1.1990121e-38 349 286
0.0356628 0.67799997 -0.054682959 1.2357464e-38 350 286
0.036905911 0.67900002 -0.054763615 1.2633691e-38 351 286
0.038264744 0.68199998 -0.055005573 1.2357827e-38 352 286
0.039460517 0.68199998 -0.055005573 1.2357827e-38 353 286
0.040715907 0.68300003 -0.055086225 1.2265631e-38 354 286
0.042097531 0.68599999 -0.055328183 1.2265631e-38 355 286
0.043363437 0.68699998 -0.055408835 1.2264912e-38 356 286
0.044567976 0.68699998 -0.055408835 1.2541139e-38 357 286
0.045839146 0.68800002 -0.055489492 1.2450023e-38 358 286
0.047182199 0.69 -0.055650797 1.2542218e-38 359 286
0.048602402 0.69300002 -0.055892758 1.2542218e-38 360 286
0.049889345 0.69400001 -0.055973411 1.2726609e-38 361 286
0.051106159 0.69400001 -0.055973411 1.2910279e-38 362 286
0.052473757 0.69599998 -0.056134716 1.3463453e-38 363 286
0.053694077 0.69599998 -0.056134716 1.5028607e-38 364 286
0.054993302 0.69700003 -0.056215372 1.6411541e-38 365 286
0.056215372 0.69700003 -0.056215372 1.6963627e-38 366 286
-0.014959441 0.71100003 -0.058591139 5.7262829e-39 308 287
-0.01371282 0.71100003 -0.058591139 5.0809135e-39 309 287
-0.012448666 0.70999998 -0.058508728 4.4384377e-39 310 287
-0.011203799 0.70999998 -0.058508728 4.4384377e-39 311 287
-0.0099028256 0.70599997 -0.058179103 5.0820079e-39 312 287
-0.0086649731 0.70599997 -0.058179103 5.2667593e-39 313 287
-0.0074060797 0.704 -0.058014292 4.7168225e-39 314 287
-0.0061717331 0.704 -0.058014292 4.9934094e-39 315 287
-0.0049303733 0.70300001 -0.057931885 4.9941282e-39 316 287
-0.0036977797 0.70300001 -0.057931885 5.0866826e-39 317 287
-0.0024581731 0.70099998 -0.057767071 5.1788768e-39 318 287
-0.0012273333 0.69999999 -0.05768466 5.1788768e-39 319 287
0 0.69999999 -0.05768466 5.3632639e-39 320 287
0.0012238267 0.69800001 -0.057519849 5.3632639e-39 321 287
0.0024441467 0.69700003 -0.05743745 5.5476523e-39 322 287
0.0036609597 0.69599998 -0.057355035 5.5476523e-39 323 287
0.0048672534 0.69400001 -0.057190225 5.5476523e-39 324 287
0.0060840664 0.69400001 -0.057190225 5.4554567e-39 325 287
0.0072903596 0.69300002 -0.057107817 4.4466872e-39 326 287
0.0085054198 0.69300002 -0.057107817 6.5668265e-39 327 287
0.0097204801 0.69300002 -0.057107817 1.0151638e-38 328 287
0.01090398 0.69099998 -0.056942999 1.1903355e-38 329 287
0.012115533 0.69099998 -0.056942999 1.3190124e-38 330 287
0.0133078 0.69 -0.0568606 1.3467071e-38 331 287
0.014475521 0.68800002 -0.056695789 1.4018087e-38 332 287
0.015659019 0.68699998 -0.056613375 1.4018087e-38 333 287
0.016839013 0.68599999 -0.056530971 1.4018443e-38 334 287
0.0179892 0.68400002 -0.056366164 1.4110638e-38 335 287
0.01918848 0.68400002 -0.056366164 1.4386499e-38 336 287
0.020357953 0.68300003 -0.056283753 1.4478696e-38 337 287
0.02155548 0.68300003 -0.056283753 1.4387936e-38 338 287
0.022753006 0.68300003 -0.056283753 1.4387936e-38 339 287
0.023950534 0.68300003 -0.056283753 1.4847112e-38 340 287
0.025111238 0.68199998 -0.056201346 1.4754557e-38 341 287
0.026229866 0.68000001 -0.056036532 1.4478682e-38 342 287
0.027381808 0.67900002 -0.055954125 1.4293932e-38 343 287
0.028572321 0.67900002 -0.055954125 1.4016625e-38 344 287
0.029718997 0.67799997 -0.055871718 1.4108822e-38 345 287
0.030907756 0.67799997 -0.055871718 1.4569443e-38 346 287
0.03209652 0.67799997 -0.055871718 1.4477247e-38 347 287
0.033285279 0.67799997 -0.055871718 1.2174517e-38 348 287
0.034474038 0.67799997 -0.055871718 1.2081963e-38 349 287
0.0356628 0.67799997 -0.055871718 1.2541139e-38 350 287
0.036905911 0.67900002 -0.055954125 1.2541139e-38 351 287
0.038264744 0.68199998 -0.056201346 1.2541139e-38 352 287
0.039460517 0.68199998 -0.056201346 1.2357108e-38 353 287
0.040715907 0.68300003 -0.056283753 1.2264915e-38 354 287
0.042097531 0.68599999 -0.056530971 1.2172361e-38 355 287
0.043363437 0.68699998 -0.056613375 1.1897575e-38 356 287
0.044567976 0.68699998 -0.056613375 1.2081966e-38 357 287
0.045972396 0.69 -0.0568606 1.2174517e-38 358 287
0.047250576 0.69099998 -0.056942999 1.2358549e-38 359 287
0.048602402 0.69300002 -0.057107817 1.2725533e-38 360 287
0.049889345 0.69400001 -0.057190225 1.2725533e-38 361 287
0.051253434 0.69599998 -0.057355035 1.2726609e-38 362 287
0.052473757 0.69599998 -0.057355035 1.3371979e-38 363 287
0.053694077 0.69599998 -0.057355035 1.493749e-38 364 287
0.054993302 0.69700003 -0.05743745 1.6136033e-38 365 287
0.056296028 0.69800001 -0.057519849 1.7054744e-38 366 287
-0.0099168532 0.70700002 -0.059501119 4.6224562e-39 312 288
-0.0086649731 0.70599997 -0.059416957 4.7146519e-39 313 288
-0.0074271196 0.70599997 -0.059416957 4.2558443e-39 314 288
-0.0061717331 0.704 -0.059248637 4.7168225e-39 315 288
-0.0049373866 0.704 -0.059248637 5.1770776e-39 316 288
-0.0036977797 0.70300001 -0.059164476 5.2692732e-39 317 288
-0.0024651866 0.70300001 -0.059164476 5.270348e-39 318 288
-0.0012290865 0.70099998 -0.058996156 5.362545e-39 319 288
0 0.69999999 -0.058911994 5.4547406e-39 320 288
0.0012238267 0.69800001 -0.058743682 5.4547406e-39 321 288
0.0024441467 0.69700003 -0.05865952 5.5469363e-39 322 288
0.0036609597 0.69599998 -0.058575355 5.6391319e-39 323 288
0.0048672534 0.69400001 -0.058407038 5.6402067e-39 324 288
0.0060840664 0.69400001 -0.058407038 5.5476523e-39 325 288
0.0072903596 0.69300002 -0.058322877 5.2703298e-39 326 288
0.0085054198 0.69300002 -0.058322877 7.7596118e-39 327 288
0.0097204801 0.69300002 -0.058322877 1.033495e-38 328 288
0.01090398 0.69099998 -0.058154557 1.1810439e-38 329 288
0.012115533 0.69099998 -0.058154557 1.2913541e-38 330 288
0.0133078 0.69 -0.058070395 1.3190127e-38 331 288
0.014475521 0.68800002 -0.057902083 1.3924453e-38 332 288
0.015659019 0.68699998 -0.057817914 1.4108485e-38 333 288
0.016839013 0.68599999 -0.057733759 1.420067e-38 334 288
0.0179892 0.68400002 -0.057565439 1.4292866e-38 335 288
0.01918848 0.68400002 -0.057565439 1.4293938e-38 336 288
0.020357953 0.68300003 -0.057481278 1.4293938e-38 337 288
0.02155548 0.68300003 -0.057481278 1.4477247e-38 338 288
0.022753006 0.68300003 -0.057481278 1.4569443e-38 339 288
0.023950534 0.68300003 -0.057481278 1.4386131e-38 340 288
0.025111238 0.68199998 -0.05739712 1.4478326e-38 341 288
0.026229866 0.68000001 -0.057228796 1.4661641e-38 342 288
0.027381808 0.67900002 -0.057144642 1.4661641e-38 343 288
0.028530238 0.67799997 -0.057060476 1.4754194e-38 344 288
0.029718997 0.67799997 -0.057060476 1.4661997e-38 345 288
0.030907756 0.67799997 -0.057060476 1.4201021e-38 346 288
0.03209652 0.67799997 -0.057060476 1.3647847e-38 347 288
0.033285279 0.67799997 -0.057060476 1.2633338e-38 348 288
0.034474038 0.67799997 -0.057060476 1.2633338e-38 349 288
0.0356628 0.67799997 -0.057060476 1.2541142e-38 350 288
0.036905911 0.67900002 -0.057144642 1.2541142e-38 351 288
0.038264744 0.68199998 -0.05739712 1.2265634e-38 352 288
0.039460517 0.68199998 -0.05739712 1.217308e-38 353 288
0.040775519 0.68400002 -0.057565439 1.2080884e-38 354 288
0.042097531 0.68599999 -0.057733759 1.2080884e-38 355 288
0.043363437 0.68699998 -0.057817914 1.2080164e-38 356 288
0.044567976 0.68699998 -0.057817914 1.2264915e-38 357 288
0.045972396 0.69 -0.058070395 1.2357827e-38 358 288
0.047387339 0.69300002 -0.058322877 1.2542218e-38 359 288
0.048602402 0.69300002 -0.058322877 1.2725533e-38 360 288
0.049889345 0.69400001 -0.058407038 1.281773e-38 361 288
0.051253434 0.69599998 -0.058575355 1.2725889e-38 362 288
0.052473757 0.69599998 -0.058575355 1.3463456e-38 363 288
0.053694077 0.69599998 -0.058575355 1.5029688e-38 364 288
0.054993302 0.69700003 -0.05865952 1.6135677e-38 365 288
0.056296028 0.69800001 -0.058743682 1.7054744e-38 366 288
-0.008677247 0.70700002 -0.060740728 8.303778e-39 313 289
-0.0074271196 0.70599997 -0.060654808 7.107774e-39 314 289
-0.0061892662 0.70599997 -0.060654808 6.7389929e-39 315 289
-0.0049373866 0.704 -0.060482983 5.5433363e-39 316 289
-0.0037030398 0.704 -0.060482983 5.4511407e-39 317 289
-0.0024651866 0.70300001 -0.06039707 4.8097342e-39 318 289
-0.0012325933 0.70300001 -0.06039707 4.9022885e-39 319 289
0 0.69999999 -0.060139328 4.9944842e-39 320 289
0.0012238267 0.69800001 -0.059967503 5.1788768e-39 321 289
0.0024476533 0.69800001 -0.059967503 5.5469363e-39 322 289
0.0036609597 0.69599998 -0.059795678 5.6391319e-39 323 289
0.0048672534 0.69400001 -0.059623852 5.6391319e-39 324 289
0.0060840664 0.69400001 -0.059623852 5.6391319e-39 325 289
0.0072903596 0.69300002 -0.05953794 5.4554441e-39 326 289
0.0085054198 0.69300002 -0.05953794 7.9447247e-39 327 289
0.0097204801 0.69300002 -0.05953794 1.0794845e-38 328 289
0.010935539 0.69300002 -0.05953794 1.2085225e-38 329 289
0.012115533 0.69099998 -0.059366114 1.2913897e-38 330 289
0.0133078 0.69 -0.059280202 1.3190124e-38 331 289
0.014475521 0.68800002 -0.059108373 1.374078e-38 332 289
0.015659019 0.68699998 -0.059022456 1.3832977e-38 333 289
0.016839013 0.68599999 -0.058936544 1.3925523e-38 334 289
0.0179892 0.68400002 -0.058764715 1.3925523e-38 335 289
0.01918848 0.68400002 -0.058764715 1.4018074e-38 336 289
0.020357953 0.68300003 -0.05867881 1.4018074e-38 337 289
0.02155548 0.68300003 -0.05867881 1.4018071e-38 338 289
0.022753006 0.68300003 -0.05867881 1.4110626e-38 339 289
0.023915464 0.68199998 -0.058592889 1.4110626e-38 340 289
0.025111238 0.68199998 -0.058592889 1.4110626e-38 341 289
0.026229866 0.68000001 -0.058421064 1.411027e-38 342 289
0.027381808 0.67900002 -0.058335152 1.4294301e-38 343 289
0.028530238 0.67799997 -0.058249239 1.4386852e-38 344 289
0.029718997 0.67799997 -0.058249239 1.4386852e-38 345 289
0.030907756 0.67799997 -0.058249239 1.3649287e-38 346 289
0.03209652 0.67799997 -0.058249239 1.3003918e-38 347 289
0.033285279 0.67799997 -0.058249239 1.2174517e-38 348 289
0.034474038 0.67799997 -0.058249239 1.2174517e-38 349 289
0.035715401 0.67900002 -0.058335152 1.2174515e-38 350 289
0.036960267 0.68000001 -0.058421064 1.2174515e-38 351 289
0.038264744 0.68199998 -0.058592889 1.2082319e-38 352 289
0.039518382 0.68300003 -0.05867881 1.1990123e-38 353 289
0.040775519 0.68400002 -0.058764715 1.2080884e-38 354 289
0.042097531 0.68599999 -0.058936544 1.1896852e-38 355 289
0.043426562 0.68800002 -0.059108373 1.1805375e-38 356 289
0.044632856 0.68800002 -0.059108373 1.1989767e-38 357 289
0.045972396 0.69 -0.059280202 1.2174517e-38 358 289
0.047387339 0.69300002 -0.05953794 1.2358549e-38 359 289
0.048672531 0.69400001 -0.059623852 1.2450744e-38 360 289
0.049889345 0.69400001 -0.059623852 1.2542941e-38 361 289
0.051253434 0.69599998 -0.059795678 1.2358546e-38 362 289
0.052549154 0.69700003 -0.05988159 1.3280862e-38 363 289
0.053771228 0.69700003 -0.05988159 1.5489589e-38 364 289
0.054993302 0.69700003 -0.05988159 1.6503739e-38 365 289
0.056457333 0.69999999 -0.060139328 1.696363e-38 366 289
-0.0037030398 0.704 -0.061717331 7.2910708e-39 317 290
-0.0024686933 0.704 -0.061717331 5.7288024e-39 318 290
-0.0012325933 0.70300001 -0.061629668 5.3600213e-39 319 290
0 0.70099998 -0.06145433 5.0848791e-39 320 290
0.0012273333 0.69999999 -0.061366666 5.2696291e-39 321 290
0.0024476533 0.69800001 -0.061191335 6.0053935e-39 322 290
0.00366622 0.69700003 -0.061103668 6.0975891e-39 323 290
0.0048672534 0.69400001 -0.060840666 5.8228001e-39 324 290
0.0060840664 0.69400001 -0.060840666 5.7306045e-39 325 290
0.0073008798 0.69400001 -0.060840666 5.1795775e-39 326 290
0.0085054198 0.69300002 -0.060752999 8.0376406e-39 327 290
0.0097204801 0.69300002 -0.060752999 1.0795211e-38 328 290
0.010935539 0.69300002 -0.060752999 1.208595e-38 329 290
0.012115533 0.69099998 -0.060577665 1.2821346e-38 330 290
0.0133078 0.69 -0.060489997 1.3190127e-38 331 290
0.014475521 0.68800002 -0.060314666 1.3557465e-38 332 290
0.015659019 0.68699998 -0.060226995 1.3649662e-38 333 290
0.016839013 0.68599999 -0.060139328 1.374221e-38 334 290
0.0179892 0.68400002 -0.059964001 1.3650015e-38 335 290
0.01918848 0.68400002 -0.059964001 1.3833683e-38 336 290
0.020387759 0.68400002 -0.059964001 1.3833683e-38 337 290
0.02155548 0.68300003 -0.059876334 1.3925879e-38 338 290
0.022753006 0.68300003 -0.059876334 1.4018074e-38 339 290
0.023915464 0.68199998 -0.059788663 1.4018071e-38 340 290
0.025111238 0.68199998 -0.059788663 1.4018071e-38 341 290
0.026229866 0.68000001 -0.059613332 1.4018071e-38 342 290
0.027381808 0.67900002 -0.059525665 1.4110626e-38 343 290
0.028530238 0.67799997 -0.059437994 1.4110626e-38 344 290
0.029718997 0.67799997 -0.059437994 1.4110626e-38 345 290
0.030907756 0.67799997 -0.059437994 1.3004642e-38 346 290
0.03209652 0.67799997 -0.059437994 1.217488e-38 347 290
0.033285279 0.67799997 -0.059437994 1.2450025e-38 348 290
0.034474038 0.67799997 -0.059437994 1.2450025e-38 349 290
0.035715401 0.67900002 -0.059525665 1.2083038e-38 350 290
0.036960267 0.68000001 -0.059613332 1.2083038e-38 351 290
0.038264744 0.68199998 -0.059788663 1.1989767e-38 352 290
0.039518382 0.68300003 -0.059876334 1.1897572e-38 353 290
0.040775519 0.68400002 -0.059964001 1.1621707e-38 354 290
0.042097531 0.68599999 -0.060139328 1.1529511e-38 355 290
0.043363437 0.68699998 -0.060226995 1.1621707e-38 356 290
0.044632856 0.68800002 -0.060314666 1.1898294e-38 357 290
0.045972396 0.69 -0.060489997 1.2082682e-38 358 290
0.047387339 0.69300002 -0.060752999 1.2175236e-38 359 290
0.048672531 0.69400001 -0.060840666 1.2267432e-38 360 290
0.050033119 0.69599998 -0.061015997 1.2267432e-38 361 290
0.051253434 0.69599998 -0.061015997 1.2450376e-38 362 290
0.052473757 0.69599998 -0.061015997 1.3556723e-38 363 290
0.053694077 0.69599998 -0.061015997 1.6317905e-38 364 290
