# .PCD v.7 - Point Cloud Data file format
FIELDS x y z rgb imX imY
SIZE 4 4 4 4 4 4
TYPE F F F F F F
COUNT 1 1 1 1 1 1
WIDTH 843
HEIGHT 1
VIEWPOINT 0 0 0 1 0 0 0
POINTS 843
DATA ascii
-0.0013009732 0.74199998 -0.041631144 1.8685536e-38 319 272
0 0.74199998 -0.041631144 1.8412175e-38 320 272
0.00130448 0.74400002 -0.04174336 1.8043391e-38 321 272
0.0039292197 0.74699998 -0.041911677 2.1179835e-38 323 272
0.0052389596 0.74699998 -0.041911677 2.1010897e-38 324 272
0.0065486995 0.74699998 -0.041911677 2.2578221e-38 325 272
0.0078584393 0.74699998 -0.041911677 2.2673638e-38 326 272
0.0091681797 0.74699998 -0.041911677 2.2950225e-38 327 272
0.010477919 0.74699998 -0.041911677 2.3225721e-38 328 272
0.011787659 0.74699998 -0.041911677 2.3133525e-38 329 272
0.013097399 0.74699998 -0.041911677 2.3409389e-38 330 272
0.014407139 0.74699998 -0.041911677 2.3409389e-38 331 272
0.015716879 0.74699998 -0.041911677 2.3408682e-38 332 272
0.017026618 0.74699998 -0.041911677 2.3316487e-38 333 272
0.018311813 0.74599999 -0.04185557 2.2762963e-38 334 272
0.019619798 0.74599999 -0.04185557 2.239454e-38 335 272
0.020927785 0.74599999 -0.04185557 2.1841735e-38 336 272
0.022235774 0.74599999 -0.04185557 2.1564789e-38 337 272
0.023575317 0.74699998 -0.041911677 2.1654833e-38 338 272
0.024885058 0.74699998 -0.041911677 2.1194215e-38 339 272
0.026194798 0.74699998 -0.041911677 2.1101663e-38 340 272
0.027504537 0.74699998 -0.041911677 2.1286413e-38 341 272
0.028814279 0.74699998 -0.041911677 2.1285338e-38 342 272
0.030124018 0.74699998 -0.041911677 2.1285338e-38 343 272
0.031517919 0.74900001 -0.042023893 2.201786e-38 344 272
0.032831166 0.74900001 -0.042023893 2.1464688e-38 345 272
0.034144413 0.74900001 -0.042023893 2.0543453e-38 346 272
0.03545766 0.74900001 -0.042023893 1.9621497e-38 347 272
0.036819998 0.75 -0.04208 1.8881785e-38 348 272
0.038135 0.75 -0.04208 1.7498849e-38 349 272
0.039449997 0.75 -0.04208 1.7400186e-38 350 272
0.040764999 0.75 -0.04208 1.6386393e-38 351 272
0.04208 0.75 -0.04208 1.6476438e-38 352 272
0.043394998 0.75 -0.04208 1.6292047e-38 353 272
0.044709999 0.75 -0.04208 1.6014759e-38 354 272
0.046024997 0.75 -0.04208 1.5830368e-38 355 272
0.047339998 0.75 -0.04208 1.6011902e-38 356 272
0.048655 0.75 -0.04208 1.5827511e-38 357 272
0.050103247 0.75199997 -0.04219221 1.5275058e-38 358 272
0.051421758 0.75199997 -0.04219221 1.4721885e-38 359 272
0.052740261 0.75199997 -0.04219221 1.4077243e-38 360 272
0.054058768 0.75199997 -0.04219221 1.4446024e-38 361 272
0.055377278 0.75199997 -0.04219221 1.4903406e-38 362 272
0.056695782 0.75199997 -0.04219221 1.499596e-38 363 272
0.058014289 0.75199997 -0.04219221 1.4996677e-38 364 272
0.059490599 0.75400001 -0.042304426 1.5088872e-38 365 272
0.060812615 0.75400001 -0.042304426 1.5089944e-38 366 272
0.062217031 0.755 -0.042360533 1.5182141e-38 367 272
0.063540794 0.755 -0.042360533 1.5089225e-38 368 272
0.065036394 0.75700003 -0.042472746 1.499703e-38 369 272
0.06636367 0.75700003 -0.042472746 1.4996674e-38 370 272
0.067869775 0.759 -0.042584959 1.4904478e-38 371 272
0.069200553 0.759 -0.042584959 1.5089228e-38 372 272
0.070810117 0.76200002 -0.042753279 1.5089228e-38 373 272
0.072146162 0.76200002 -0.042753279 1.4996677e-38 374 272
0.073482201 0.76200002 -0.042753279 1.4996677e-38 375 272
0.074818239 0.76200002 -0.042753279 1.4539291e-38 376 272
0.076354161 0.764 -0.042865492 1.4908075e-38 377 272
-0.028467119 0.73799998 -0.042700678 1.9712248e-38 298 273
-0.027173158 0.73799998 -0.042700678 1.7222966e-38 299 273
-0.025879199 0.73799998 -0.042700678 1.7393022e-38 300 273
-0.024518613 0.736 -0.042584959 1.7116435e-38 301 273
-0.023228159 0.736 -0.042584959 1.7210077e-38 302 273
-0.021937706 0.736 -0.042584959 1.8408618e-38 303 273
-0.020731414 0.73900002 -0.042758539 1.8506922e-38 304 273
-0.0194357 0.73900002 -0.042758539 1.8230695e-38 305 273
-0.018189078 0.741 -0.042874258 1.8784568e-38 306 273
-0.016889861 0.741 -0.042874258 1.9429938e-38 307 273
-0.01559064 0.741 -0.042874258 1.8877117e-38 308 273
-0.01429142 0.741 -0.042874258 1.8877117e-38 309 273
-0.0129922 0.741 -0.042874258 2.0350452e-38 310 273
-0.01169298 0.741 -0.042874258 1.9797278e-38 311 273
-0.010393759 0.741 -0.042874258 1.8230669e-38 312 273
-0.0090945391 0.741 -0.042874258 1.9429572e-38 313 273
-0.0077953199 0.741 -0.042874258 1.9798011e-38 314 273
-0.0065048663 0.74199998 -0.042932119 1.7585676e-38 315 273
-0.0052038929 0.74199998 -0.042932119 1.8224577e-38 316 273
-0.0039029196 0.74199998 -0.042932119 1.7948351e-38 317 273
-0.0026019465 0.74199998 -0.042932119 1.8132379e-38 318 273
-0.0013009732 0.74199998 -0.042932119 1.8132379e-38 319 273
0 0.74199998 -0.042932119 1.822493e-38 320 273
0.00130448 0.74400002 -0.043047838 1.7856148e-38 321 273
0.00260896 0.74400002 -0.043047838 1.6568646e-38 322 273
0.0039239596 0.74599999 -0.04316356 1.8412559e-38 323 273
0.0052389596 0.74699998 -0.043221418 1.944216e-38 324 273
0.0065486995 0.74699998 -0.043221418 2.1747411e-38 325 273
0.0078584393 0.74699998 -0.043221418 2.2582169e-38 326 273
0.0091681797 0.74699998 -0.043221418 2.295095e-38 327 273
0.010477919 0.74699998 -0.043221418 2.3411541e-38 328 273
0.011787659 0.74699998 -0.043221418 2.3503737e-38 329 273
0.013097399 0.74699998 -0.043221418 2.3501573e-38 330 273
0.014407139 0.74699998 -0.043221418 2.2762569e-38 331 273
0.015716879 0.74699998 -0.043221418 2.229693e-38 332 273
0.017026618 0.74699998 -0.043221418 2.1651561e-38 333 273
0.018336359 0.74699998 -0.043221418 2.1832729e-38 334 273
0.019646099 0.74699998 -0.043221418 2.1556141e-38 335 273
0.020955838 0.74699998 -0.043221418 2.1096611e-38 336 273
0.022265578 0.74699998 -0.043221418 2.1372838e-38 337 273
0.023575317 0.74699998 -0.043221418 2.1372841e-38 338 273
0.024885058 0.74699998 -0.043221418 2.100406e-38 339 273
0.026194798 0.74699998 -0.043221418 2.0729271e-38 340 273
0.027504537 0.74699998 -0.043221418 2.0729271e-38 341 273
0.028814279 0.74699998 -0.043221418 2.0727118e-38 342 273
0.030204674 0.74900001 -0.04333714 2.0173946e-38 343 273
0.031517919 0.74900001 -0.04333714 1.9988113e-38 344 273
0.032831166 0.74900001 -0.04333714 1.9342743e-38 345 273
0.034144413 0.74900001 -0.04333714 1.8236044e-38 346 273
0.03545766 0.74900001 -0.04333714 1.7221894e-38 347 273
0.036770906 0.74900001 -0.04333714 1.6480401e-38 348 273
0.038084153 0.74900001 -0.04333714 1.5281858e-38 349 273
0.0393974 0.74900001 -0.04333714 1.5367604e-38 350 273
0.040710647 0.74900001 -0.04333714 1.4906985e-38 351 273
0.04208 0.75 -0.043394998 1.4814436e-38 352 273
0.04333714 0.74900001 -0.04333714 1.5275056e-38 353 273
0.044650383 0.74900001 -0.04333714 1.5276135e-38 354 273
0.045963634 0.74900001 -0.04333714 1.5552722e-38 355 273
0.047339998 0.75 -0.043394998 1.545945e-38 356 273
0.048655 0.75 -0.043394998 1.5091027e-38 357 273
0.049969997 0.75 -0.043394998 1.4354904e-38 358 273
0.051421758 0.75199997 -0.04351072 1.4354904e-38 359 273
0.052740261 0.75199997 -0.04351072 1.3802456e-38 360 273
0.054058768 0.75199997 -0.04351072 1.4078683e-38 361 273
0.055377278 0.75199997 -0.04351072 1.3987569e-38 362 273
0.056695782 0.75199997 -0.04351072 1.3895015e-38 363 273
0.058014289 0.75199997 -0.04351072 1.4353472e-38 364 273
0.059490599 0.75400001 -0.043626439 1.4445668e-38 365 273
0.060812615 0.75400001 -0.043626439 1.4446024e-38 366 273
0.062217031 0.755 -0.043684296 1.4446024e-38 367 273
0.063709125 0.75700003 -0.043800019 1.4077961e-38 368 273
0.065036394 0.75700003 -0.043800019 1.4170516e-38 369 273
0.06636367 0.75700003 -0.043800019 1.4170516e-38 370 273
0.067869775 0.759 -0.043915741 1.4077961e-38 371 273
0.069382899 0.76099998 -0.044031456 1.4262709e-38 372 273
-0.029761078 0.73799998 -0.043994635 1.6024069e-38 297 274
-0.028389972 0.736 -0.043875411 1.6930602e-38 298 274
-0.02709952 0.736 -0.043875411 1.739158e-38 299 274
-0.025809066 0.736 -0.043875411 1.7851498e-38 300 274
-0.024451986 0.73400003 -0.043756187 1.822064e-38 301 274
-0.023165042 0.73400003 -0.043756187 1.7948e-38 302 274
-0.021878093 0.73400003 -0.043756187 1.8132031e-38 303 274
-0.020647252 0.736 -0.043875411 1.8132026e-38 304 274
-0.019409399 0.73799998 -0.043994635 1.7947995e-38 305 274
-0.018139986 0.73900002 -0.044054255 1.7949069e-38 306 274
-0.016844273 0.73900002 -0.044054255 1.8317492e-38 307 274
-0.01559064 0.741 -0.044173479 1.8227451e-38 308 274
-0.01429142 0.741 -0.044173479 1.7766473e-38 309 274
-0.0129922 0.741 -0.044173479 1.831641e-38 310 274
-0.01169298 0.741 -0.044173479 1.8592637e-38 311 274
-0.010393759 0.741 -0.044173479 1.8133464e-38 312 274
-0.0090945391 0.741 -0.044173479 1.8040909e-38 313 274
-0.0077953199 0.741 -0.044173479 1.7489532e-38 314 274
-0.0065048663 0.74199998 -0.044233091 1.7581729e-38 315 274
-0.0052038929 0.74199998 -0.044233091 1.7947995e-38 316 274
-0.0039029196 0.74199998 -0.044233091 1.7947995e-38 317 274
-0.0026019465 0.74199998 -0.044233091 1.7948351e-38 318 274
-0.0013009732 0.74199998 -0.044233091 1.7671404e-38 319 274
0 0.74199998 -0.044233091 1.7854353e-38 320 274
0.00130448 0.74400002 -0.044352323 1.8314972e-38 321 274
0.00260896 0.74400002 -0.044352323 1.748881e-38 322 274
0.0039239596 0.74599999 -0.044471547 1.7120388e-38 323 274
0.0052389596 0.74699998 -0.044531155 1.6487957e-38 324 274
0.0065486995 0.74699998 -0.044531155 2.0267977e-38 325 274
0.0078584393 0.74699998 -0.044531155 2.1565518e-38 326 274
0.0091681797 0.74699998 -0.044531155 2.2210888e-38 327 274
0.010477919 0.74699998 -0.044531155 2.2213016e-38 328 274
0.011787659 0.74699998 -0.044531155 2.2028266e-38 329 274
0.013097399 0.74699998 -0.044531155 2.1928515e-38 330 274
0.014407139 0.74699998 -0.044531155 1.9439233e-38 331 274
0.015695838 0.74599999 -0.044471547 1.7578797e-38 332 274
0.017003827 0.74599999 -0.044471547 1.5089515e-38 333 274
0.018336359 0.74699998 -0.044531155 1.4901922e-38 334 274
0.019646099 0.74699998 -0.044531155 1.5178509e-38 335 274
0.020955838 0.74699998 -0.044531155 1.4536755e-38 336 274
0.022265578 0.74699998 -0.044531155 1.4905537e-38 337 274
0.023575317 0.74699998 -0.044531155 1.4997733e-38 338 274
0.024885058 0.74699998 -0.044531155 1.4812983e-38 339 274
0.026264934 0.74900001 -0.044650383 1.4079371e-38 340 274
0.027578179 0.74900001 -0.044650383 1.4171567e-38 341 274
0.028891427 0.74900001 -0.044650383 1.4627518e-38 342 274
0.030204674 0.74900001 -0.044650383 1.4351292e-38 343 274
0.031517919 0.74900001 -0.044650383 1.4166545e-38 344 274
0.032831166 0.74900001 -0.044650383 1.3889956e-38 345 274
0.034144413 0.74900001 -0.044650383 1.3796323e-38 346 274
0.03545766 0.74900001 -0.044650383 1.3888519e-38 347 274
0.036770906 0.74900001 -0.044650383 1.4073278e-38 348 274
0.038084153 0.74900001 -0.044650383 1.4534256e-38 349 274
0.0393974 0.74900001 -0.044650383 1.4444222e-38 350 274
0.040710647 0.74900001 -0.044650383 1.4628614e-38 351 274
0.04208 0.75 -0.044709999 1.4263428e-38 352 274
0.04333714 0.74900001 -0.044650383 1.4355623e-38 353 274
0.044650383 0.74900001 -0.044650383 1.4722611e-38 354 274
0.045963634 0.74900001 -0.044650383 1.4630415e-38 355 274
0.047339998 0.75 -0.044709999 1.4445308e-38 356 274
0.048655 0.75 -0.044709999 1.4076165e-38 357 274
0.049969997 0.75 -0.044709999 1.361591e-38 358 274
0.051421758 0.75199997 -0.044829223 1.3708106e-38 359 274
0.052740261 0.75199997 -0.044829223 1.3799938e-38 360 274
0.054058768 0.75199997 -0.044829223 1.4168361e-38 361 274
0.055377278 0.75199997 -0.044829223 1.3985766e-38 362 274
0.056846574 0.75400001 -0.044948451 1.3893569e-38 363 274
0.058168583 0.75400001 -0.044948451 1.4076518e-38 364 274
0.059490599 0.75400001 -0.044948451 1.3983964e-38 365 274
0.060812615 0.75400001 -0.044948451 1.3802449e-38 366 274
0.062217031 0.755 -0.045008067 1.3802449e-38 367 274
0.063709125 0.75700003 -0.045127295 1.3159954e-38 368 274
0.065036394 0.75700003 -0.045127295 1.3067758e-38 369 274
0.06636367 0.75700003 -0.045127295 1.3893203e-38 370 274
-0.081691302 0.72799999 -0.044674929 2.1193817e-38 256 275
-0.080414876 0.72799999 -0.044674929 2.091759e-38 257 275
-0.07913845 0.72799999 -0.044674929 2.0364772e-38 258 275
-0.077862024 0.72799999 -0.044674929 2.0272218e-38 259 275
-0.076480396 0.727 -0.044613566 2.0179669e-38 260 275
-0.075205728 0.727 -0.044613566 1.9626854e-38 261 275
-0.033642959 0.73799998 -0.0452886 2.2765481e-38 294 275
-0.032348998 0.73799998 -0.0452886 2.1474742e-38 295 275
-0.031055039 0.73799998 -0.0452886 1.906475e-38 296 275
-0.029761078 0.73799998 -0.0452886 1.6206684e-38 297 275
-0.028389972 0.736 -0.045165867 1.7115734e-38 298 275
-0.02709952 0.736 -0.045165867 1.7576354e-38 299 275
-0.025809066 0.736 -0.045165867 1.7760748e-38 300 275
-0.024451986 0.73400003 -0.045043133 1.7852943e-38 301 275
-0.023165042 0.73400003 -0.045043133 1.7578505e-38 302 275
-0.021878093 0.73400003 -0.045043133 1.76707e-38 303 275
-0.020647252 0.736 -0.045165867 1.7578502e-38 304 275
-0.019409399 0.73799998 -0.0452886 1.7486306e-38 305 275
-0.018115439 0.73799998 -0.0452886 1.7304069e-38 306 275
-0.016844273 0.73900002 -0.045349967 1.748846e-38 307 275
-0.01554856 0.73900002 -0.045349967 1.7578855e-38 308 275
-0.01429142 0.741 -0.045472696 1.7578855e-38 309 275
-0.0129922 0.741 -0.045472696 1.7578855e-38 310 275
-0.01169298 0.741 -0.045472696 1.7578855e-38 311 275
-0.010393759 0.741 -0.045472696 1.7578858e-38 312 275
-0.0090945391 0.741 -0.045472696 1.7486662e-38 313 275
-0.0077953199 0.741 -0.045472696 1.7026403e-38 314 275
-0.0065048663 0.74199998 -0.045534063 1.7210795e-38 315 275
-0.0052038929 0.74199998 -0.045534063 1.7028558e-38 316 275
-0.0039029196 0.74199998 -0.045534063 1.7028558e-38 317 275
-0.0026019465 0.74199998 -0.045534063 1.7120032e-38 318 275
-0.00130448 0.74400002 -0.0456568 1.6935639e-38 319 275
0 0.74400002 -0.0456568 1.7210784e-38 320 275
0.0013079866 0.74599999 -0.045779534 1.7487012e-38 321 275
0.0026194798 0.74699998 -0.045840897 1.7395543e-38 322 275
0.0039292197 0.74699998 -0.045840897 1.6750173e-38 323 275
0.0052529867 0.74900001 -0.045963634 1.555882e-38 324 275
0.0065486995 0.74699998 -0.045840897 1.7955906e-38 325 275
0.0078584393 0.74699998 -0.045840897 1.8800741e-38 326 275
0.0091681797 0.74699998 -0.045840897 2.0368067e-38 327 275
0.010477919 0.74699998 -0.045840897 2.1105239e-38 328 275
0.011787659 0.74699998 -0.045840897 2.1105239e-38 329 275
0.013097399 0.74699998 -0.045840897 2.0643545e-38 330 275
0.014407139 0.74699998 -0.045840897 1.972123e-38 331 275
0.015695838 0.74599999 -0.045779534 1.7963793e-38 332 275
0.017003827 0.74599999 -0.045779534 1.3999381e-38 333 275
0.018336359 0.74699998 -0.045840897 1.3888163e-38 334 275
0.019646099 0.74699998 -0.045840897 1.4533532e-38 335 275
0.020955838 0.74699998 -0.045840897 1.4167645e-38 336 275
0.022265578 0.74699998 -0.045840897 1.4167645e-38 337 275
0.02363844 0.74900001 -0.045963634 1.407509e-38 338 275
0.024951685 0.74900001 -0.045963634 1.407509e-38 339 275
0.026264934 0.74900001 -0.045963634 1.4075809e-38 340 275
0.027578179 0.74900001 -0.045963634 1.4075809e-38 341 275
0.028891427 0.74900001 -0.045963634 1.4168007e-38 342 275
0.030204674 0.74900001 -0.045963634 1.4168007e-38 343 275
0.031517919 0.74900001 -0.045963634 1.3983969e-38 344 275
0.032831166 0.74900001 -0.045963634 1.3983969e-38 345 275
0.034144413 0.74900001 -0.045963634 1.3799935e-38 346 275
0.03545766 0.74900001 -0.045963634 1.3983967e-38 347 275
0.036770906 0.74900001 -0.045963634 1.4168714e-38 348 275
0.038084153 0.74900001 -0.045963634 1.4445302e-38 349 275
0.0393974 0.74900001 -0.045963634 1.4171229e-38 350 275
0.040710647 0.74900001 -0.045963634 1.4171229e-38 351 275
0.04208 0.75 -0.046024997 1.3988638e-38 352 275
0.04333714 0.74900001 -0.045963634 1.3896443e-38 353 275
0.044650383 0.74900001 -0.045963634 1.4078683e-38 354 275
0.046024997 0.75 -0.046024997 1.4078683e-38 355 275
0.047339998 0.75 -0.046024997 1.3985048e-38 356 275
0.048655 0.75 -0.046024997 1.3708103e-38 357 275
0.050103247 0.75199997 -0.04614773 1.3431879e-38 358 275
0.051421758 0.75199997 -0.04614773 1.3339323e-38 359 275
0.052740261 0.75199997 -0.04614773 1.3340043e-38 360 275
0.054058768 0.75199997 -0.04614773 1.3524793e-38 361 275
0.055377278 0.75199997 -0.04614773 1.3159601e-38 362 275
0.056846574 0.75400001 -0.046270464 1.297521e-38 363 275
0.058168583 0.75400001 -0.046270464 1.3157084e-38 364 275
0.059490599 0.75400001 -0.046270464 1.324928e-38 365 275
0.060812615 0.75400001 -0.046270464 1.2882292e-38 366 275
0.062217031 0.755 -0.04633183 1.26979e-38 367 275
-0.082967728 0.72799999 -0.045951359 1.833578e-38 255 276
-0.081691302 0.72799999 -0.045951359 1.8610572e-38 256 276
-0.080414876 0.72799999 -0.045951359 1.8057398e-38 257 276
-0.07913845 0.72799999 -0.045951359 1.7504589e-38 258 276
-0.077862024 0.72799999 -0.045951359 1.8242513e-38 259 276
-0.076480396 0.727 -0.045888241 1.8426551e-38 260 276
-0.075205728 0.727 -0.045888241 1.7043616e-38 261 276
-0.074236132 0.73000002 -0.046077598 1.6126339e-38 262 276
-0.072956197 0.73000002 -0.046077598 1.6864263e-38 263 276
-0.071676269 0.73000002 -0.046077598 1.8064954e-38 264 276
-0.034936916 0.73799998 -0.046582557 2.2675433e-38 293 276
-0.033642959 0.73799998 -0.046582557 2.3411935e-38 294 276
-0.032348998 0.73799998 -0.046582557 2.184425e-38 295 276
-0.031055039 0.73799998 -0.046582557 1.9065471e-38 296 276
-0.029680425 0.736 -0.046456318 1.6207408e-38 297 276
-0.028389972 0.736 -0.046456318 1.7487388e-38 298 276
-0.02709952 0.736 -0.046456318 1.7487388e-38 299 276
-0.025809066 0.736 -0.046456318 1.7485956e-38 300 276
-0.024451986 0.73400003 -0.046330083 1.7301925e-38 301 276
-0.023165042 0.73400003 -0.046330083 1.7117532e-38 302 276
-0.021878093 0.73400003 -0.046330083 1.7209729e-38 303 276
-0.020647252 0.736 -0.046456318 1.674947e-38 304 276
-0.019409399 0.73799998 -0.046582557 1.674947e-38 305 276
-0.018115439 0.73799998 -0.046582557 1.6657993e-38 306 276
-0.016821479 0.73799998 -0.046582557 1.6657993e-38 307 276
-0.01554856 0.73900002 -0.046645679 1.6747672e-38 308 276
-0.014252847 0.73900002 -0.046645679 1.6655475e-38 309 276
-0.0129922 0.741 -0.046771921 1.6472163e-38 310 276
-0.01169298 0.741 -0.046771921 1.6472163e-38 311 276
-0.010393759 0.741 -0.046771921 1.6472163e-38 312 276
-0.0090945391 0.741 -0.046771921 1.6748391e-38 313 276
-0.0077953199 0.741 -0.046771921 1.6565076e-38 314 276
-0.0065048663 0.74199998 -0.046835039 1.6565076e-38 315 276
-0.0052038929 0.74199998 -0.046835039 1.6199167e-38 316 276
-0.0039029196 0.74199998 -0.046835039 1.6199167e-38 317 276
-0.0026019465 0.74199998 -0.046835039 1.6382835e-38 318 276
-0.00130448 0.74400002 -0.046961278 1.629064e-38 319 276
0 0.74400002 -0.046961278 1.6381031e-38 320 276
0.0013097399 0.74699998 -0.047150634 1.6565782e-38 321 276
0.0026194798 0.74699998 -0.047150634 1.6472513e-38 322 276
0.0039292197 0.74699998 -0.047150634 1.6288122e-38 323 276
0.0052529867 0.74900001 -0.047276881 1.5276841e-38 324 276
0.0065662335 0.74900001 -0.047276881 1.6198439e-38 325 276
0.0078584393 0.74699998 -0.047150634 1.5572096e-38 326 276
0.0091681797 0.74699998 -0.047150634 1.8983693e-38 327 276
0.010477919 0.74699998 -0.047150634 1.9629032e-38 328 276
0.011787659 0.74699998 -0.047150634 1.9721586e-38 329 276
0.013097399 0.74699998 -0.047150634 1.9998523e-38 330 276
0.014407139 0.74699998 -0.047150634 1.9906328e-38 331 276
0.015695838 0.74599999 -0.047087517 1.8796052e-38 332 276
0.017003827 0.74599999 -0.047087517 1.5845792e-38 333 276
0.018336359 0.74699998 -0.047150634 1.3891753e-38 334 276
0.019646099 0.74699998 -0.047150634 1.3983948e-38 335 276
0.021011947 0.74900001 -0.047276881 1.4353475e-38 336 276
0.022325192 0.74900001 -0.047276881 1.3984692e-38 337 276
0.023669999 0.75 -0.047339998 1.3984692e-38 338 276
0.024984999 0.75 -0.047339998 1.3984692e-38 339 276
0.0263 0.75 -0.047339998 1.3984692e-38 340 276
0.027615 0.75 -0.047339998 1.3892497e-38 341 276
0.028929999 0.75 -0.047339998 1.3710626e-38 342 276
0.030244999 0.75 -0.047339998 1.3710626e-38 343 276
0.03156 0.75 -0.047339998 1.3801017e-38 344 276
0.032874998 0.75 -0.047339998 1.3801017e-38 345 276
0.034189999 0.75 -0.047339998 1.3618058e-38 346 276
0.035505001 0.75 -0.047339998 1.3618058e-38 347 276
0.036819998 0.75 -0.047339998 1.3893566e-38 348 276
0.038135 0.75 -0.047339998 1.398612e-38 349 276
0.039449997 0.75 -0.047339998 1.3710973e-38 350 276
0.040764999 0.75 -0.047339998 1.3710973e-38 351 276
0.04208 0.75 -0.047339998 1.352766e-38 352 276
0.043394998 0.75 -0.047339998 1.352766e-38 353 276
0.044709999 0.75 -0.047339998 1.3710973e-38 354 276
0.046024997 0.75 -0.047339998 1.3710973e-38 355 276
0.047339998 0.75 -0.047339998 1.343439e-38 356 276
0.048655 0.75 -0.047339998 1.3065607e-38 357 276
0.050103247 0.75199997 -0.047466237 1.3064531e-38 358 276
0.051421758 0.75199997 -0.047466237 1.288014e-38 359 276
0.052740261 0.75199997 -0.047466237 1.2789374e-38 360 276
-0.091776483 0.727 -0.047162913 1.9724101e-38 248 277
-0.090501808 0.727 -0.047162913 2.0001047e-38 249 277
-0.08552058 0.72799999 -0.047227785 1.7695823e-38 253 277
-0.084244154 0.72799999 -0.047227785 1.7878063e-38 254 277
-0.082967728 0.72799999 -0.047227785 1.686391e-38 255 277
-0.081691302 0.72799999 -0.047227785 1.5572099e-38 256 277
-0.080414876 0.72799999 -0.047227785 1.5202956e-38 257 277
-0.07913845 0.72799999 -0.047227785 1.6030924e-38 258 277
-0.077862024 0.72799999 -0.047227785 1.7413859e-38 259 277
-0.076796003 0.73000002 -0.047357533 1.8426216e-38 260 277
-0.07551606 0.73000002 -0.047357533 1.7227674e-38 261 277
-0.074236132 0.73000002 -0.047357533 1.5569948e-38 262 277
-0.072956197 0.73000002 -0.047357533 1.5016774e-38 263 277
-0.071676269 0.73000002 -0.047357533 1.6590197e-38 264 277
-0.070396334 0.73000002 -0.047357533 1.8526305e-38 265 277
-0.069116399 0.73000002 -0.047357533 1.8987262e-38 266 277
-0.036230877 0.73799998 -0.047876518 2.267507e-38 292 277
-0.034936916 0.73799998 -0.047876518 2.2951297e-38 293 277
-0.033642959 0.73799998 -0.047876518 2.304531e-38 294 277
-0.032348998 0.73799998 -0.047876518 2.1109202e-38 295 277
-0.030970879 0.736 -0.047746774 1.7960573e-38 296 277
-0.029680425 0.736 -0.047746774 1.5471291e-38 297 277
-0.028389972 0.736 -0.047746774 1.6934581e-38 298 277
-0.02709952 0.736 -0.047746774 1.6934581e-38 299 277
-0.025809066 0.736 -0.047746774 1.7025699e-38 300 277
-0.024451986 0.73400003 -0.047617026 1.6841668e-38 301 277
-0.023165042 0.73400003 -0.047617026 1.6473962e-38 302 277
-0.021878093 0.73400003 -0.047617026 1.6381766e-38 303 277
-0.020647252 0.736 -0.047746774 1.6472527e-38 304 277
-0.019409399 0.73799998 -0.047876518 1.6472527e-38 305 277
-0.018115439 0.73799998 -0.047876518 1.6472527e-38 306 277
-0.016821479 0.73799998 -0.047876518 1.6196299e-38 307 277
-0.01554856 0.73900002 -0.047941394 1.6104103e-38 308 277
-0.014252847 0.73900002 -0.047941394 1.6104103e-38 309 277
-0.0129922 0.741 -0.048071139 1.6194864e-38 310 277
-0.01169298 0.741 -0.048071139 1.6287418e-38 311 277
-0.010393759 0.741 -0.048071139 1.6104103e-38 312 277
-0.0090945391 0.741 -0.048071139 1.6196299e-38 313 277
-0.0077953199 0.741 -0.048071139 1.592186e-38 314 277
-0.0065048663 0.74199998 -0.048136011 1.592186e-38 315 277
-0.0052038929 0.74199998 -0.048136011 1.6014056e-38 316 277
-0.0039029196 0.74199998 -0.048136011 1.5829664e-38 317 277
-0.00260896 0.74400002 -0.048265759 1.5461602e-38 318 277
-0.0013079866 0.74599999 -0.048395503 1.5553798e-38 319 277
0 0.74599999 -0.048395503 1.5827141e-38 320 277
0.0013097399 0.74699998 -0.048460379 1.647251e-38 321 277
0.0026264933 0.74900001 -0.048590127 1.6199873e-38 322 277
0.0039397399 0.74900001 -0.048590127 1.6845243e-38 323 277
0.00526 0.75 -0.048655 1.5837905e-38 324 277
0.0065662335 0.74900001 -0.048590127 1.7036449e-38 325 277
0.0078794798 0.74900001 -0.048590127 1.6859941e-38 326 277
0.0091927266 0.74900001 -0.048590127 1.9072995e-38 327 277
0.010505973 0.74900001 -0.048590127 1.9074412e-38 328 277
0.011787659 0.74699998 -0.048460379 1.8798185e-38 329 277
0.013097399 0.74699998 -0.048460379 1.8613788e-38 330 277
0.014407139 0.74699998 -0.048460379 1.8060973e-38 331 277
0.015716879 0.74699998 -0.048460379 1.6306048e-38 332 277
0.017026618 0.74699998 -0.048460379 1.5384091e-38 333 277
0.018385453 0.74900001 -0.048590127 1.3899292e-38 334 277
0.019724999 0.75 -0.048655 1.3530869e-38 335 277
0.02104 0.75 -0.048655 1.3712406e-38 336 277
0.022355 0.75 -0.048655 1.3712406e-38 337 277
0.04208 0.75 -0.048655 1.2606783e-38 352 277
0.043394998 0.75 -0.048655 1.2606783e-38 353 277
0.044709999 0.75 -0.048655 1.2790095e-38 354 277
0.046024997 0.75 -0.048655 1.26979e-38 355 277
-0.09445557 0.72799999 -0.048504211 1.9725899e-38 246 278
-0.093179137 0.72799999 -0.048504211 1.9264921e-38 247 278
-0.091776483 0.727 -0.048437584 1.9355324e-38 248 278
-0.090501808 0.727 -0.048437584 1.9355324e-38 249 278
-0.089349858 0.72799999 -0.048504211 1.6497295e-38 250 278
-0.088073432 0.72799999 -0.048504211 1.3178252e-38 251 278
-0.086797006 0.72799999 -0.048504211 1.5111856e-38 252 278
-0.08552058 0.72799999 -0.048504211 1.7509301e-38 253 278
-0.084244154 0.72799999 -0.048504211 1.8153579e-38 254 278
-0.082967728 0.72799999 -0.048504211 1.686284e-38 255 278
-0.081691302 0.72799999 -0.048504211 1.4188824e-38 256 278
-0.080414876 0.72799999 -0.048504211 1.4004793e-38 257 278
-0.079355866 0.73000002 -0.048637468 1.4925676e-38 258 278
-0.078075938 0.73000002 -0.048637468 1.6124219e-38 259 278
-0.076796003 0.73000002 -0.048637468 1.750355e-38 260 278
-0.075309172 0.72799999 -0.048504211 1.667415e-38 261 278
-0.074032739 0.72799999 -0.048504211 1.4833465e-38 262 278
-0.072756313 0.72799999 -0.048504211 1.3634561e-38 263 278
-0.071479887 0.72799999 -0.048504211 1.6125623e-38 264 278
-0.070203468 0.72799999 -0.048504211 1.8799296e-38 265 278
-0.06883236 0.727 -0.048437584 1.8524842e-38 266 278
-0.067557678 0.727 -0.048437584 1.8893264e-38 267 278
-0.044981763 0.73299998 -0.048837345 2.1472562e-38 285 278
-0.043696571 0.73299998 -0.048837345 2.175166e-38 286 278
-0.042411376 0.73299998 -0.048837345 2.2397029e-38 287 278
-0.041294504 0.736 -0.049037226 2.2859089e-38 288 278
-0.040004052 0.736 -0.049037226 2.304348e-38 289 278
-0.038818799 0.73799998 -0.049170475 2.3043127e-38 290 278
-0.037575684 0.73900002 -0.049237106 2.3043127e-38 291 278
-0.036230877 0.73799998 -0.049170475 2.2767616e-38 292 278
-0.034936916 0.73799998 -0.049170475 2.2767616e-38 293 278
-0.033642959 0.73799998 -0.049170475 2.2585408e-38 294 278
-0.032348998 0.73799998 -0.049170475 2.0096126e-38 295 278
-0.030970879 0.736 -0.049037226 1.66702e-38 296 278
-0.029680425 0.736 -0.049037226 1.4826287e-38 297 278
-0.028389972 0.736 -0.049037226 1.6474325e-38 298 278
-0.02709952 0.736 -0.049037226 1.6474325e-38 299 278
-0.025809066 0.736 -0.049037226 1.6198817e-38 300 278
-0.024518613 0.736 -0.049037226 1.6106621e-38 301 278
-0.023165042 0.73400003 -0.048903972 1.6013349e-38 302 278
-0.021878093 0.73400003 -0.048903972 1.5828958e-38 303 278
-0.020703359 0.73799998 -0.049170475 1.5828958e-38 304 278
-0.019409399 0.73799998 -0.049170475 1.5828958e-38 305 278
-0.018115439 0.73799998 -0.049170475 1.5829308e-38 306 278
-0.016844273 0.73900002 -0.049237106 1.5829308e-38 307 278
-0.01554856 0.73900002 -0.049237106 1.5552366e-38 308 278
-0.014252847 0.73900002 -0.049237106 1.5552366e-38 309 278
-0.0129922 0.741 -0.049370356 1.53687e-38 310 278
-0.01169298 0.741 -0.049370356 1.53687e-38 311 278
-0.010393759 0.741 -0.049370356 1.5369051e-38 312 278
-0.0090945391 0.741 -0.049370356 1.5369051e-38 313 278
-0.0077953199 0.741 -0.049370356 1.5462318e-38 314 278
-0.0065048663 0.74199998 -0.049436983 1.5462318e-38 315 278
-0.0052038929 0.74199998 -0.049436983 1.5370476e-38 316 278
-0.0039029196 0.74199998 -0.049436983 1.5094248e-38 317 278
-0.00260896 0.74400002 -0.04957024 1.4726185e-38 318 278
-0.0013097399 0.74699998 -0.049770117 1.5094968e-38 319 278
0 0.74699998 -0.049770117 1.537298e-38 320 278
0.0013132467 0.74900001 -0.04990337 1.6387133e-38 321 278
0.01181922 0.74900001 -0.04990337 1.7876579e-38 329 278
0.013132467 0.74900001 -0.04990337 1.7047188e-38 330 278
0.01575896 0.74900001 -0.04990337 1.4833432e-38 332 278
0.017072206 0.74900001 -0.04990337 1.4095867e-38 333 278
0.018385453 0.74900001 -0.04990337 1.3999731e-38 334 278
-0.095731996 0.72799999 -0.049780637 2.0092514e-38 245 279
-0.09445557 0.72799999 -0.049780637 1.9541152e-38 246 279
-0.093179137 0.72799999 -0.049780637 1.9172728e-38 247 279
-0.091902718 0.72799999 -0.049780637 1.8895069e-38 248 279
-0.090626292 0.72799999 -0.049780637 1.8987265e-38 249 279
-0.089227132 0.727 -0.049712259 1.6772443e-38 250 279
-0.087952457 0.727 -0.049712259 1.3176454e-38 251 279
-0.086677782 0.727 -0.049712259 1.3910082e-38 252 279
-0.085403107 0.727 -0.049712259 1.5384852e-38 253 279
-0.084244154 0.72799999 -0.049780637 1.5477047e-38 254 279
-0.082967728 0.72799999 -0.049780637 1.4370701e-38 255 279
-0.081691302 0.72799999 -0.049780637 1.3260412e-38 256 279
-0.080414876 0.72799999 -0.049780637 1.2522488e-38 257 279
-0.07913845 0.72799999 -0.049780637 1.2616488e-38 258 279
-0.077862024 0.72799999 -0.049780637 1.3999423e-38 259 279
-0.076585598 0.72799999 -0.049780637 1.4182369e-38 260 279
-0.075309172 0.72799999 -0.049780637 1.3537e-38 261 279
-0.074032739 0.72799999 -0.049780637 1.307385e-38 262 279
-0.072756313 0.72799999 -0.049780637 1.3166045e-38 263 279
-0.071479887 0.72799999 -0.049780637 1.5572099e-38 264 279
-0.070203468 0.72799999 -0.049780637 1.8153576e-38 265 279
-0.06883236 0.727 -0.049712259 1.8338293e-38 266 279
-0.067557678 0.727 -0.049712259 1.8891467e-38 267 279
-0.06628301 0.727 -0.049712259 2.1010507e-38 268 279
-0.047422405 0.73100001 -0.049985781 2.2210843e-38 283 279
-0.046140719 0.73100001 -0.049985781 2.258107e-38 284 279
-0.044981763 0.73299998 -0.050122537 2.2858017e-38 285 279
-0.043696571 0.73299998 -0.050122537 2.2767972e-38 286 279
-0.042411376 0.73299998 -0.050122537 2.2952003e-38 287 279
-0.041294504 0.736 -0.050327681 2.2676137e-38 288 279
-0.040004052 0.736 -0.050327681 2.2583941e-38 289 279
-0.038818799 0.73799998 -0.050464436 2.248923e-38 290 279
-0.037524838 0.73799998 -0.050464436 2.2028254e-38 291 279
-0.036279973 0.73900002 -0.050532822 2.1475445e-38 292 279
-0.034936916 0.73799998 -0.050464436 2.1199219e-38 293 279
-0.033642959 0.73799998 -0.050464436 2.0648594e-38 294 279
-0.032348998 0.73799998 -0.050464436 1.8067116e-38 295 279
-0.030970879 0.736 -0.050327681 1.464118e-38 296 279
-0.029680425 0.736 -0.050327681 1.3903615e-38 297 279
-0.028389972 0.736 -0.050327681 1.5736397e-38 298 279
-0.02709952 0.736 -0.050327681 1.5828592e-38 299 279
-0.025809066 0.736 -0.050327681 1.5737116e-38 300 279
-0.024518613 0.736 -0.050327681 1.5644561e-38 301 279
-0.023228159 0.736 -0.050327681 1.5736397e-38 302 279
-0.021937706 0.736 -0.050327681 1.5736397e-38 303 279
-0.020703359 0.73799998 -0.050464436 1.5368689e-38 304 279
-0.019488299 0.741 -0.050669577 1.5091743e-38 305 279
-0.018189078 0.741 -0.050669577 1.5000624e-38 306 279
-0.016889861 0.741 -0.050669577 1.5369407e-38 307 279
-0.01559064 0.741 -0.050669577 1.5276491e-38 308 279
-0.01429142 0.741 -0.050669577 1.5368686e-38 309 279
-0.0129922 0.741 -0.050669577 1.5001699e-38 310 279
-0.01170876 0.74199998 -0.050737958 1.5093894e-38 311 279
-0.010407786 0.74199998 -0.050737958 1.5094968e-38 312 279
-0.009106813 0.74199998 -0.050737958 1.5094968e-38 313 279
-0.0078058392 0.74199998 -0.050737958 1.5004564e-38 314 279
-0.0065048663 0.74199998 -0.050737958 1.5004564e-38 315 279
-0.0052179201 0.74400002 -0.050874721 1.4914157e-38 316 279
-0.0039134403 0.74400002 -0.050874721 1.5282579e-38 317 279
-0.097008422 0.72799999 -0.051057063 2.0827561e-38 244 280
-0.095731996 0.72799999 -0.051057063 2.0642811e-38 245 280
-0.09445557 0.72799999 -0.051057063 1.9266366e-38 246 280
-0.093179137 0.72799999 -0.051057063 1.8344409e-38 247 280
-0.091902718 0.72799999 -0.051057063 1.8803237e-38 248 280
-0.090626292 0.72799999 -0.051057063 1.8987628e-38 249 280
-0.089227132 0.727 -0.050986931 1.6864635e-38 250 280
-0.087952457 0.727 -0.050986931 1.3084256e-38 251 280
-0.086677782 0.727 -0.050986931 1.4183439e-38 252 280
-0.085403107 0.727 -0.050986931 1.4828808e-38 253 280
-0.084128432 0.727 -0.050986931 1.4460031e-38 254 280
-0.082967728 0.72799999 -0.051057063 1.3722466e-38 255 280
-0.081691302 0.72799999 -0.051057063 1.3167144e-38 256 280
-0.080414876 0.72799999 -0.051057063 1.2337025e-38 257 280
-0.07913845 0.72799999 -0.051057063 1.1783856e-38 258 280
-0.077862024 0.72799999 -0.051057063 1.3719965e-38 259 280
-0.076585598 0.72799999 -0.051057063 1.3814311e-38 260 280
-0.075309172 0.72799999 -0.051057063 1.2799801e-38 261 280
-0.074032739 0.72799999 -0.051057063 1.2706513e-38 262 280
-0.072756313 0.72799999 -0.051057063 1.3167492e-38 263 280
-0.071479887 0.72799999 -0.051057063 1.6028404e-38 264 280
-0.070203468 0.72799999 -0.051057063 1.8148904e-38 265 280
-0.06883236 0.727 -0.050986931 1.8151383e-38 266 280
-0.067557678 0.727 -0.050986931 1.8796753e-38 267 280
-0.06628301 0.727 -0.050986931 2.0274737e-38 268 280
-0.065008335 0.727 -0.050986931 2.0827911e-38 269 280
-0.051477864 0.73400003 -0.051477864 2.1381435e-38 280 280
-0.050190922 0.73400003 -0.051477864 2.1934609e-38 281 280
-0.048903972 0.73400003 -0.051477864 2.2303398e-38 282 280
-0.047422405 0.73100001 -0.051267464 2.2764016e-38 283 280
-0.046140719 0.73100001 -0.051267464 2.3133878e-38 284 280
-0.044981763 0.73299998 -0.051407732 2.3133878e-38 285 280
-0.043875411 0.736 -0.051618133 2.2675774e-38 286 280
-0.042584959 0.736 -0.051618133 2.2583578e-38 287 280
-0.041294504 0.736 -0.051618133 2.2305915e-38 288 280
-0.040004052 0.736 -0.051618133 2.1844938e-38 289 280
-0.038818799 0.73799998 -0.051758397 2.1292486e-38 290 280
-0.037524838 0.73799998 -0.051758397 2.1108095e-38 291 280
-0.036230877 0.73799998 -0.051758397 2.0739325e-38 292 280
-0.034936916 0.73799998 -0.051758397 2.0554934e-38 293 280
-0.033642959 0.73799998 -0.051758397 1.9450054e-38 294 280
-0.032392833 0.73900002 -0.051828533 1.6960772e-38 295 280
-0.031055039 0.73799998 -0.051758397 1.4548967e-38 296 280
-0.029761078 0.73799998 -0.051758397 1.4364217e-38 297 280
-0.028389972 0.736 -0.051618133 1.5464822e-38 298 280
-0.02709952 0.736 -0.051618133 1.5557018e-38 299 280
-0.025809066 0.736 -0.051618133 1.5188959e-38 300 280
-0.024518613 0.736 -0.051618133 1.5188959e-38 301 280
-0.023228159 0.736 -0.051618133 1.5464822e-38 302 280
-0.021937706 0.736 -0.051618133 1.5464822e-38 303 280
-0.020787518 0.741 -0.051968798 1.4729775e-38 304 280
-0.016958239 0.74400002 -0.052179199 1.4453193e-38 307 280
-0.015653761 0.74400002 -0.052179199 1.463758e-38 308 280
-0.01434928 0.74400002 -0.052179199 1.463758e-38 309 280
-0.013009733 0.74199998 -0.05203893 1.427095e-38 310 280
-0.01170876 0.74199998 -0.05203893 1.4178753e-38 311 280
-0.010407786 0.74199998 -0.05203893 1.3996877e-38 312 280
-0.009106813 0.74199998 -0.05203893 1.3996877e-38 313 280
-0.0078058392 0.74199998 -0.05203893 1.4000103e-38 314 280
-0.0065223998 0.74400002 -0.052179199 1.40923e-38 315 280
-0.097008422 0.72799999 -0.052333489 2.0919759e-38 244 281
-0.095731996 0.72799999 -0.052333489 2.0642814e-38 245 281
-0.09445557 0.72799999 -0.052333489 1.8989779e-38 246 281
-0.093179137 0.72799999 -0.052333489 1.8252214e-38 247 281
-0.091902718 0.72799999 -0.052333489 1.8251866e-38 248 281
-0.090626292 0.72799999 -0.052333489 1.8067116e-38 249 281
-0.089227132 0.727 -0.052261602 1.7045802e-38 250 281
-0.087952457 0.727 -0.052261602 1.3357977e-38 251 281
-0.086677782 0.727 -0.052261602 1.4090174e-38 252 281
-0.085403107 0.727 -0.052261602 1.4458596e-38 253 281
-0.084128432 0.727 -0.052261602 1.3721031e-38 254 281
-0.082853764 0.727 -0.052261602 1.3444804e-38 255 281
-0.081579089 0.727 -0.052261602 1.3444448e-38 256 281
-0.080304414 0.727 -0.052261602 1.3075665e-38 257 281
-0.07913845 0.72799999 -0.052333489 1.2704731e-38 258 281
-0.077862024 0.72799999 -0.052333489 1.4272415e-38 259 281
-0.076585598 0.72799999 -0.052333489 1.4090542e-38 260 281
-0.075309172 0.72799999 -0.052333489 1.2799803e-38 261 281
-0.074032739 0.72799999 -0.052333489 1.3167492e-38 262 281
-0.072756313 0.72799999 -0.052333489 1.4181642e-38 263 281
-0.071479887 0.72799999 -0.052333489 1.6578705e-38 264 281
-0.070107035 0.727 -0.052261602 1.7593215e-38 265 281
-0.06883236 0.727 -0.052261602 1.685742e-38 266 281
-0.067557678 0.727 -0.052261602 1.8332909e-38 267 281
-0.06628301 0.727 -0.052261602 2.0182191e-38 268 281
-0.065008335 0.727 -0.052261602 2.0827561e-38 269 281
-0.055338707 0.73400003 -0.052764814 2.230195e-38 277 281
-0.054051761 0.73400003 -0.052764814 2.2673256e-38 278 281
-0.052764814 0.73400003 -0.052764814 2.2949484e-38 279 281
-0.051477864 0.73400003 -0.052764814 2.2859089e-38 280 281
-0.050190922 0.73400003 -0.052764814 2.2859089e-38 281 281
-0.048903972 0.73400003 -0.052764814 2.3133875e-38 282 281
-0.04755215 0.73299998 -0.052692924 2.2949484e-38 283 281
-0.046266954 0.73299998 -0.052692924 2.2304112e-38 284 281
-0.045043133 0.73400003 -0.052764814 2.1566545e-38 285 281
-0.043875411 0.736 -0.052908584 2.0922978e-38 286 281
-0.042584959 0.736 -0.052908584 2.0554197e-38 287 281
-0.041294504 0.736 -0.052908584 2.0185063e-38 288 281
-0.040004052 0.736 -0.052908584 1.981628e-38 289 281
-0.038818799 0.73799998 -0.053052358 1.9449661e-38 290 281
-0.037524838 0.73799998 -0.053052358 1.926563e-38 291 281
-0.036230877 0.73799998 -0.053052358 1.9356391e-38 292 281
-0.034936916 0.73799998 -0.053052358 1.9264195e-38 293 281
-0.033642959 0.73799998 -0.053052358 1.8619924e-38 294 281
-0.032392833 0.73900002 -0.053124249 1.6683816e-38 295 281
-0.03109712 0.73900002 -0.053124249 1.5474861e-38 296 281
-0.029801406 0.73900002 -0.053124249 1.5567417e-38 297 281
-0.028467119 0.73799998 -0.053052358 1.6484341e-38 298 281
-0.027173158 0.73799998 -0.053052358 1.6669091e-38 299 281
-0.025914267 0.73900002 -0.053124249 1.6116636e-38 300 281
-0.024618553 0.73900002 -0.053124249 1.5840051e-38 301 281
-0.023385961 0.741 -0.053268019 1.5473063e-38 302 281
-0.02208674 0.741 -0.053268019 1.5196475e-38 303 281
-0.097008422 0.72799999 -0.053609919 2.0920479e-38 244 282
-0.095731996 0.72799999 -0.053609919 2.0551697e-38 245 282
-0.09445557 0.72799999 -0.053609919 1.9448239e-38 246 282
-0.093179137 0.72799999 -0.053609919 1.8710674e-38 247 282
-0.091902718 0.72799999 -0.053609919 1.8158243e-38 248 282
-0.090501808 0.727 -0.053536277 1.7236286e-38 249 282
-0.089227132 0.727 -0.053536277 1.5847628e-38 250 282
-0.0877105 0.72500002 -0.053388998 1.2897369e-38 251 282
-0.086439334 0.72500002 -0.053388998 1.4457877e-38 252 282
-0.085168168 0.72500002 -0.053388998 1.4550432e-38 253 282
-0.084128432 0.727 -0.053536277 1.3627396e-38 254 282
-0.082853764 0.727 -0.053536277 1.3443005e-38 255 282
-0.081579089 0.727 -0.053536277 1.3812513e-38 256 282
-0.080304414 0.727 -0.053536277 1.3167144e-38 257 282
-0.07913845 0.72799999 -0.053609919 1.2428507e-38 258 282
-0.077862024 0.72799999 -0.053609919 1.4087668e-38 259 282
-0.076585598 0.72799999 -0.053609919 1.4548644e-38 260 282
-0.075309172 0.72799999 -0.053609919 1.2981677e-38 261 282
-0.074032739 0.72799999 -0.053609919 1.3350085e-38 262 282
-0.072756313 0.72799999 -0.053609919 1.4456431e-38 263 282
-0.071479887 0.72799999 -0.053609919 1.6394676e-38 264 282
-0.070107035 0.727 -0.053536277 1.7408468e-38 265 282
-0.06883236 0.727 -0.053536277 1.6488645e-38 266 282
-0.067557678 0.727 -0.053536277 1.7779383e-38 267 282
-0.06628301 0.727 -0.053536277 2.1285662e-38 268 282
-0.065008335 0.727 -0.053536277 2.1562609e-38 269 282
-0.064084329 0.73100001 -0.053830836 2.1746975e-38 270 282
-0.062802643 0.73100001 -0.053830836 2.1839171e-38 271 282
-0.060651302 0.736 -0.05419904 2.1932438e-38 273 282
-0.059360851 0.736 -0.05419904 2.202464e-38 274 282
-0.058070395 0.736 -0.05419904 2.2116835e-38 275 282
-0.056779943 0.736 -0.05419904 2.2393789e-38 276 282
-0.055338707 0.73400003 -0.054051761 2.2854767e-38 277 282
-0.054051761 0.73400003 -0.054051761 2.2855493e-38 278 282
-0.052764814 0.73400003 -0.054051761 2.2763298e-38 279 282
-0.051477864 0.73400003 -0.054051761 2.2303394e-38 280 282
-0.050190922 0.73400003 -0.054051761 2.2119003e-38 281 282
-0.048903972 0.73400003 -0.054051761 2.1567628e-38 282 282
-0.047617026 0.73400003 -0.054051761 2.1383237e-38 283 282
-0.046330083 0.73400003 -0.054051761 2.0738231e-38 284 282
-0.045043133 0.73400003 -0.054051761 2.0369807e-38 285 282
-0.043875411 0.736 -0.05419904 1.9910271e-38 286 282
-0.042700678 0.73799998 -0.054346316 1.9541488e-38 287 282
-0.041406717 0.73799998 -0.054346316 1.9356025e-38 288 282
-0.040112756 0.73799998 -0.054346316 1.9263829e-38 289 282
-0.038818799 0.73799998 -0.054346316 1.926203e-38 290 282
-0.037524838 0.73799998 -0.054346316 1.8893249e-38 291 282
-0.036230877 0.73799998 -0.054346316 1.8616295e-38 292 282
-0.034984261 0.73900002 -0.054419957 1.8431545e-38 293 282
-0.033688545 0.73900002 -0.054419957 1.7785472e-38 294 282
-0.032392833 0.73900002 -0.054419957 1.6587288e-38 295 282
-0.03109712 0.73900002 -0.054419957 1.5478086e-38 296 282
-0.097008422 0.72799999 -0.054886345 2.0827926e-38 244 283
-0.095731996 0.72799999 -0.054886345 2.0643895e-38 245 283
-0.09445557 0.72799999 -0.054886345 1.9632634e-38 246 283
-0.09305115 0.727 -0.054810952 1.8618122e-38 247 283
-0.091776483 0.727 -0.054810952 1.8156799e-38 248 283
-0.090501808 0.727 -0.054810952 1.6405084e-38 249 283
-0.088981666 0.72500002 -0.054660168 1.5199017e-38 250 283
-0.0877105 0.72500002 -0.054660168 1.3355463e-38 251 283
-0.086200871 0.72299999 -0.054509375 1.445823e-38 252 283
-0.084933214 0.72299999 -0.054509375 1.4827012e-38 253 283
-0.083897002 0.72500002 -0.054660168 1.3534835e-38 254 283
-0.082853764 0.727 -0.054810952 1.3534835e-38 255 283
-0.081579089 0.727 -0.054810952 1.3996176e-38 256 283
-0.080304414 0.727 -0.054810952 1.3535198e-38 257 283
-0.07913845 0.72799999 -0.054886345 1.2612888e-38 258 283
-0.077862024 0.72799999 -0.054886345 1.3719596e-38 259 283
-0.076585598 0.72799999 -0.054886345 1.4637953e-38 260 283
-0.075309172 0.72799999 -0.054886345 1.3808192e-38 261 283
-0.074032739 0.72799999 -0.054886345 1.3533753e-38 262 283
-0.072756313 0.72799999 -0.054886345 1.4363514e-38 263 283
-0.071479887 0.72799999 -0.054886345 1.6117366e-38 264 283
-0.070203468 0.72799999 -0.054886345 1.731591e-38 265 283
-0.06883236 0.727 -0.054810952 1.6395003e-38 266 283
-0.067557678 0.727 -0.054810952 1.7870133e-38 267 283
-0.066374183 0.72799999 -0.054886345 2.1653723e-38 268 283
-0.065097757 0.72799999 -0.054886345 2.2299092e-38 269 283
-0.063996665 0.73000002 -0.055037133 2.2023918e-38 270 283
-0.062802643 0.73100001 -0.055112526 2.2023918e-38 271 283
-0.061689276 0.73299998 -0.055263311 2.1656209e-38 272 283
-0.060486492 0.73400003 -0.055338707 2.184024e-38 273 283
-0.059199546 0.73400003 -0.055338707 2.1841325e-38 274 283
-0.057912603 0.73400003 -0.055338707 2.193352e-38 275 283
-0.056779943 0.736 -0.055489492 2.2026805e-38 276 283
-0.055489492 0.736 -0.055489492 2.2119e-38 277 283
-0.054051761 0.73400003 -0.055338707 2.1841341e-38 278 283
-0.052764814 0.73400003 -0.055338707 2.1380363e-38 279 283
-0.051477864 0.73400003 -0.055338707 2.0735359e-38 280 283
-0.050327681 0.736 -0.055489492 2.027474e-38 281 283
-0.049037226 0.736 -0.055489492 1.9539337e-38 282 283
-0.047746774 0.736 -0.055489492 1.9539337e-38 283 283
-0.046456318 0.736 -0.055489492 1.9263829e-38 284 283
-0.045165867 0.736 -0.055489492 1.9079437e-38 285 283
-0.043875411 0.736 -0.055489492 1.8620611e-38 286 283
-0.097008422 0.72799999 -0.056162767 2.1197069e-38 244 284
-0.095731996 0.72799999 -0.056162767 2.1104515e-38 245 284
-0.09445557 0.72799999 -0.056162767 1.9725902e-38 246 284
-0.09305115 0.727 -0.056085624 1.8342967e-38 247 284
-0.091776483 0.727 -0.056085624 1.8248994e-38 248 284
-0.090501808 0.727 -0.056085624 1.6589471e-38 249 284
-0.088981666 0.72500002 -0.055931333 1.5474881e-38 250 284
-0.0877105 0.72500002 -0.055931333 1.3999749e-38 251 284
-0.086200871 0.72299999 -0.055777039 1.4460379e-38 252 284
-0.084933214 0.72299999 -0.055777039 1.4368183e-38 253 284
-0.083897002 0.72500002 -0.055931333 1.3351513e-38 254 284
-0.082853764 0.727 -0.056085624 1.3443709e-38 255 284
-0.081579089 0.727 -0.056085624 1.3630265e-38 256 284
-0.080304414 0.727 -0.056085624 1.3353678e-38 257 284
-0.07913845 0.72799999 -0.056162767 1.3259687e-38 258 284
-0.077862024 0.72799999 -0.056162767 1.3812861e-38 259 284
-0.076585598 0.72799999 -0.056162767 1.4178769e-38 260 284
-0.075309172 0.72799999 -0.056162767 1.3902541e-38 261 284
-0.074032739 0.72799999 -0.056162767 1.4547179e-38 262 284
-0.072756313 0.72799999 -0.056162767 1.4916322e-38 263 284
-0.071479887 0.72799999 -0.056162767 1.6670537e-38 264 284
-0.070203468 0.72799999 -0.056162767 1.7776884e-38 265 284
-0.068927035 0.72799999 -0.056162767 1.7130414e-38 266 284
-0.067650609 0.72799999 -0.056162767 1.8144925e-38 267 284
-0.066556528 0.73000002 -0.056317069 2.1193103e-38 268 284
-0.0652766 0.73000002 -0.056317069 2.1193103e-38 269 284
-0.063996665 0.73000002 -0.056317069 2.0365838e-38 270 284
-0.062974468 0.73299998 -0.056548502 2.0273643e-38 271 284
-0.061689276 0.73299998 -0.056548502 2.0182526e-38 272 284
-0.060486492 0.73400003 -0.056625653 2.0366557e-38 273 284
-0.059199546 0.73400003 -0.056625653 1.9724791e-38 274 284
-0.057912603 0.73400003 -0.056625653 1.9816986e-38 275 284
-0.056625653 0.73400003 -0.056625653 1.9632961e-38 276 284
-0.098959878 0.73299998 -0.057833698 2.1288536e-38 243 285
-0.097008422 0.72799999 -0.057439197 2.1843155e-38 244 285
-0.095731996 0.72799999 -0.057439197 2.1289981e-38 245 285
-0.09445557 0.72799999 -0.057439197 2.0277627e-38 246 285
-0.09305115 0.727 -0.057360299 1.9263476e-38 247 285
-0.091776483 0.727 -0.057360299 1.8799646e-38 248 285
-0.090501808 0.727 -0.057360299 1.7048288e-38 249 285
-0.088981666 0.72500002 -0.057202499 1.6212446e-38 250 285
-0.0877105 0.72500002 -0.057202499 1.5290488e-38 251 285
-0.086200871 0.72299999 -0.057044696 1.5471647e-38 252 285
-0.084933214 0.72299999 -0.057044696 1.5379092e-38 253 285
-0.083897002 0.72500002 -0.057202499 1.4732642e-38 254 285
-0.082625829 0.72500002 -0.057202499 1.4548611e-38 255 285
-0.081579089 0.727 -0.057360299 1.4641893e-38 256 285
-0.080304414 0.727 -0.057360299 1.4365665e-38 257 285
-0.07913845 0.72799999 -0.057439197 1.464118e-38 258 285
-0.077862024 0.72799999 -0.057439197 1.4364233e-38 259 285
-0.076585598 0.72799999 -0.057439197 1.4362071e-38 260 285
-0.075309172 0.72799999 -0.057439197 1.5745006e-38 261 285
-0.074032739 0.72799999 -0.057439197 1.5656754e-38 262 285
-0.072756313 0.72799999 -0.057439197 1.5564558e-38 263 285
-0.071479887 0.72799999 -0.057439197 1.685385e-38 264 285
-0.070203468 0.72799999 -0.057439197 1.768361e-38 265 285
-0.068927035 0.72799999 -0.057439197 1.6946749e-38 266 285
-0.067836471 0.73000002 -0.057597004 1.7684314e-38 267 285
-0.066556528 0.73000002 -0.057597004 2.0087126e-38 268 285
-0.065366022 0.73100001 -0.057675898 2.0179321e-38 269 285
-0.064084329 0.73100001 -0.057675898 1.9259861e-38 270 285
-0.097008422 0.72799999 -0.058715623 2.110954e-38 244 286
-0.095731996 0.72799999 -0.058715623 2.1017344e-38 245 286
-0.09445557 0.72799999 -0.058715623 2.1565846e-38 246 286
-0.09305115 0.727 -0.058634974 2.1289618e-38 247 286
-0.091776483 0.727 -0.058634974 2.0272979e-38 248 286
-0.090501808 0.727 -0.058634974 1.704649e-38 249 286
-0.089227132 0.727 -0.058634974 1.6670903e-38 250 286
-0.0877105 0.72500002 -0.058473669 1.6210284e-38 251 286
-0.086439334 0.72500002 -0.058473669 1.6203458e-38 252 286
-0.085168168 0.72500002 -0.058473669 1.6296012e-38 253 286
-0.083897002 0.72500002 -0.058473669 1.7774733e-38 254 286
-0.082625829 0.72500002 -0.058473669 1.7866928e-38 255 286
-0.081579089 0.727 -0.058634974 1.6576192e-38 256 286
-0.080304414 0.727 -0.058634974 1.5285453e-38 257 286
-0.07913845 0.72799999 -0.058715623 1.5743207e-38 258 286
-0.077862024 0.72799999 -0.058715623 1.5190033e-38 259 286
-0.076585598 0.72799999 -0.058715623 1.528186e-38 260 286
-0.075309172 0.72799999 -0.058715623 1.7771142e-38 261 286
-0.074032739 0.72799999 -0.058715623 1.6947849e-38 262 286
-0.072756313 0.72799999 -0.058715623 1.6117729e-38 263 286
