# .PCD v.7 - Point Cloud Data file format
FIELDS x y z rgb imX imY
SIZE 4 4 4 4 4 4
TYPE F F F F F F
COUNT 1 1 1 1 1 1
WIDTH 848
HEIGHT 1
VIEWPOINT 0 0 0 1 0 0 0
POINTS 848
DATA ascii
0.01870456 0.76200002 -0.0080162399 1.0046472e-38 334 246
0.0200406 0.76200002 -0.0080162399 1.1890385e-38 335 246
0.02137664 0.76200002 -0.0080162399 1.7973106e-38 336 246
0.022772292 0.764 -0.0080372803 1.3087098e-38 337 246
0.024111839 0.764 -0.0080372803 1.0966225e-38 338 246
0.025451386 0.764 -0.0080372803 1.4469299e-38 339 246
0.026861066 0.76599997 -0.0080583189 1.5580343e-38 340 246
0.02824094 0.76700002 -0.00806884 1.6225712e-38 341 246
0.029585747 0.76700002 -0.00806884 1.5193548e-38 342 246
0.030930554 0.76700002 -0.00806884 1.0860353e-38 343 246
0.03227536 0.76700002 -0.00806884 1.1973185e-38 344 246
0.033795502 0.77100003 -0.0081109209 1.5107836e-38 345 246
0.03514732 0.77100003 -0.0081109209 1.5851537e-38 346 246
0.036499143 0.77100003 -0.0081109209 1.1979321e-38 347 246
0.037850961 0.77100003 -0.0081109209 1.2586537e-38 348 246
0.039304473 0.773 -0.0081319595 1.2402506e-38 349 246
0.0406598 0.773 -0.0081319595 1.1135167e-38 350 246
0.042286891 0.778 -0.0081845606 1.5837145e-38 351 246
0.043763198 0.77999997 -0.0082055992 1.3451947e-38 352 246
0.04530438 0.78299999 -0.0082371598 6.9060571e-39 353 246
0.046796467 0.78500003 -0.0082582003 1.2955695e-38 354 246
0.048295565 0.787 -0.0082792398 1.2771304e-38 355 246
0.049675439 0.787 -0.0082792398 1.1941521e-38 356 246
0.051185057 0.78899997 -0.0083002793 1.1480903e-38 357 246
0.052568436 0.78899997 -0.0083002793 1.1767561e-38 358 246
0.053951818 0.78899997 -0.0083002793 1.6008919e-38 359 246
0.010590133 0.755 -0.0092663663 7.9216789e-39 328 247
0.011913899 0.755 -0.0092663663 8.1057101e-39 329 247
0.0133078 0.759 -0.00931546 6.0817096e-39 330 247
0.014677152 0.76099998 -0.0093400059 5.5285358e-39 331 247
0.016011439 0.76099998 -0.0093400059 1.0503129e-38 332 247
0.017345725 0.76099998 -0.0093400059 1.3453747e-38 333 247
0.018680012 0.76099998 -0.0093400059 1.2989892e-38 334 247
0.020014299 0.76099998 -0.0093400059 1.3635262e-38 335 247
0.02137664 0.76200002 -0.0093522798 1.6776715e-38 336 247
0.02271268 0.76200002 -0.0093522798 1.4932803e-38 337 247
0.024111839 0.764 -0.0093768267 1.2059234e-38 338 247
0.025451386 0.764 -0.0093768267 1.1967038e-38 339 247
0.026861066 0.76599997 -0.0094013726 1.3458041e-38 340 247
0.028204117 0.76599997 -0.0094013726 1.6961475e-38 341 247
0.029585747 0.76700002 -0.0094136465 1.7047544e-38 342 247
0.030930554 0.76700002 -0.0094136465 1.1792393e-38 343 247
0.03227536 0.76700002 -0.0094136465 1.1131179e-38 344 247
0.033707831 0.76899999 -0.0094381925 1.4265831e-38 345 247
0.03514732 0.77100003 -0.0094627403 1.5944099e-38 346 247
0.036499143 0.77100003 -0.0094627403 1.4469329e-38 347 247
0.037850961 0.77100003 -0.0094627403 1.1866243e-38 348 247
0.03920278 0.77100003 -0.0094627403 1.0668059e-38 349 247
0.0406598 0.773 -0.0094872871 1.0770323e-38 350 247
0.042178184 0.77600002 -0.009524107 1.4550343e-38 351 247
0.043763198 0.77999997 -0.0095731998 1.3633447e-38 352 247
0.04530438 0.78299999 -0.0096100196 7.3641443e-39 353 247
0.046796467 0.78500003 -0.0096345674 1.2864576e-38 354 247
0.048172832 0.78500003 -0.0096345674 1.2403598e-38 355 247
0.049675439 0.787 -0.0096591124 1.1666716e-38 356 247
0.051185057 0.78899997 -0.0096836593 1.0561088e-38 357 247
0.052568436 0.78899997 -0.0096836593 1.2325038e-38 358 247
0.053951818 0.78899997 -0.0096836593 1.7211046e-38 359 247
0.0052529867 0.74900001 -0.010505973 1.6866781e-38 324 248
0.0065662335 0.74900001 -0.010505973 1.1242847e-38 325 248
0.0078794798 0.74900001 -0.010505973 8.2890069e-39 326 248
0.0091927266 0.74900001 -0.010505973 6.7220413e-39 327 248
0.010590133 0.755 -0.010590133 5.5271037e-39 328 248
0.011913899 0.755 -0.010590133 5.7118537e-39 329 248
0.0133078 0.759 -0.01064624 7.8345028e-39 330 248
0.014638579 0.759 -0.01064624 8.9408503e-39 331 248
0.015969358 0.759 -0.01064624 1.3915076e-38 332 248
0.017300138 0.759 -0.01064624 1.594338e-38 333 248
0.01863092 0.759 -0.01064624 1.5383369e-38 334 248
0.0199617 0.759 -0.01064624 1.3447261e-38 335 248
0.02129248 0.759 -0.01064624 1.4194537e-38 336 248
0.022563647 0.75700003 -0.010618187 1.6776015e-38 337 248
0.02389092 0.75700003 -0.010618187 1.7781843e-38 338 248
0.025451386 0.764 -0.010716373 9.2076491e-39 339 248
0.026790932 0.764 -0.010716373 9.393132e-39 340 248
0.028130481 0.764 -0.010716373 1.4924871e-38 341 248
0.029547172 0.76599997 -0.010744425 1.5392371e-38 342 248
0.030890226 0.76599997 -0.010744425 1.4654806e-38 343 248
0.032233275 0.76599997 -0.010744425 1.149353e-38 344 248
0.033620168 0.76700002 -0.010758453 1.0664129e-38 345 248
0.034964975 0.76700002 -0.010758453 1.4557559e-38 346 248
0.036404461 0.76899999 -0.010786506 1.5110732e-38 347 248
0.03775277 0.76899999 -0.010786506 1.2058211e-38 348 248
0.03920278 0.77100003 -0.01081456 1.2058211e-38 349 248
0.040554602 0.77100003 -0.01081456 1.2894828e-38 350 248
0.042015124 0.773 -0.010842613 1.4277763e-38 351 248
0.043538772 0.77600002 -0.010884693 1.3814969e-38 352 248
0.045130797 0.77999997 -0.010940799 7.2690788e-39 353 248
0.046677239 0.78299999 -0.010982879 1.2859534e-38 354 248
0.048172832 0.78500003 -0.011010934 1.2951729e-38 355 248
0.049675439 0.787 -0.011038986 1.1389057e-38 356 248
0.051185057 0.78899997 -0.011067039 1.0377417e-38 357 248
0.052568436 0.78899997 -0.011067039 1.3160192e-38 358 248
0.053951818 0.78899997 -0.011067039 1.7769974e-38 359 248
0.0039292197 0.74699998 -0.011787659 1.5671105e-38 323 249
0.0052389596 0.74699998 -0.011787659 1.3176089e-38 324 249
0.0065486995 0.74699998 -0.011787659 9.1194794e-39 325 249
0.0078584393 0.74699998 -0.011787659 6.5419787e-39 326 249
0.0091681797 0.74699998 -0.011787659 5.8966093e-39 327 249
0.010505973 0.74900001 -0.01181922 7.0065428e-39 328 249
0.01189812 0.75400001 -0.01189812 8.6657054e-39 329 249
0.013220133 0.75400001 -0.01189812 1.0866156e-38 330 249
0.014542146 0.75400001 -0.01189812 1.1788112e-38 331 249
0.01586416 0.75400001 -0.01189812 1.5944096e-38 332 249
0.017186172 0.75400001 -0.01189812 1.6128846e-38 333 249
0.018508185 0.75400001 -0.01189812 1.3890599e-38 334 249
0.019830201 0.75400001 -0.01189812 1.2876808e-38 335 249
0.021152213 0.75400001 -0.01189812 1.2430588e-38 336 249
0.022474226 0.75400001 -0.01189812 1.7316956e-38 337 249
0.02379624 0.75400001 -0.01189812 1.7696499e-38 338 249
0.025284819 0.759 -0.01197702 1.4193426e-38 339 249
0.026685731 0.76099998 -0.012008579 1.1774387e-38 340 249
0.028056841 0.76200002 -0.01202436 1.3433549e-38 341 249
0.029392879 0.76200002 -0.01202436 1.3549533e-38 342 249
0.030890226 0.76599997 -0.012087479 1.5485641e-38 343 249
0.032149121 0.764 -0.01205592 1.2332654e-38 344 249
0.033488665 0.764 -0.01205592 7.4462856e-39 345 249
0.034964975 0.76700002 -0.01210326 1.380307e-38 346 249
0.036309779 0.76700002 -0.01210326 1.4725385e-38 347 249
0.03775277 0.76899999 -0.012134819 1.2411876e-38 348 249
0.039101087 0.76899999 -0.012134819 1.462493e-38 349 249
0.040554602 0.77100003 -0.01216638 1.3999028e-38 350 249
0.042015124 0.773 -0.012197939 1.3445854e-38 351 249
0.043426558 0.77399999 -0.01221372 1.3438982e-38 352 249
0.044899363 0.77600002 -0.01224528 7.8150485e-39 353 249
0.046558015 0.78100002 -0.01232418 1.2398543e-38 354 249
0.048050098 0.78299999 -0.012355739 1.2951717e-38 355 249
0.0495492 0.78500003 -0.0123873 1.1299373e-38 356 249
0.051185057 0.78899997 -0.012450419 1.0746199e-38 357 249
0.052568436 0.78899997 -0.012450419 1.4455614e-38 358 249
0.053951818 0.78899997 -0.012450419 1.8512222e-38 359 249
0.0026194798 0.74699998 -0.013097399 1.6133529e-38 322 250
0.0039292197 0.74699998 -0.013097399 1.1800334e-38 323 250
0.0052389596 0.74699998 -0.013097399 7.6454228e-39 324 250
0.0065486995 0.74699998 -0.013097399 6.7234665e-39 325 250
0.0078584393 0.74699998 -0.013097399 5.8022458e-39 326 250
0.0091681797 0.74699998 -0.013097399 8.6606691e-39 327 250
0.010477919 0.74699998 -0.013097399 1.124286e-38 328 250
0.011866559 0.75199997 -0.013185065 1.2349568e-38 329 250
0.013220133 0.75400001 -0.013220133 1.2152191e-38 330 250
0.014542146 0.75400001 -0.013220133 1.1967799e-38 331 250
0.01586416 0.75400001 -0.013220133 1.6682349e-38 332 250
0.017186172 0.75400001 -0.013220133 1.557636e-38 333 250
0.018508185 0.75400001 -0.013220133 1.2315698e-38 334 250
0.0197776 0.75199997 -0.013185065 9.8264177e-39 335 250
0.021096105 0.75199997 -0.013185065 1.0203144e-38 336 250
0.022414612 0.75199997 -0.013185065 1.6288414e-38 337 250
0.02379624 0.75400001 -0.013220133 1.5396337e-38 338 250
0.025118252 0.75400001 -0.013220133 1.613426e-38 339 250
0.026545467 0.75700003 -0.013272733 1.6303505e-38 340 250
0.027946379 0.759 -0.0133078 9.7576154e-39 341 250
0.029354304 0.76099998 -0.013342866 1.0227954e-38 342 250
0.030728921 0.76200002 -0.0133604 1.5298714e-38 343 250
0.032149121 0.764 -0.013395466 1.3169599e-38 344 250
0.033488665 0.764 -0.013395466 8.652372e-39 345 250
0.034919381 0.76599997 -0.013430533 1.3140807e-38 346 250
0.036309779 0.76700002 -0.013448066 1.2587992e-38 347 250
0.037654586 0.76700002 -0.013448066 1.2306387e-38 348 250
0.038999394 0.76700002 -0.013448066 1.5717265e-38 349 250
0.0404494 0.76899999 -0.013483133 1.427056e-38 350 250
0.042015124 0.773 -0.013553266 1.2518843e-38 351 250
0.043370452 0.773 -0.013553266 1.2319328e-38 352 250
0.044783637 0.77399999 -0.013570799 9.4616233e-39 353 250
0.046379171 0.778 -0.013640933 1.2307439e-38 354 250
0.047927368 0.78100002 -0.013693534 1.3505982e-38 355 250
0.049422957 0.78299999 -0.013728599 1.1031796e-38 356 250
0.051055312 0.787 -0.013798732 1.1861558e-38 357 250
0.052435186 0.787 -0.013798732 1.5567738e-38 358 250
0.053951818 0.78899997 -0.013833799 1.8794585e-38 359 250
0.0013079866 0.74599999 -0.014387853 1.6500867e-38 321 251
0.0026159731 0.74599999 -0.014387853 1.1521955e-38 322 251
0.0039292197 0.74699998 -0.014407139 7.83413e-39 323 251
0.0052389596 0.74699998 -0.014407139 5.2548188e-39 324 251
0.0065486995 0.74699998 -0.014407139 7.5597109e-39 325 251
0.0078584393 0.74699998 -0.014407139 1.0135424e-38 326 251
0.0091681797 0.74699998 -0.014407139 1.2255923e-38 327 251
0.010477919 0.74699998 -0.014407139 1.3903201e-38 328 251
0.011835 0.75 -0.014465 1.4364178e-38 329 251
0.01315 0.75 -0.014465 1.2062509e-38 330 251
0.014503572 0.75199997 -0.014503572 1.1140553e-38 331 251
0.015822079 0.75199997 -0.014503572 1.5854036e-38 332 251
0.017140586 0.75199997 -0.014503572 1.6499405e-38 333 251
0.018508185 0.75400001 -0.014542146 1.5104246e-38 334 251
0.0197776 0.75199997 -0.014503572 1.2983746e-38 335 251
0.021096105 0.75199997 -0.014503572 1.3161319e-38 336 251
0.022414612 0.75199997 -0.014503572 1.2700342e-38 337 251
0.02379624 0.75400001 -0.014542146 9.7828359e-39 338 251
0.025118252 0.75400001 -0.014542146 1.3839444e-38 339 251
0.026475333 0.755 -0.014561433 1.6681661e-38 340 251
0.027872739 0.75700003 -0.014600007 1.2717249e-38 341 251
0.029200014 0.75700003 -0.014600007 1.1424701e-38 342 251
0.030688593 0.76099998 -0.014677152 1.3637397e-38 343 251
0.032064959 0.76200002 -0.01469644 1.2529974e-38 344 251
0.033488665 0.764 -0.014735013 8.5655616e-39 345 251
0.034828212 0.764 -0.014735013 1.2951729e-38 346 251
0.036262438 0.76599997 -0.014773586 1.3966242e-38 347 251
0.037605491 0.76599997 -0.014773586 1.3140809e-38 348 251
0.038999394 0.76700002 -0.014792874 1.3878375e-38 349 251
0.040344197 0.76700002 -0.014792874 1.3609348e-38 350 251
0.041797712 0.76899999 -0.014831445 1.2134216e-38 351 251
0.043258239 0.77100003 -0.01487002 1.2490771e-38 352 251
0.044783637 0.77399999 -0.014927879 1.1479489e-38 353 251
0.046140719 0.77399999 -0.014927879 1.1853671e-38 354 251
0.047743265 0.778 -0.015005025 1.4435148e-38 355 251
0.049296722 0.78100002 -0.015062887 1.3162022e-38 356 251
0.050925564 0.78500003 -0.015140033 1.4821545e-38 357 251
0.052301936 0.78500003 -0.015140033 1.5943011e-38 358 251
0.053951818 0.78899997 -0.015217179 1.7879119e-38 359 251
0 0.74599999 -0.015695838 1.7606497e-38 320 252
0.0013079866 0.74599999 -0.015695838 1.41949e-38 321 252
0.0026159731 0.74599999 -0.015695838 7.6486626e-39 322 252
0.0039239596 0.74599999 -0.015695838 6.7270664e-39 323 252
0.0052319462 0.74599999 -0.015695838 9.6687072e-39 324 252
0.0065399334 0.74599999 -0.015695838 1.1881044e-38 325 252
0.0078479191 0.74599999 -0.015695838 1.4644732e-38 326 252
0.0091559067 0.74599999 -0.015695838 1.2708624e-38 327 252
0.010463892 0.74599999 -0.015695838 1.2519521e-38 328 252
0.011787659 0.74699998 -0.015716879 1.5562337e-38 329 252
0.01315 0.75 -0.01578 1.4094053e-38 330 252
0.014465 0.75 -0.01578 1.2157944e-38 331 252
0.015822079 0.75199997 -0.015822079 1.4192384e-38 332 252
0.017140586 0.75199997 -0.015822079 1.723484e-38 333 252
0.018459093 0.75199997 -0.015822079 1.6960406e-38 334 252
0.0197776 0.75199997 -0.015822079 1.6591263e-38 335 252
0.02104 0.75 -0.01578 1.5388744e-38 336 252
0.022355 0.75 -0.01578 1.2991298e-38 337 252
0.023733119 0.75199997 -0.015822079 9.5001127e-39 338 252
0.025118252 0.75400001 -0.01586416 1.3095742e-38 339 252
0.026440267 0.75400001 -0.01586416 1.585695e-38 340 252
0.027799098 0.755 -0.015885198 1.4566212e-38 341 252
0.029200014 0.75700003 -0.015927281 1.4100171e-38 342 252
0.030607941 0.759 -0.015969358 1.3362606e-38 343 252
0.032022879 0.76099998 -0.016011439 1.298446e-38 344 252
0.033401001 0.76200002 -0.01603248 9.4813844e-39 345 252
0.034828212 0.764 -0.016074561 1.3418806e-38 346 252
0.036167759 0.764 -0.016074561 1.4525154e-38 347 252
0.037605491 0.76599997 -0.016116638 1.3699709e-38 348 252
0.038948543 0.76599997 -0.016116638 1.2961785e-38 349 252
0.040344197 0.76700002 -0.01613768 1.3322687e-38 350 252
0.041689005 0.76700002 -0.01613768 1.2308175e-38 351 252
0.043146025 0.76899999 -0.016179759 1.2673355e-38 352 252
0.044610061 0.77100003 -0.016221842 1.3225452e-38 353 252
0.046081103 0.773 -0.016263919 1.2684153e-38 354 252
0.047497798 0.77399999 -0.016284959 1.5818804e-38 355 252
0.049107358 0.778 -0.016369121 1.391004e-38 356 252
0.050601196 0.77999997 -0.016411198 1.6030541e-38 357 252
0.052035429 0.78100002 -0.016432239 1.613244e-38 358 252
-0.0013079866 0.74599999 -0.017003827 1.825258e-38 319 253
0 0.74599999 -0.017003827 1.4174046e-38 320 253
0.00130448 0.74400002 -0.016958239 9.9330467e-39 321 253
0.00260896 0.74400002 -0.016958239 7.0050924e-39 322 253
0.0039239596 0.74599999 -0.017003827 1.0785112e-38 323 253
0.0052319462 0.74599999 -0.017003827 1.4823365e-38 324 253
0.0065223998 0.74400002 -0.016958239 1.3163484e-38 325 253
0.0078268806 0.74400002 -0.016958239 1.4900442e-38 326 253
0.0091313599 0.74400002 -0.016958239 1.3794095e-38 327 253
0.01043584 0.74400002 -0.016958239 1.3359737e-38 328 253
0.011771879 0.74599999 -0.017003827 1.7969519e-38 329 253
0.013097399 0.74699998 -0.017026618 1.7421028e-38 330 253
0.014407139 0.74699998 -0.017026618 1.5853701e-38 331 253
0.015716879 0.74699998 -0.017026618 1.2254113e-38 332 253
0.017095 0.75 -0.017095 1.3083873e-38 333 253
0.018409999 0.75 -0.017095 1.4569077e-38 334 253
0.0196987 0.74900001 -0.017072206 1.5859816e-38 335 253
0.021011947 0.74900001 -0.017072206 1.6410822e-38 336 253
0.022325192 0.74900001 -0.017072206 1.6410822e-38 337 253
0.023669999 0.75 -0.017095 1.6678777e-38 338 253
0.025051624 0.75199997 -0.017140586 1.4281332e-38 339 253
0.026440267 0.75400001 -0.017186172 1.2265984e-38 340 253
0.027762281 0.75400001 -0.017186172 1.3648919e-38 341 253
0.029084291 0.75400001 -0.017186172 1.5760418e-38 342 253
0.030446632 0.755 -0.017208965 1.4930656e-38 343 253
0.031938717 0.759 -0.017300138 1.3342818e-38 344 253
0.033401001 0.76200002 -0.01736852 1.0945731e-38 345 253
0.034828212 0.764 -0.017414106 1.3798388e-38 346 253
0.036167759 0.764 -0.017414106 1.3613996e-38 347 253
0.037507307 0.764 -0.017414106 1.3517486e-38 348 253
0.038948543 0.76599997 -0.017459691 1.2503334e-38 349 253
0.040291596 0.76599997 -0.017459691 1.35085e-38 350 253
0.041689005 0.76700002 -0.017482487 1.2586543e-38 351 253
0.043033812 0.76700002 -0.017482487 1.2127361e-38 352 253
0.044494338 0.76899999 -0.017528072 1.5815186e-38 353 253
0.045961879 0.77100003 -0.01757366 1.3805241e-38 354 253
0.047436431 0.773 -0.017619247 1.6848055e-38 355 253
0.048981119 0.77600002 -0.017687626 1.5023219e-38 356 253
0.050471451 0.778 -0.017733213 1.5945175e-38 357 253
0.052035429 0.78100002 -0.017801592 1.6408671e-38 358 253
-0.0012992199 0.741 -0.018189078 1.5854048e-38 319 254
0 0.741 -0.018189078 1.0131092e-38 320 254
0.0012992199 0.741 -0.018189078 7.2726676e-39 321 254
0.00260896 0.74400002 -0.01826272 1.3445097e-38 322 254
0.0039134403 0.74400002 -0.01826272 1.399827e-38 323 254
0.0052179201 0.74400002 -0.01826272 1.6284781e-38 324 254
0.0065223998 0.74400002 -0.01826272 1.2965737e-38 325 254
0.0078058392 0.74199998 -0.018213626 1.4144865e-38 326 254
0.009106813 0.74199998 -0.018213626 1.995319e-38 327 254
0.010407786 0.74199998 -0.018213626 1.5107158e-38 328 254
0.01170876 0.74199998 -0.018213626 1.6397897e-38 329 254
0.0130448 0.74400002 -0.01826272 1.6039907e-38 330 254
0.01434928 0.74400002 -0.01826272 1.6777473e-38 331 254
0.015653761 0.74400002 -0.01826272 1.5298348e-38 332 254
0.017026618 0.74699998 -0.018336359 1.1517967e-38 333 254
0.018385453 0.74900001 -0.018385453 1.3356122e-38 334 254
0.0196987 0.74900001 -0.018385453 1.4831252e-38 335 254
0.021011947 0.74900001 -0.018385453 1.6397151e-38 336 254
0.022325192 0.74900001 -0.018385453 1.7595694e-38 337 254
0.023669999 0.75 -0.018409999 1.6589087e-38 338 254
0.025051624 0.75199997 -0.018459093 1.5574575e-38 339 254
0.026440267 0.75400001 -0.018508185 1.2991651e-38 340 254
0.027762281 0.75400001 -0.018508185 1.2346282e-38 341 254
0.029084291 0.75400001 -0.018508185 1.5926093e-38 342 254
0.030446632 0.755 -0.018532733 1.5926093e-38 343 254
0.031854562 0.75700003 -0.018581826 1.3799836e-38 344 254
0.033357166 0.76099998 -0.018680012 1.2416901e-38 345 254
0.034737039 0.76200002 -0.01870456 1.3892385e-38 346 254
0.036167759 0.764 -0.018753653 1.297007e-38 347 254
0.037507307 0.764 -0.018753653 1.387656e-38 348 254
0.038948543 0.76599997 -0.018802745 1.3692169e-38 349 254
0.040291596 0.76599997 -0.018802745 1.3507051e-38 350 254
0.041634649 0.76599997 -0.018802745 1.3691803e-38 351 254
0.042977702 0.76599997 -0.018802745 1.2959623e-38 352 254
0.044320758 0.76599997 -0.018802745 1.7753796e-38 353 254
0.045961879 0.77100003 -0.018925481 1.4000416e-38 354 254
0.047436431 0.773 -0.018974574 1.621311e-38 355 254
0.04885488 0.77399999 -0.018999118 1.4474729e-38 356 254
0.050471451 0.778 -0.019097306 1.5120099e-38 357 254
-0.0012957134 0.73900002 -0.0194357 1.0965525e-38 319 255
0 0.73900002 -0.0194357 1.2344494e-38 320 255
0.0012957134 0.73900002 -0.0194357 1.2897309e-38 321 255
0.0025914267 0.73900002 -0.0194357 1.5367502e-38 322 255
0.00388714 0.73900002 -0.0194357 1.2786383e-38 323 255
0.0052038929 0.74199998 -0.0195146 1.5707505e-38 324 255
0.0065048663 0.74199998 -0.0195146 1.4418201e-38 325 255
0.0077953199 0.741 -0.019488299 1.4145238e-38 326 255
0.0090945391 0.741 -0.019488299 1.9769171e-38 327 255
0.010393759 0.741 -0.019488299 1.3986045e-38 328 255
0.01169298 0.741 -0.019488299 1.1127621e-38 329 255
0.013009733 0.74199998 -0.0195146 1.1332526e-38 330 255
0.014310705 0.74199998 -0.0195146 1.548097e-38 331 255
0.015611678 0.74199998 -0.0195146 1.7144793e-38 332 255
0.017003827 0.74599999 -0.019619798 1.4932099e-38 333 255
0.018336359 0.74699998 -0.019646099 1.2873908e-38 334 255
0.019619798 0.74599999 -0.019619798 1.0108398e-38 335 255
0.020927785 0.74599999 -0.019619798 1.2588689e-38 336 255
0.022265578 0.74699998 -0.019646099 1.5262363e-38 337 255
0.02363844 0.74900001 -0.0196987 1.2894793e-38 338 255
0.024984999 0.75 -0.019724999 1.7412379e-38 339 255
0.02637013 0.75199997 -0.0197776 1.5104258e-38 340 255
0.027762281 0.75400001 -0.019830201 5.5162717e-39 341 255
0.029084291 0.75400001 -0.019830201 1.3132518e-38 342 255
0.030406307 0.75400001 -0.019830201 1.4972483e-38 343 255
0.031770397 0.755 -0.0198565 1.361077e-38 344 255
0.033269498 0.759 -0.0199617 1.4163944e-38 345 255
0.034691449 0.76099998 -0.020014299 1.3612568e-38 346 255
0.036073081 0.76200002 -0.0200406 1.2137438e-38 347 255
0.037507307 0.764 -0.020093199 1.3691097e-38 348 255
0.038846854 0.764 -0.020093199 1.3691097e-38 349 255
0.040186398 0.764 -0.020093199 1.3141513e-38 350 255
0.041634649 0.76599997 -0.020145798 1.4985426e-38 351 255
0.042977702 0.76599997 -0.020145798 1.2884005e-38 352 255
0.044320758 0.76599997 -0.020145798 1.6572189e-38 353 255
0.045961879 0.77100003 -0.020277301 1.3548461e-38 354 255
0.047436431 0.773 -0.0203299 1.4470416e-38 355 255
0.04885488 0.77399999 -0.020356199 1.3831162e-38 356 255
-0.00384506 0.73100001 -0.020506985 1.4470398e-38 317 256
-0.0025633732 0.73100001 -0.020506985 1.3174624e-38 318 256
-0.0012904532 0.736 -0.020647252 1.1699134e-38 319 256
0 0.736 -0.020647252 1.4999801e-38 320 256
0.0012904532 0.736 -0.020647252 1.4077847e-38 321 256
0.0025879198 0.73799998 -0.020703359 1.562357e-38 322 256
0.00388714 0.73900002 -0.020731414 1.4240635e-38 323 256
0.0051968796 0.741 -0.020787518 1.5428771e-38 324 256
0.0064960998 0.741 -0.020787518 1.5520967e-38 325 256
0.0077953199 0.741 -0.020787518 1.5155439e-38 326 256
0.0090945391 0.741 -0.020787518 1.6999352e-38 327 256
0.010393759 0.741 -0.020787518 1.5072582e-38 328 256
0.01169298 0.741 -0.020787518 1.193865e-38 329 256
0.0129922 0.741 -0.020787518 1.1209383e-38 330 256
0.01429142 0.741 -0.020787518 1.6925872e-38 331 256
0.01559064 0.741 -0.020787518 1.5950582e-38 332 256
0.016912652 0.74199998 -0.020815572 1.6134974e-38 333 256
0.01826272 0.74400002 -0.02087168 1.5564125e-38 334 256
0.019567199 0.74400002 -0.02087168 1.0032748e-38 335 256
0.020927785 0.74599999 -0.020927785 1.267618e-38 336 256
0.022235774 0.74599999 -0.020927785 1.3137159e-38 337 256
0.023575317 0.74699998 -0.020955838 1.2694928e-38 338 256
0.024951685 0.74900001 -0.021011947 1.9425208e-38 339 256
0.0263 0.75 -0.02104 1.492347e-38 340 256
0.027688639 0.75199997 -0.021096105 5.6113512e-39 341 256
0.029007144 0.75199997 -0.021096105 1.3133607e-38 342 256
0.030406307 0.75400001 -0.021152213 1.4608737e-38 343 256
0.03172832 0.75400001 -0.021152213 1.3428174e-38 344 256
0.033094164 0.755 -0.021180267 1.3705119e-38 345 256
0.034600276 0.759 -0.02129248 1.3700085e-38 346 256
0.036025736 0.76099998 -0.021348584 1.2593377e-38 347 256
0.037507307 0.764 -0.021432746 1.3417026e-38 348 256
0.038846854 0.764 -0.021432746 1.3693613e-38 349 256
0.040186398 0.764 -0.021432746 1.2504425e-38 350 256
0.041525945 0.764 -0.021432746 1.4532729e-38 351 256
0.042977702 0.76599997 -0.021488851 1.1423995e-38 352 256
0.044320758 0.76599997 -0.021488851 1.34523e-38 353 256
-0.0051197335 0.73000002 -0.021758866 1.4652272e-38 316 257
-0.00384506 0.73100001 -0.021788673 1.133323e-38 317 257
-0.0025633732 0.73100001 -0.021788673 1.380956e-38 318 257
-0.0012816866 0.73100001 -0.021788673 1.380956e-38 319 257
0 0.73299998 -0.021848286 1.5072214e-38 320 257
0.0012869467 0.73400003 -0.021878093 1.3412692e-38 321 257
0.0025809065 0.736 -0.021937706 1.4234538e-38 322 257
0.0038713599 0.736 -0.021937706 1.4602603e-38 323 257
0.0051758396 0.73799998 -0.021997318 1.442036e-38 324 257
0.0064697997 0.73799998 -0.021997318 1.4328165e-38 325 257
0.0077742799 0.73900002 -0.022027127 1.5063932e-38 326 257
0.0090699932 0.73900002 -0.022027127 1.4787344e-38 327 257
0.010365707 0.73900002 -0.022027127 1.5153629e-38 328 257
0.01166142 0.73900002 -0.022027127 1.460189e-38 329 257
0.012957133 0.73900002 -0.022027127 1.1663158e-38 330 257
0.01429142 0.741 -0.02208674 1.5441384e-38 331 257
0.01559064 0.741 -0.02208674 1.401485e-38 332 257
0.016889861 0.741 -0.02208674 1.6411936e-38 333 257
0.018213626 0.74199998 -0.022116546 1.7602528e-38 334 257
0.0195146 0.74199998 -0.022116546 1.3914705e-38 335 257
0.02087168 0.74400002 -0.022176161 1.3330898e-38 336 257
0.022176161 0.74400002 -0.022176161 1.2132714e-38 337 257
0.023543758 0.74599999 -0.022235774 1.315915e-38 338 257
0.024885058 0.74699998 -0.022265578 1.7768931e-38 339 257
0.0263 0.75 -0.022355 1.5104258e-38 340 257
0.027615 0.75 -0.022355 7.6367725e-39 341 257
0.029007144 0.75199997 -0.022414612 1.3511352e-38 342 257
0.030406307 0.75400001 -0.022474226 1.5631491e-38 343 257
0.03172832 0.75400001 -0.022474226 1.3522881e-38 344 257
0.033094164 0.755 -0.022504034 1.269276e-38 345 257
0.034509107 0.75700003 -0.022563647 1.3329144e-38 346 257
0.035931058 0.759 -0.02262326 1.2868166e-38 347 257
0.037360024 0.76099998 -0.022682872 1.2683421e-38 348 257
0.038745161 0.76200002 -0.02271268 1.3513541e-38 349 257
0.040186398 0.764 -0.022772292 1.141212e-38 350 257
0.041525945 0.764 -0.022772292 1.2702859e-38 351 257
0.042977702 0.76599997 -0.022831906 1.0139387e-38 352 257
-0.0076480396 0.727 -0.022944121 1.6495455e-38 314 258
-0.0063996664 0.73000002 -0.023038799 1.2992381e-38 315 258
-0.0051197335 0.73000002 -0.023038799 1.3171731e-38 316 258
-0.0038397999 0.73000002 -0.023038799 1.2526361e-38 317 258
-0.0025598668 0.73000002 -0.023038799 1.5725142e-38 318 258
-0.0012799334 0.73000002 -0.023038799 1.4526598e-38 319 258
0 0.73100001 -0.02307036 1.4877381e-38 320 258
0.0012851933 0.73299998 -0.023133477 1.598301e-38 321 258
0.0025703865 0.73299998 -0.023133477 1.4630314e-38 322 258
0.0038608401 0.73400003 -0.023165042 1.6105803e-38 323 258
0.005161813 0.736 -0.023228159 1.5740966e-38 324 258
0.0064522666 0.736 -0.023228159 1.3527913e-38 325 258
0.0077637597 0.73799998 -0.023291279 1.5075061e-38 326 258
0.0090577193 0.73799998 -0.023291279 1.2124802e-38 327 258
0.010351679 0.73799998 -0.023291279 1.4145938e-38 328 258
0.011645639 0.73799998 -0.023291279 1.6266438e-38 329 258
0.012957133 0.73900002 -0.023322839 1.3247032e-38 330 258
0.014252847 0.73900002 -0.023322839 1.4629967e-38 331 258
0.01554856 0.73900002 -0.023322839 1.2072978e-38 332 258
0.016889861 0.741 -0.023385961 1.4562259e-38 333 258
0.018189078 0.741 -0.023385961 1.6593437e-38 334 258
0.0195146 0.74199998 -0.023417519 1.5671482e-38 335 258
0.020815572 0.74199998 -0.023417519 1.4828005e-38 336 258
0.022176161 0.74400002 -0.023480639 1.2154332e-38 337 258
0.023480639 0.74400002 -0.023480639 1.3438982e-38 338 258
0.024851745 0.74599999 -0.023543758 1.4637166e-38 339 258
0.026264934 0.74900001 -0.02363844 1.4264792e-38 340 258
0.027615 0.75 -0.023669999 1.1499284e-38 341 258
0.029007144 0.75199997 -0.023733119 1.342888e-38 342 258
0.030325651 0.75199997 -0.023733119 1.4074249e-38 343 258
0.03172832 0.75400001 -0.02379624 1.2873555e-38 344 258
0.033050332 0.75400001 -0.02379624 1.2044153e-38 345 258
0.034417931 0.755 -0.023827799 1.3233355e-38 346 258
0.03583638 0.75700003 -0.02389092 1.3418105e-38 347 258
0.03726184 0.759 -0.023954039 1.2226769e-38 348 258
0.038745161 0.76200002 -0.02404872 1.3609704e-38 349 258
0.040186398 0.764 -0.024111839 9.3978586e-39 350 258
0.041525945 0.764 -0.024111839 1.0043228e-38 351 258
-0.0088981669 0.72500002 -0.024152167 1.6406503e-38 313 259
-0.0076480396 0.727 -0.024218792 1.5108928e-38 314 259
-0.0063733663 0.727 -0.024218792 1.1974635e-38 315 259
-0.0050986931 0.727 -0.024218792 1.5183471e-38 316 259
-0.0038292799 0.72799999 -0.024252106 1.4538102e-38 317 259
-0.0025598668 0.73000002 -0.024318734 1.6079861e-38 318 259
-0.0012799334 0.73000002 -0.024318734 1.5157903e-38 319 259
0 0.73100001 -0.024352046 1.36835e-38 320 259
0.0012816866 0.73100001 -0.024352046 1.6723802e-38 321 259
0.0025633732 0.73100001 -0.024352046 1.6399669e-38 322 259
0.0038555798 0.73299998 -0.024418673 1.7874799e-38 323 259
0.0051477868 0.73400003 -0.024451986 1.7692204e-38 324 259
0.006434733 0.73400003 -0.024451986 1.5571704e-38 325 259
0.0077427197 0.736 -0.024518613 1.5644787e-38 326 259
0.0090331733 0.736 -0.024518613 1.0112689e-38 327 259
0.010323626 0.736 -0.024518613 1.1947642e-38 328 259
0.01161408 0.736 -0.024518613 1.6741814e-38 329 259
0.012939599 0.73799998 -0.024585238 1.445421e-38 330 259
0.014252847 0.73900002 -0.024618553 1.4361656e-38 331 259
0.01554856 0.73900002 -0.024618553 1.1778735e-38 332 259
0.016844273 0.73900002 -0.024618553 1.085678e-38 333 259
0.018189078 0.741 -0.024685178 1.391941e-38 334 259
0.019488299 0.741 -0.024685178 1.6224302e-38 335 259
0.020787518 0.741 -0.024685178 1.6038096e-38 336 259
0.022116546 0.74199998 -0.024718491 1.216588e-38 337 259
0.023480639 0.74400002 -0.02478512 1.3894915e-38 338 259
0.02478512 0.74400002 -0.02478512 1.2788928e-38 339 259
0.026194798 0.74699998 -0.024885058 1.3240543e-38 340 259
0.027578179 0.74900001 -0.024951685 1.4623836e-38 341 259
0.028929999 0.75 -0.024984999 1.3799833e-38 342 259
0.030244999 0.75 -0.024984999 1.2509094e-38 343 259
0.03172832 0.75400001 -0.025118252 1.2684503e-38 344 259
0.033050332 0.75400001 -0.025118252 1.2407558e-38 345 259
0.034372345 0.75400001 -0.025118252 1.2499756e-38 346 259
0.035741698 0.755 -0.025151566 1.2960734e-38 347 259
0.03726184 0.759 -0.025284819 1.1040463e-38 348 259
-0.0088981669 0.72500002 -0.025423333 1.2344488e-38 313 260
-0.0076270006 0.72500002 -0.025423333 1.4081084e-38 314 260
-0.0063558333 0.72500002 -0.025423333 1.4173279e-38 315 260
-0.0050986931 0.727 -0.025493465 1.7190175e-38 316 260
-0.0038240198 0.727 -0.025493465 1.5346264e-38 317 260
-0.0025528532 0.72799999 -0.025528532 1.6258139e-38 318 260
-0.0012764266 0.72799999 -0.025528532 1.6719118e-38 319 260
0 0.73000002 -0.025598666 1.3888788e-38 320 260
0.0012799334 0.73000002 -0.025598666 1.7945397e-38 321 260
0.0025598668 0.73000002 -0.025598666 1.7786936e-38 322 260
0.00384506 0.73100001 -0.025633732 1.7326317e-38 323 260
0.005140773 0.73299998 -0.025703866 1.6686336e-38 324 260
0.006434733 0.73400003 -0.025738932 1.7239151e-38 325 260
0.0077216802 0.73400003 -0.025738932 1.7413057e-38 326 260
0.0090086265 0.73400003 -0.025738932 1.1143755e-38 327 260
0.010295574 0.73400003 -0.025738932 1.0427063e-38 328 260
0.011582521 0.73400003 -0.025738932 1.4023052e-38 329 260
0.012904533 0.736 -0.025809066 1.6580114e-38 330 260
0.014233559 0.73799998 -0.025879199 1.4090832e-38 331 260
0.015527519 0.73799998 -0.025879199 1.277057e-38 332 260
0.016844273 0.73900002 -0.025914267 1.2493623e-38 333 260
0.018139986 0.73900002 -0.025914267 9.6701169e-39 334 260
0.0194357 0.73900002 -0.025914267 1.5293692e-38 335 260
0.020787518 0.741 -0.025984399 1.5029702e-38 336 260
0.02208674 0.741 -0.025984399 9.6823558e-39 337 260
0.023385961 0.741 -0.025984399 1.3327706e-38 338 260
0.02478512 0.74400002 -0.026089599 1.3603933e-38 339 260
0.026159734 0.74599999 -0.026159734 1.3885562e-38 340 260
0.027504537 0.74699998 -0.026194798 1.4438736e-38 341 260
0.028891427 0.74900001 -0.026264934 1.2779217e-38 342 260
0.030204674 0.74900001 -0.026264934 1.1304087e-38 343 260
0.03156 0.75 -0.0263 1.258727e-38 344 260
0.032962665 0.75199997 -0.02637013 1.2955692e-38 345 260
0.034281172 0.75199997 -0.02637013 1.2224967e-38 346 260
0.035741698 0.755 -0.026475333 1.3515706e-38 347 260
-0.010127253 0.722 -0.026584039 1.5012766e-38 312 261
-0.0088613462 0.722 -0.026584039 1.2800431e-38 313 261
-0.0075954394 0.722 -0.026584039 1.6375896e-38 314 261
-0.0063382997 0.72299999 -0.026620859 1.397917e-38 315 261
-0.0050986931 0.727 -0.026768139 1.6630166e-38 316 261
-0.0038240198 0.727 -0.026768139 1.5984797e-38 317 261
-0.0025493465 0.727 -0.026768139 1.5888648e-38 318 261
-0.0012764266 0.72799999 -0.026804959 1.6442182e-38 319 261
0 0.72799999 -0.026804959 1.4452408e-38 320 261
0.0012764266 0.72799999 -0.026804959 1.7218277e-38 321 261
0.0025528532 0.72799999 -0.026804959 1.6127771e-38 322 261
0.0038397999 0.73000002 -0.026878599 1.4375694e-38 323 261
0.0051197335 0.73000002 -0.026878599 1.3734278e-38 324 261
0.006408433 0.73100001 -0.026915418 1.6684538e-38 325 261
0.0077111595 0.73299998 -0.026989058 1.7605047e-38 326 261
0.0089963535 0.73299998 -0.026989058 1.4286004e-38 327 261
0.010281546 0.73299998 -0.026989058 1.3173538e-38 328 261
0.011566739 0.73299998 -0.026989058 1.584757e-38 329 261
0.012869466 0.73400003 -0.02702588 1.4749153e-38 330 261
0.014194986 0.736 -0.02709952 1.2444262e-38 331 261
0.015527519 0.73799998 -0.027173158 1.3317623e-38 332 261
0.016821479 0.73799998 -0.027173158 1.2397819e-38 333 261
0.018115439 0.73799998 -0.027173158 1.35326e-38 334 261
0.0194357 0.73900002 -0.027209979 1.5468708e-38 335 261
0.020731414 0.73900002 -0.027209979 1.5564165e-38 336 261
0.022027127 0.73900002 -0.027209979 1.1231329e-38 337 261
0.023385961 0.741 -0.027283618 1.2954248e-38 338 261
0.024718491 0.74199998 -0.027320439 1.4982551e-38 339 261
0.026089599 0.74400002 -0.027394081 1.3334912e-38 340 261
0.027467718 0.74599999 -0.027467718 1.2504791e-38 341 261
0.028814279 0.74699998 -0.027504537 1.2681999e-38 342 261
0.030204674 0.74900001 -0.027578179 1.203663e-38 343 261
0.03156 0.75 -0.027615 1.2313923e-38 344 261
0.032874998 0.75 -0.027615 1.2867097e-38 345 261
0.034281172 0.75199997 -0.027688639 1.1315243e-38 346 261
-0.0138864 0.72000003 -0.027772799 1.6683802e-38 309 262
-0.012624 0.72000003 -0.027772799 1.4559334e-38 310 262
-0.011361601 0.72000003 -0.027772799 1.2070052e-38 311 262
-0.010099201 0.72000003 -0.027772799 1.5372178e-38 312 262
-0.0088613462 0.722 -0.027849946 1.4081439e-38 313 262
-0.0075954394 0.722 -0.027849946 1.7835909e-38 314 262
-0.0063295332 0.722 -0.027849946 1.4978203e-38 315 262
-0.0050706398 0.72299999 -0.02788852 1.6259588e-38 316 262
-0.0038135003 0.72500002 -0.027965667 1.644362e-38 317 262
-0.0025423334 0.72500002 -0.027965667 1.5337645e-38 318 262
-0.0012746733 0.727 -0.028042812 1.542984e-38 319 262
0 0.727 -0.028042812 1.3992153e-38 320 262
0.0012746733 0.727 -0.028042812 1.6389599e-38 321 262
0.0025493465 0.727 -0.028042812 1.5202925e-38 322 262
0.0038292799 0.72799999 -0.028081384 9.2102093e-39 323 262
0.0051057064 0.72799999 -0.028081384 8.4636578e-39 324 262
0.0063996664 0.73000002 -0.028158534 1.583931e-38 325 262
0.00769012 0.73100001 -0.028197108 1.6041706e-38 326 262
0.0089718066 0.73100001 -0.028197108 1.6502684e-38 327 262
0.010253493 0.73100001 -0.028197108 1.538911e-38 328 262
0.01153518 0.73100001 -0.028197108 1.243921e-38 329 262
0.012851933 0.73299998 -0.028274251 1.3084574e-38 330 262
0.014156413 0.73400003 -0.028312827 1.271579e-38 331 262
0.015485439 0.736 -0.028389972 1.3591709e-38 332 262
0.016821479 0.73799998 -0.028467119 1.3867219e-38 333 262
0.018115439 0.73799998 -0.028467119 1.6389217e-38 334 262
0.0194357 0.73900002 -0.028505694 1.5098478e-38 335 262
0.020731414 0.73900002 -0.028505694 1.3609311e-38 336 262
0.022027127 0.73900002 -0.028505694 1.2502964e-38 337 262
0.023385961 0.741 -0.028582839 1.3700788e-38 338 262
0.024718491 0.74199998 -0.028621411 1.4161407e-38 339 262
0.026089599 0.74400002 -0.02869856 1.287069e-38 340 262
0.027467718 0.74599999 -0.028775707 1.1856538e-38 341 262
0.028814279 0.74699998 -0.028814279 1.249544e-38 342 262
0.030204674 0.74900001 -0.028891427 1.2864583e-38 343 262
0.03156 0.75 -0.028929999 1.2043803e-38 344 262
0.032874998 0.75 -0.028929999 1.2873205e-38 345 262
0.034281172 0.75199997 -0.029007144 1.0861467e-38 346 262
-0.016388407 0.71899998 -0.028994869 1.7882355e-38 307 263
-0.0151488 0.72000003 -0.029035201 1.5941915e-38 308 263
-0.0138864 0.72000003 -0.029035201 1.3636665e-38 309 263
-0.012624 0.72000003 -0.029035201 1.5557286e-38 310 263
-0.011361601 0.72000003 -0.029035201 1.5926428e-38 311 263
-0.010099201 0.72000003 -0.029035201 1.8490635e-38 312 263
-0.0088367993 0.72000003 -0.029035201 1.5355983e-38 313 263
-0.0075954394 0.722 -0.029115854 1.6905679e-38 314 263
-0.0063295332 0.722 -0.029115854 1.607556e-38 315 263
-0.0050636264 0.722 -0.029115854 1.5614588e-38 316 263
-0.0037977197 0.722 -0.029115854 1.6075207e-38 317 263
-0.0025423334 0.72500002 -0.029236834 1.5544347e-38 318 263
-0.0012746733 0.727 -0.029317487 1.5359596e-38 319 263
0 0.727 -0.029317487 1.2507312e-38 320 263
0.0012746733 0.727 -0.029317487 1.7209289e-38 321 263
0.0025493465 0.727 -0.029317487 1.6860995e-38 322 263
0.0038240198 0.727 -0.029317487 1.169804e-38 323 263
0.0050986931 0.727 -0.029317487 1.1031093e-38 324 263
0.0063821329 0.72799999 -0.029357811 1.3335984e-38 325 263
0.0076585598 0.72799999 -0.029357811 1.1713909e-38 326 263
0.0089349858 0.72799999 -0.029357811 1.5586126e-38 327 263
0.010211413 0.72799999 -0.029357811 1.6776368e-38 328 263
0.011519399 0.73000002 -0.029438468 1.4287086e-38 329 263
0.012851933 0.73299998 -0.029559445 1.3994636e-38 330 263
0.014156413 0.73400003 -0.029599773 1.2519506e-38 331 263
0.01544336 0.73400003 -0.029599773 1.3867925e-38 332 263
0.016775893 0.736 -0.029680425 1.3591698e-38 333 263
0.018115439 0.73799998 -0.029761078 1.5358504e-38 334 263
0.019409399 0.73799998 -0.029761078 1.4989722e-38 335 263
0.020731414 0.73900002 -0.029801406 1.3418784e-38 336 263
0.022027127 0.73900002 -0.029801406 1.4525133e-38 337 263
0.023385961 0.741 -0.029882059 1.3430681e-38 338 263
0.024685178 0.741 -0.029882059 1.1678965e-38 339 263
0.026019465 0.74199998 -0.029922385 1.2682705e-38 340 263
0.027394081 0.74400002 -0.030003037 1.2129532e-38 341 263
0.028775707 0.74599999 -0.03008369 1.2131683e-38 342 263
0.030124018 0.74699998 -0.030124018 1.2684856e-38 343 263
0.031517919 0.74900001 -0.030204674 1.1772975e-38 344 263
0.032874998 0.75 -0.030244999 1.2418345e-38 345 263
-0.017599959 0.71700001 -0.030171359 1.7975258e-38 306 264
-0.016388407 0.71899998 -0.030255521 1.5946953e-38 307 264
-0.01512776 0.71899998 -0.030255521 1.3994651e-38 308 264
-0.013867113 0.71899998 -0.030255521 1.2519521e-38 309 264
-0.012606465 0.71899998 -0.030255521 1.7205658e-38 310 264
-0.01134582 0.71899998 -0.030255521 1.7943582e-38 311 264
-0.010085173 0.71899998 -0.030255521 1.8760386e-38 312 264
-0.0088367993 0.72000003 -0.0302976 1.4611582e-38 313 264
-0.0075743999 0.72000003 -0.0302976 1.6347471e-38 314 264
-0.0063120001 0.72000003 -0.0302976 1.6900286e-38 315 264
-0.0050636264 0.722 -0.030381758 1.5336574e-38 316 264
-0.0037977197 0.722 -0.030381758 1.6535117e-38 317 264
-0.0025318132 0.722 -0.030381758 1.7036035e-38 318 264
-0.0012676599 0.72299999 -0.030423839 1.8787751e-38 319 264
0 0.72500002 -0.030508002 1.3341744e-38 320 264
0.0012711667 0.72500002 -0.030508002 1.3894918e-38 321 264
0.0025423334 0.72500002 -0.030508002 1.649689e-38 322 264
0.0038135003 0.72500002 -0.030508002 1.5206151e-38 323 264
0.0050846669 0.72500002 -0.030508002 1.4815765e-38 324 264
0.0063733663 0.727 -0.030592158 9.8368406e-39 325 264
0.0076585598 0.72799999 -0.030634239 8.2871768e-39 326 264
0.0089349858 0.72799999 -0.030634239 1.6216001e-38 327 264
0.010211413 0.72799999 -0.030634239 1.6410487e-38 328 264
0.01148784 0.72799999 -0.030634239 1.613426e-38 329 264
0.012816866 0.73100001 -0.03076048 1.5473709e-38 330 264
0.014137126 0.73299998 -0.030844638 1.1232709e-38 331 264
0.015422319 0.73299998 -0.030844638 1.3597039e-38 332 264
0.016730307 0.73400003 -0.030886721 1.3044228e-38 333 264
0.018017253 0.73400003 -0.030886721 1.4051578e-38 334 264
0.019356798 0.736 -0.030970879 1.4973534e-38 335 264
0.020703359 0.73799998 -0.031055039 1.3885193e-38 336 264
0.022027127 0.73900002 -0.03109712 1.4991539e-38 337 264
0.023385961 0.741 -0.03118128 1.3154464e-38 338 264
0.024685178 0.741 -0.03118128 1.1033964e-38 339 264
0.026019465 0.74199998 -0.031223357 1.2500815e-38 340 264
0.027394081 0.74400002 -0.031307522 1.2408261e-38 341 264
0.02869856 0.74400002 -0.031307522 1.2044153e-38 342 264
0.03008369 0.74599999 -0.031391677 1.2689523e-38 343 264
0.031517919 0.74900001 -0.031517919 1.122736e-38 344 264
-0.018778199 0.71399999 -0.031296998 1.5113953e-38 305 265
-0.017599959 0.71700001 -0.031428497 1.3911441e-38 306 265
-0.016342819 0.71700001 -0.031428497 1.225192e-38 307 265
-0.015085679 0.71700001 -0.031428497 1.6290537e-38 308 265
-0.013828539 0.71700001 -0.031428497 1.7765668e-38 309 265
-0.012606465 0.71899998 -0.031516165 1.9690257e-38 310 265
-0.01134582 0.71899998 -0.031516165 1.6186464e-38 311 265
-0.010085173 0.71899998 -0.031516165 1.7088992e-38 312 265
-0.0088245263 0.71899998 -0.031516165 1.5890449e-38 313 265
-0.0075638802 0.71899998 -0.031516165 1.6441104e-38 314 265
-0.0063120001 0.72000003 -0.03156 1.6717692e-38 315 265
-0.0050496003 0.72000003 -0.03156 1.4877395e-38 316 265
-0.0037872 0.72000003 -0.03156 1.5613884e-38 317 265
-0.0025318132 0.722 -0.031647664 1.6946732e-38 318 265
-0.0012676599 0.72299999 -0.031691495 1.9989188e-38 319 265
0 0.72299999 -0.031691495 1.7226913e-38 320 265
0.0012676599 0.72299999 -0.031691495 1.3262501e-38 321 265
0.0025353199 0.72299999 -0.031691495 1.0691096e-38 322 265
0.0038029798 0.72299999 -0.031691495 1.4932455e-38 323 265
0.0050706398 0.72299999 -0.031691495 1.7042477e-38 324 265
0.0063382997 0.72299999 -0.031691495 1.0773533e-38 325 265
0.0076270006 0.72500002 -0.031779166 1.2044506e-38 326 265
0.0088981669 0.72500002 -0.031779166 1.4164646e-38 327 265
0.010169334 0.72500002 -0.031779166 1.2452562e-38 328 265
0.01147206 0.727 -0.03186683 1.5218431e-38 329 265
0.012799333 0.73000002 -0.031998333 1.6772762e-38 330 265
0.014098554 0.73100001 -0.032042164 1.3730665e-38 331 265
0.015422319 0.73299998 -0.032129832 1.3696443e-38 332 265
0.016707512 0.73299998 -0.032129832 1.2221673e-38 333 265
0.018017253 0.73400003 -0.032173667 1.3966565e-38 334 265
0.019304199 0.73400003 -0.032173667 1.5441697e-38 335 265
0.020647252 0.736 -0.032261331 1.3706916e-38 336 265
0.021997318 0.73799998 -0.032348998 1.3706916e-38 337 265
0.023385961 0.741 -0.032480497 1.296792e-38 338 265
0.024685178 0.741 -0.032480497 1.1954128e-38 339 265
0.025984399 0.741 -0.032480497 1.2502263e-38 340 265
0.027320439 0.74199998 -0.032524332 1.2502263e-38 341 265
0.02869856 0.74400002 -0.032612 1.1955197e-38 342 265
0.03008369 0.74599999 -0.032699663 1.2692763e-38 343 265
-0.020030079 0.71399999 -0.032548878 1.3275076e-38 304 266
-0.018778199 0.71399999 -0.032548878 1.0693599e-38 305 266
-0.017526319 0.71399999 -0.032548878 1.2983354e-38 306 266
-0.016320027 0.71600002 -0.032640055 1.1231637e-38 307 266
-0.01506464 0.71600002 -0.032640055 1.8776211e-38 308 266
-0.013809253 0.71600002 -0.032640055 1.9698166e-38 309 266
-0.0125714 0.71700001 -0.032685637 1.8672142e-38 310 266
-0.01131426 0.71700001 -0.032685637 1.4891763e-38 311 266
-0.01005712 0.71700001 -0.032685637 1.6531502e-38 312 266
-0.0087999795 0.71700001 -0.032685637 1.6900286e-38 313 266
-0.0075638802 0.71899998 -0.032776814 1.6536171e-38 314 266
-0.0063032326 0.71899998 -0.032776814 1.6904955e-38 315 266
-0.0050425865 0.71899998 -0.032776814 1.5156483e-38 316 266
-0.0037872 0.72000003 -0.0328224 1.5156483e-38 317 266
-0.0025318132 0.722 -0.032913569 1.5006322e-38 318 266
-0.0012659066 0.722 -0.032913569 1.9247679e-38 319 266
0 0.722 -0.032913569 1.7973109e-38 320 266
0.0012659066 0.722 -0.032913569 1.5483827e-38 321 266
0.0025318132 0.722 -0.032913569 1.0684614e-38 322 266
0.0037977197 0.722 -0.032913569 1.2805113e-38 323 266
0.0050706398 0.72299999 -0.032959159 1.6682001e-38 324 266
0.0063382997 0.72299999 -0.032959159 1.4376751e-38 325 266
0.0076059597 0.72299999 -0.032959159 1.3798725e-38 326 266
0.0088981669 0.72500002 -0.033050332 9.4651714e-39 327 266
0.010169334 0.72500002 -0.033050332 1.0043213e-38 328 266
0.01147206 0.727 -0.033141505 1.6128124e-38 329 266
0.012764266 0.72799999 -0.033187091 1.6593083e-38 330 266
0.014079267 0.73000002 -0.033278264 1.603991e-38 331 266
0.01538024 0.73100001 -0.033323854 1.4546011e-38 332 266
0.016661927 0.73100001 -0.033323854 9.3830553e-39 333 266
0.017992707 0.73299998 -0.033415023 1.3970515e-38 334 266
0.019277899 0.73299998 -0.033415023 1.5629678e-38 335 266
0.020591147 0.73400003 -0.033460613 1.3615442e-38 336 266
0.021997318 0.73799998 -0.033642959 1.2877877e-38 337 266
0.023322839 0.73900002 -0.033688545 1.2782454e-38 338 266
0.024685178 0.741 -0.033779722 1.2137085e-38 339 266
0.025984399 0.741 -0.033779722 1.2503334e-38 340 266
0.027283618 0.741 -0.033779722 1.2872116e-38 341 266
0.028621411 0.74199998 -0.033825304 1.168365e-38 342 266
-0.021281958 0.71399999 -0.033800758 1.5117562e-38 303 267
-0.020030079 0.71399999 -0.033800758 9.7658816e-39 304 267
-0.018778199 0.71399999 -0.033800758 7.0922083e-39 305 267
-0.017526319 0.71399999 -0.033800758 1.5564125e-38 306 267
-0.016274439 0.71399999 -0.033800758 1.8145603e-38 307 267
-0.015022559 0.71399999 -0.033800758 2.0427836e-38 308 267
-0.01377068 0.71399999 -0.033800758 1.5910609e-38 309 267
-0.012553867 0.71600002 -0.03389544 1.5520223e-38 310 267
-0.01129848 0.71600002 -0.03389544 1.6163081e-38 311 267
-0.01005712 0.71700001 -0.033942781 1.6259235e-38 312 267
-0.0087999795 0.71700001 -0.033942781 1.6259235e-38 313 267
-0.0075428397 0.71700001 -0.033942781 1.6172443e-38 314 267
-0.0062857 0.71700001 -0.033942781 1.6910008e-38 315 267
-0.0050425865 0.71899998 -0.03403746 1.5720472e-38 316 267
-0.0037872 0.72000003 -0.034084801 1.5351691e-38 317 267
-0.0025248001 0.72000003 -0.034084801 1.1486699e-38 318 267
-0.0012624001 0.72000003 -0.034084801 1.4805741e-38 319 267
0 0.72000003 -0.034084801 1.5674353e-38 320 267
0.0012624001 0.72000003 -0.034084801 1.6043134e-38 321 267
0.0025248001 0.72000003 -0.034084801 1.6126677e-38 322 267
0.0037977197 0.722 -0.034179479 1.1701286e-38 323 267
0.0050636264 0.722 -0.034179479 1.0048247e-38 324 267
0.0063295332 0.722 -0.034179479 1.5027172e-38 325 267
0.0075954394 0.722 -0.034179479 1.6858814e-38 326 267
0.0088736191 0.72299999 -0.03422682 8.2846209e-39 327 267
0.01014128 0.72299999 -0.03422682 1.1404173e-38 328 267
0.0114405 0.72500002 -0.034321502 1.5460781e-38 329 267
0.012764266 0.72799999 -0.034463517 1.3647865e-38 330 267
0.014040692 0.72799999 -0.034463517 1.5215192e-38 331 267
0.0153592 0.73000002 -0.034558199 1.5112543e-38 332 267
0.016639132 0.73000002 -0.034558199 1.1240326e-38 333 267
0.017943613 0.73100001 -0.034605537 1.3140809e-38 334 267
0.019225299 0.73100001 -0.034605537 1.415532e-38 335 267
0.020563092 0.73299998 -0.034700219 1.2964697e-38 336 267
0.021878093 0.73400003 -0.03474756 1.2596273e-38 337 267
0.023322839 0.73900002 -0.034984261 1.2596624e-38 338 267
0.024618553 0.73900002 -0.034984261 1.2596624e-38 339 267
0.025914267 0.73900002 -0.034984261 1.2322182e-38 340 267
0.027283618 0.741 -0.035078939 1.2690965e-38 341 267
0.028621411 0.74199998 -0.03512628 1.0952937e-38 342 267
-0.021252153 0.713 -0.035003547 1.0876914e-38 303 268
-0.020002026 0.713 -0.035003547 1.1977138e-38 304 268
-0.018751899 0.713 -0.035003547 1.2161169e-38 305 268
-0.01745268 0.71100003 -0.034905359 1.8504682e-38 306 268
-0.01620606 0.71100003 -0.034905359 1.9426636e-38 307 268
-0.015001519 0.713 -0.035003547 1.8389108e-38 308 268
-0.013751393 0.713 -0.035003547 1.5070065e-38 309 268
-0.012518799 0.71399999 -0.035052639 1.469371e-38 310 268
-0.011266919 0.71399999 -0.035052639 1.5889742e-38 311 268
-0.01001504 0.71399999 -0.035052639 1.6166689e-38 312 268
-0.0087877065 0.71600002 -0.035150826 1.6258885e-38 313 268
-0.00753232 0.71600002 -0.035150826 1.6078822e-38 314 268
-0.0062769335 0.71600002 -0.035150826 1.6724192e-38 315 268
-0.0050215465 0.71600002 -0.035150826 1.5899829e-38 316 268
-0.0037714199 0.71700001 -0.035199918 1.5715438e-38 317 268
-0.0025142799 0.71700001 -0.035199918 1.1846803e-38 318 268
-0.0012606466 0.71899998 -0.035298105 1.2399259e-38 319 268
0 0.71899998 -0.035298105 1.512079e-38 320 268
0.0012624001 0.72000003 -0.035347197 1.6319333e-38 321 268
0.0025248001 0.72000003 -0.035347197 1.7052929e-38 322 268
0.0037872 0.72000003 -0.035347197 1.4010474e-38 323 268
0.0050496003 0.72000003 -0.035347197 1.0411975e-38 324 268
0.0063120001 0.72000003 -0.035347197 1.3085649e-38 325 268
0.0075743999 0.72000003 -0.035347197 1.5944434e-38 326 268
0.0088613462 0.722 -0.035445385 1.2625391e-38 327 268
0.01014128 0.72299999 -0.035494477 1.1951582e-38 328 268
0.0114405 0.72500002 -0.035592668 1.2135973e-38 329 268
0.012746733 0.727 -0.035690852 1.2718333e-38 330 268
0.014040692 0.72799999 -0.035739943 1.5852985e-38 331 268
0.0153592 0.73000002 -0.035838135 1.5109326e-38 332 268
0.016639132 0.73000002 -0.035838135 1.289627e-38 333 268
0.017943613 0.73100001 -0.035887226 1.2498334e-38 334 268
