# .PCD v.7 - Point Cloud Data file format
FIELDS x y z rgb imX imY
SIZE 4 4 4 4 4 4
TYPE F F F F F F
COUNT 1 1 1 1 1 1
WIDTH 839
HEIGHT 1
VIEWPOINT 0 0 0 1 0 0 0
POINTS 839
DATA ascii
0.036499143 0.77100003 -0.033795502 1.2922259e-38 347 265
0.037949149 0.773 -0.033883166 1.2739305e-38 348 265
0.039355319 0.77399999 -0.033927001 1.2739305e-38 349 265
0.0408176 0.77600002 -0.034014668 1.3198483e-38 350 265
0.042178184 0.77600002 -0.034014668 1.3198483e-38 351 265
0.043538772 0.77600002 -0.034014668 1.2647111e-38 352 265
0.045015078 0.778 -0.034102332 1.2739305e-38 353 265
0.046498396 0.77999997 -0.034189999 1.3013018e-38 354 265
0.047927368 0.78100002 -0.034233831 1.3013018e-38 355 265
0.049296722 0.78100002 -0.034233831 1.3468974e-38 356 265
0.050666075 0.78100002 -0.034233831 1.4206898e-38 357 265
0.052168678 0.78299999 -0.034321502 1.5404468e-38 358 265
0.01194546 0.75700003 -0.034509107 1.9361372e-38 329 266
0.013272733 0.75700003 -0.034509107 1.9823079e-38 330 266
0.014600007 0.75700003 -0.034509107 2.0560644e-38 331 266
0.015927281 0.75700003 -0.034509107 2.1476499e-38 332 266
0.017254554 0.75700003 -0.034509107 2.1569054e-38 333 266
0.01863092 0.759 -0.034600276 1.954612e-38 334 266
0.0199617 0.759 -0.034600276 1.7610011e-38 335 266
0.02129248 0.759 -0.034600276 1.686807e-38 336 266
0.02262326 0.759 -0.034600276 1.686807e-38 337 266
0.023954039 0.759 -0.034600276 1.6230199e-38 338 266
0.025351444 0.76099998 -0.034691449 1.5861416e-38 339 266
0.0267208 0.76200002 -0.034737039 1.4853335e-38 340 266
0.028056841 0.76200002 -0.034737039 1.4669302e-38 341 266
0.029392879 0.76200002 -0.034737039 1.476148e-38 342 266
0.030809574 0.764 -0.034828212 1.4208314e-38 343 266
0.03227536 0.76700002 -0.034964975 1.3105212e-38 344 266
0.033707831 0.76899999 -0.035056144 1.2644241e-38 345 266
0.035056144 0.76899999 -0.035056144 1.2554558e-38 346 266
0.036404461 0.76899999 -0.035056144 1.2554558e-38 347 266
0.037949149 0.773 -0.035238493 1.2371246e-38 348 266
0.039355319 0.77399999 -0.03528408 1.2371246e-38 349 266
0.040712398 0.77399999 -0.03528408 1.227941e-38 350 266
0.042178184 0.77600002 -0.035375252 1.2187216e-38 351 266
0.043538772 0.77600002 -0.035375252 1.237017e-38 352 266
0.045015078 0.778 -0.035466425 1.237017e-38 353 266
0.046498396 0.77999997 -0.035557598 1.2644959e-38 354 266
0.010590133 0.755 -0.035741698 1.5591666e-38 328 267
0.011913899 0.755 -0.035741698 1.6237036e-38 329 267
0.013272733 0.75700003 -0.03583638 1.8078112e-38 330 267
0.014600007 0.75700003 -0.03583638 1.8815679e-38 331 267
0.015927281 0.75700003 -0.03583638 1.9635036e-38 332 267
0.017254554 0.75700003 -0.03583638 1.8989668e-38 333 267
0.018581826 0.75700003 -0.03583638 1.788943e-38 334 267
0.0199617 0.759 -0.035931058 1.8073823e-38 335 267
0.02129248 0.759 -0.035931058 1.8624086e-38 336 267
0.02262326 0.759 -0.035931058 1.751774e-38 337 267
0.023954039 0.759 -0.035931058 1.5955375e-38 338 267
0.025351444 0.76099998 -0.036025736 1.5586234e-38 339 267
0.026685731 0.76099998 -0.036025736 1.5037345e-38 340 267
0.028056841 0.76200002 -0.036073081 1.4299791e-38 341 267
0.029392879 0.76200002 -0.036073081 1.3105212e-38 342 267
0.030809574 0.764 -0.036167759 1.2920824e-38 343 267
0.032233275 0.76599997 -0.036262438 1.2461646e-38 344 267
0.033620168 0.76700002 -0.036309779 1.2553841e-38 345 267
0.034964975 0.76700002 -0.036309779 1.2553841e-38 346 267
0.036404461 0.76899999 -0.036404461 1.2553841e-38 347 267
0.037850961 0.77100003 -0.036499143 1.237017e-38 348 267
0.039304473 0.773 -0.036593821 1.2462364e-38 349 267
0.040712398 0.77399999 -0.036641158 1.2369811e-38 350 267
0.042069476 0.77399999 -0.036641158 1.2185781e-38 351 267
0.043538772 0.77600002 -0.036735836 1.2184346e-38 352 267
0.044899363 0.77600002 -0.036735836 1.1908122e-38 353 267
0.010590133 0.755 -0.037065465 1.5407557e-38 328 268
0.011913899 0.755 -0.037065465 1.5684498e-38 329 268
0.013237666 0.755 -0.037065465 1.6973487e-38 330 268
0.014561433 0.755 -0.037065465 1.7711052e-38 331 268
0.015885198 0.755 -0.037065465 1.8533295e-38 332 268
0.017208965 0.755 -0.037065465 1.8348545e-38 333 268
0.018581826 0.75700003 -0.037163652 1.8164162e-38 334 268
0.019909101 0.75700003 -0.037163652 1.8164162e-38 335 268
0.021236373 0.75700003 -0.037163652 1.7337256e-38 336 268
0.022563647 0.75700003 -0.037163652 1.6322745e-38 337 268
0.02389092 0.75700003 -0.037163652 1.5312134e-38 338 268
0.025284819 0.759 -0.03726184 1.5127746e-38 339 268
0.026685731 0.76099998 -0.037360024 1.4209391e-38 340 268
0.028056841 0.76200002 -0.037409119 1.3564031e-38 341 268
0.029392879 0.76200002 -0.037409119 1.2737153e-38 342 268
0.030728921 0.76200002 -0.037409119 1.2644959e-38 343 268
0.032149121 0.764 -0.037507307 1.2093587e-38 344 268
0.033576332 0.76599997 -0.037605491 1.2093587e-38 345 268
0.034919381 0.76599997 -0.037605491 1.2001751e-38 346 268
0.036309779 0.76700002 -0.037654586 1.1909557e-38 347 268
0.037850961 0.77100003 -0.037850961 1.1634051e-38 348 268
0.039304473 0.773 -0.037949149 1.1634051e-38 349 268
0.040712398 0.77399999 -0.037998237 1.1632974e-38 350 268
0.042069476 0.77399999 -0.037998237 1.1448586e-38 351 268
0.0065925326 0.75199997 -0.038236689 1.5957495e-38 325 269
0.0079110395 0.75199997 -0.038236689 1.6051123e-38 326 269
0.0092295464 0.75199997 -0.038236689 1.6419541e-38 327 269
0.010576107 0.75400001 -0.038338386 1.6602146e-38 328 269
0.01189812 0.75400001 -0.038338386 1.7247515e-38 329 269
0.013220133 0.75400001 -0.038338386 1.7341586e-38 330 269
0.014561433 0.755 -0.038389232 1.7894759e-38 331 269
0.015885198 0.755 -0.038389232 1.8720595e-38 332 269
0.017208965 0.755 -0.038389232 1.8536204e-38 333 269
0.018532733 0.755 -0.038389232 1.8165218e-38 334 269
0.019909101 0.75700003 -0.038490929 1.668973e-38 335 269
0.021236373 0.75700003 -0.038490929 1.5125596e-38 336 269
0.022563647 0.75700003 -0.038490929 1.4848652e-38 337 269
0.02389092 0.75700003 -0.038490929 1.4391985e-38 338 269
0.025284819 0.759 -0.038592618 1.4115761e-38 339 269
0.026685731 0.76099998 -0.038694311 1.3380001e-38 340 269
0.028056841 0.76200002 -0.038745161 1.2827195e-38 341 269
0.029392879 0.76200002 -0.038745161 1.2368376e-38 342 269
0.030728921 0.76200002 -0.038745161 1.2183629e-38 343 269
0.032149121 0.764 -0.038846854 1.190884e-38 344 269
0.033576332 0.76599997 -0.038948543 1.190884e-38 345 269
0.034919381 0.76599997 -0.038948543 1.154078e-38 346 269
0.036309779 0.76700002 -0.038999394 1.1448586e-38 347 269
0.03775277 0.76899999 -0.039101087 1.144751e-38 348 269
0.03920278 0.77100003 -0.03920278 1.1078733e-38 349 269
0.0052740262 0.75199997 -0.039555199 1.7337581e-38 324 270
0.0065925326 0.75199997 -0.039555199 1.7890754e-38 325 270
0.0079110395 0.75199997 -0.039555199 1.8074442e-38 326 270
0.0092295464 0.75199997 -0.039555199 1.8351031e-38 327 270
0.010548052 0.75199997 -0.039555199 1.8901351e-38 328 270
0.01189812 0.75400001 -0.039660402 1.9085743e-38 329 270
0.013220133 0.75400001 -0.039660402 1.8717699e-38 330 270
0.014542146 0.75400001 -0.039660402 1.7980133e-38 331 270
0.015885198 0.755 -0.039712999 1.6969193e-38 332 270
0.017208965 0.755 -0.039712999 1.6139433e-38 333 270
0.018532733 0.755 -0.039712999 1.4943731e-38 334 270
0.0198565 0.755 -0.039712999 1.4114331e-38 335 270
0.021236373 0.75700003 -0.039818201 1.3838461e-38 336 270
0.02262326 0.759 -0.0399234 1.3838461e-38 337 270
0.023954039 0.759 -0.0399234 1.3747343e-38 338 270
0.025351444 0.76099998 -0.040028598 1.3470402e-38 339 270
0.026685731 0.76099998 -0.040028598 1.2827195e-38 340 270
0.028056841 0.76200002 -0.040081199 1.2274388e-38 341 270
0.029392879 0.76200002 -0.040081199 1.1815569e-38 342 270
0.030809574 0.764 -0.040186398 1.1630822e-38 343 270
0.032149121 0.764 -0.040186398 1.1356033e-38 344 270
0.033576332 0.76599997 -0.040291596 1.1356033e-38 345 270
0.034919381 0.76599997 -0.040291596 1.0987256e-38 346 270
0.036309779 0.76700002 -0.040344197 1.0618121e-38 347 270
0.03775277 0.76899999 -0.0404494 1.0065673e-38 348 270
0 0.74699998 -0.040601939 1.8715891e-38 320 271
0.0013097399 0.74699998 -0.040601939 1.936126e-38 321 271
0.0026264933 0.74900001 -0.040710647 1.89021e-38 322 271
0.0039397399 0.74900001 -0.040710647 1.9086491e-38 323 271
0.00526 0.75 -0.040764999 1.917835e-38 324 271
0.0065925326 0.75199997 -0.040873703 1.9731523e-38 325 271
0.0079110395 0.75199997 -0.040873703 1.9731192e-38 326 271
0.0092295464 0.75199997 -0.040873703 1.9546801e-38 327 271
0.010548052 0.75199997 -0.040873703 1.9270211e-38 328 271
0.011866559 0.75199997 -0.040873703 1.8624841e-38 329 271
0.013220133 0.75400001 -0.040982414 1.751951e-38 330 271
0.014542146 0.75400001 -0.040982414 1.5952183e-38 331 271
0.01586416 0.75400001 -0.040982414 1.448131e-38 332 271
0.017208965 0.755 -0.041036766 1.365192e-38 333 271
0.018532733 0.755 -0.041036766 1.2826836e-38 334 271
0.0198565 0.755 -0.041036766 1.291903e-38 335 271
0.021236373 0.75700003 -0.041145474 1.328709e-38 336 271
0.022563647 0.75700003 -0.041145474 1.3194895e-38 337 271
0.023954039 0.759 -0.041254178 1.291903e-38 338 271
0.025351444 0.76099998 -0.041362885 1.2826836e-38 339 271
0.0267208 0.76200002 -0.041417241 1.2366224e-38 340 271
0.028056841 0.76200002 -0.041417241 1.1813058e-38 341 271
0.029392879 0.76200002 -0.041417241 1.0987256e-38 342 271
0.030809574 0.764 -0.041525945 1.1263839e-38 343 271
0.032233275 0.76599997 -0.041634649 1.1170568e-38 344 271
-0.0039029196 0.74199998 -0.041631144 2.1475741e-38 317 272
-0.0026019465 0.74199998 -0.041631144 2.1384229e-38 318 272
-0.0013079866 0.74599999 -0.04185557 2.1107642e-38 319 272
0 0.74599999 -0.04185557 2.1290939e-38 320 272
0.0013097399 0.74699998 -0.041911677 2.1290939e-38 321 272
0.0026264933 0.74900001 -0.042023893 2.0647017e-38 322 272
0.0039397399 0.74900001 -0.042023893 2.0093844e-38 323 272
0.0052529867 0.74900001 -0.042023893 1.8531537e-38 324 272
0.006575 0.75 -0.04208 1.7701418e-38 325 272
0.00789 0.75 -0.04208 1.6966342e-38 326 272
0.0092049995 0.75 -0.04208 1.6320972e-38 327 272
0.010548052 0.75199997 -0.04219221 1.5124558e-38 328 272
0.011866559 0.75199997 -0.04219221 1.4663579e-38 329 272
0.013220133 0.75400001 -0.042304426 1.3744473e-38 330 272
0.014542146 0.75400001 -0.042304426 1.3467891e-38 331 272
0.01586416 0.75400001 -0.042304426 1.2734283e-38 332 272
0.017208965 0.755 -0.042360533 1.2826477e-38 333 272
0.018532733 0.755 -0.042360533 1.2734642e-38 334 272
0.0198565 0.755 -0.042360533 1.2734642e-38 335 272
0.021236373 0.75700003 -0.042472746 1.3101625e-38 336 272
0.022563647 0.75700003 -0.042472746 1.3009431e-38 337 272
0.023954039 0.759 -0.042584959 1.2825401e-38 338 272
0.025351444 0.76099998 -0.042697169 1.2548818e-38 339 272
0.0267208 0.76200002 -0.042753279 1.1905611e-38 340 272
0.028130481 0.764 -0.042865492 1.1260252e-38 341 272
0.029470026 0.764 -0.042865492 1.0341538e-38 342 272
-0.0065048663 0.74199998 -0.042932119 2.2396648e-38 315 273
-0.0052038929 0.74199998 -0.042932119 2.2489913e-38 316 273
-0.0039029196 0.74199998 -0.042932119 2.2029293e-38 317 273
-0.0026019465 0.74199998 -0.042932119 2.1477536e-38 318 273
-0.0013079866 0.74599999 -0.04316356 2.0924723e-38 319 273
0 0.74599999 -0.04316356 1.9912343e-38 320 273
0.0013097399 0.74699998 -0.043221418 1.9082583e-38 321 273
0.0026264933 0.74900001 -0.04333714 1.8070926e-38 322 273
0.0039397399 0.74900001 -0.04333714 1.7241164e-38 323 273
0.0052529867 0.74900001 -0.04333714 1.6414941e-38 324 273
0.006575 0.75 -0.043394998 1.5401149e-38 325 273
0.00789 0.75 -0.043394998 1.4573145e-38 326 273
0.0092049995 0.75 -0.043394998 1.4112533e-38 327 273
0.010548052 0.75199997 -0.04351072 1.3285655e-38 328 273
0.011866559 0.75199997 -0.04351072 1.3101625e-38 329 273
0.013220133 0.75400001 -0.043626439 1.2826477e-38 330 273
0.014542146 0.75400001 -0.043626439 1.2734283e-38 331 273
0.01586416 0.75400001 -0.043626439 1.2091435e-38 332 273
0.017208965 0.755 -0.043684296 1.2091435e-38 333 273
0.018532733 0.755 -0.043684296 1.2366224e-38 334 273
0.0198565 0.755 -0.043684296 1.2274029e-38 335 273
0.021236373 0.75700003 -0.043800019 1.2273312e-38 336 273
0.02262326 0.759 -0.043915741 1.2457342e-38 337 273
0.023954039 0.759 -0.043915741 1.2456624e-38 338 273
0.025351444 0.76099998 -0.044031456 1.2179683e-38 339 273
-0.027209979 0.73900002 -0.044054255 1.8346087e-38 299 274
-0.025879199 0.73799998 -0.043994635 1.742878e-38 300 274
-0.024518613 0.736 -0.043875411 1.7520976e-38 301 274
-0.023165042 0.73400003 -0.043756187 1.751916e-38 302 274
-0.021878093 0.73400003 -0.043756187 1.705854e-38 303 274
-0.020591147 0.73400003 -0.043756187 1.6692266e-38 304 274
-0.019304199 0.73400003 -0.043756187 1.6969212e-38 305 274
-0.018017253 0.73400003 -0.043756187 1.7427313e-38 306 274
-0.009106813 0.74199998 -0.044233091 2.1753445e-38 313 274
-0.0078058392 0.74199998 -0.044233091 2.1660893e-38 314 274
-0.0065048663 0.74199998 -0.044233091 2.1568698e-38 315 274
-0.0052038929 0.74199998 -0.044233091 2.0831836e-38 316 274
-0.0039134403 0.74400002 -0.044352323 1.9356705e-38 317 274
-0.00260896 0.74400002 -0.044352323 1.7328663e-38 318 274
-0.0013079866 0.74599999 -0.044471547 1.5576586e-38 319 274
0 0.74699998 -0.044531155 1.4108587e-38 320 274
0.0013097399 0.74699998 -0.044531155 1.3924198e-38 321 274
0.0026264933 0.74900001 -0.044650383 1.310019e-38 322 274
0.0039397399 0.74900001 -0.044650383 1.3007996e-38 323 274
0.00526 0.75 -0.044709999 1.2824684e-38 324 274
0.006575 0.75 -0.044709999 1.3009072e-38 325 274
0.00789 0.75 -0.044709999 1.227654e-38 326 274
0.0092049995 0.75 -0.044709999 1.1908122e-38 327 274
0.010548052 0.75199997 -0.044829223 1.2458418e-38 328 274
0.011866559 0.75199997 -0.044829223 1.2274029e-38 329 274
0.013220133 0.75400001 -0.044948451 1.190597e-38 330 274
0.014542146 0.75400001 -0.044948451 1.190597e-38 331 274
0.01586416 0.75400001 -0.044948451 1.2272953e-38 332 274
0.017208965 0.755 -0.045008067 1.2272953e-38 333 274
0.018532733 0.755 -0.045008067 1.2364071e-38 334 274
0.019909101 0.75700003 -0.045127295 1.2179683e-38 335 274
0.021236373 0.75700003 -0.045127295 1.2178606e-38 336 274
-0.028389972 0.736 -0.045165867 1.7613814e-38 298 275
-0.02709952 0.736 -0.045165867 1.6784054e-38 299 275
-0.025809066 0.736 -0.045165867 1.660322e-38 300 275
-0.024451986 0.73400003 -0.045043133 1.724859e-38 301 275
-0.023133477 0.73299998 -0.044981763 1.7061678e-38 302 275
-0.021848286 0.73299998 -0.044981763 1.6231924e-38 303 275
-0.020563092 0.73299998 -0.044981763 1.559051e-38 304 275
-0.019304199 0.73400003 -0.045043133 1.559051e-38 305 275
-0.018017253 0.73400003 -0.045043133 1.6323759e-38 306 275
-0.016775893 0.736 -0.045165867 1.6231565e-38 307 275
-0.015485439 0.736 -0.045165867 1.5863506e-38 308 275
-0.0129922 0.741 -0.045472696 1.6048329e-38 310 275
-0.01169298 0.741 -0.045472696 1.770785e-38 311 275
-0.010407786 0.74199998 -0.045534063 1.908551e-38 312 275
-0.009106813 0.74199998 -0.045534063 1.9915272e-38 313 275
-0.0078058392 0.74199998 -0.045534063 2.1382511e-38 314 275
-0.0065048663 0.74199998 -0.045534063 2.119812e-38 315 275
-0.0052038929 0.74199998 -0.045534063 2.0003154e-38 316 275
-0.0039134403 0.74400002 -0.0456568 1.8804611e-38 317 275
-0.0026159731 0.74599999 -0.045779534 1.6778376e-38 318 275
-0.0013097399 0.74699998 -0.045840897 1.5302887e-38 319 275
0 0.74699998 -0.045840897 1.3191667e-38 320 275
0.0013132467 0.74900001 -0.045963634 1.3191667e-38 321 275
0.0026264933 0.74900001 -0.045963634 1.2641371e-38 322 275
0.0039397399 0.74900001 -0.045963634 1.2641371e-38 323 275
0.00526 0.75 -0.046024997 1.2274029e-38 324 275
0.006575 0.75 -0.046024997 1.2366224e-38 325 275
0.00789 0.75 -0.046024997 1.2090717e-38 326 275
0.0092049995 0.75 -0.046024997 1.190597e-38 327 275
0.010548052 0.75199997 -0.04614773 1.1630105e-38 328 275
0.011866559 0.75199997 -0.04614773 1.153791e-38 329 275
0.013220133 0.75400001 -0.046270464 1.1077657e-38 330 275
0.014542146 0.75400001 -0.046270464 1.0985462e-38 331 275
0.01586416 0.75400001 -0.046270464 1.1167699e-38 332 275
0.017208965 0.755 -0.04633183 1.098331e-38 333 275
0.018532733 0.755 -0.04633183 1.1533606e-38 334 275
-0.038240198 0.727 -0.045888241 1.8808532e-38 290 276
-0.036965527 0.727 -0.045888241 1.7610349e-38 291 276
-0.035690852 0.727 -0.045888241 1.6968137e-38 292 276
-0.029680425 0.736 -0.046456318 1.6418501e-38 297 276
-0.028312827 0.73400003 -0.046330083 1.7340802e-38 298 276
-0.02702588 0.73400003 -0.046330083 1.6142259e-38 299 276
-0.025738932 0.73400003 -0.046330083 1.6328806e-38 300 276
-0.024451986 0.73400003 -0.046330083 1.7158206e-38 301 276
-0.023133477 0.73299998 -0.046266954 1.6970575e-38 302 276
-0.021848286 0.73299998 -0.046266954 1.6233009e-38 303 276
-0.020563092 0.73299998 -0.046266954 1.5315721e-38 304 276
-0.019304199 0.73400003 -0.046330083 1.5039139e-38 305 276
-0.018017253 0.73400003 -0.046330083 1.5587641e-38 306 276
-0.016775893 0.736 -0.046456318 1.5587641e-38 307 276
-0.015485439 0.736 -0.046456318 1.5587641e-38 308 276
-0.014252847 0.73900002 -0.046645679 1.5310699e-38 309 276
-0.0129922 0.741 -0.046771921 1.4300517e-38 310 276
-0.01169298 0.741 -0.046771921 1.4853689e-38 311 276
-0.010407786 0.74199998 -0.046835039 1.632425e-38 312 276
-0.009106813 0.74199998 -0.046835039 1.7891577e-38 313 276
-0.0078058392 0.74199998 -0.046835039 1.9632945e-38 314 276
-0.0065223998 0.74400002 -0.046961278 1.9817337e-38 315 276
-0.0052179201 0.74400002 -0.046961278 1.9632589e-38 316 276
-0.0039134403 0.74400002 -0.046961278 1.917197e-38 317 276
-0.0026159731 0.74599999 -0.047087517 1.7976976e-38 318 276
-0.0013097399 0.74699998 -0.047150634 1.6225259e-38 319 276
0 0.74699998 -0.047150634 1.3281738e-38 320 276
0.0013132467 0.74900001 -0.047276881 1.3097345e-38 321 276
0.0026264933 0.74900001 -0.047276881 1.2273312e-38 322 276
0.0039397399 0.74900001 -0.047276881 1.2273312e-38 323 276
0.0052740262 0.75199997 -0.047466237 1.1996729e-38 324 276
0.0065925326 0.75199997 -0.047466237 1.1812699e-38 325 276
0.0079110395 0.75199997 -0.047466237 1.1169851e-38 326 276
0.0092295464 0.75199997 -0.047466237 1.0893268e-38 327 276
-0.040677335 0.72500002 -0.047033165 1.7890529e-38 288 277
-0.039406165 0.72500002 -0.047033165 1.6876017e-38 289 277
-0.038135 0.72500002 -0.047033165 1.5500913e-38 290 277
-0.036863834 0.72500002 -0.047033165 1.4579317e-38 291 277
-0.035592668 0.72500002 -0.047033165 1.5959663e-38 292 277
-0.03441618 0.727 -0.047162913 1.6051858e-38 293 277
-0.033141505 0.727 -0.047162913 1.660106e-38 294 277
-0.031910665 0.72799999 -0.047227785 1.6785448e-38 295 277
-0.030718399 0.73000002 -0.047357533 1.6602496e-38 296 277
-0.029478792 0.73100001 -0.047422405 1.6418106e-38 297 277
-0.028197108 0.73100001 -0.047422405 1.7246789e-38 298 277
-0.026915418 0.73100001 -0.047422405 1.6878007e-38 299 277
-0.025633732 0.73100001 -0.047422405 1.614296e-38 300 277
-0.024352046 0.73100001 -0.047422405 1.6235155e-38 301 277
-0.02307036 0.73100001 -0.047422405 1.6233718e-38 302 277
-0.021788673 0.73100001 -0.047422405 1.5864941e-38 303 277
-0.020506985 0.73100001 -0.047422405 1.5130257e-38 304 277
-0.019277899 0.73299998 -0.04755215 1.494551e-38 305 277
-0.018017253 0.73400003 -0.047617026 1.4944075e-38 306 277
-0.016730307 0.73400003 -0.047617026 1.4851522e-38 307 277
-0.015485439 0.736 -0.047746774 1.4851522e-38 308 277
-0.014252847 0.73900002 -0.047941394 1.4759327e-38 309 277
-0.0129922 0.741 -0.048071139 1.4391268e-38 310 277
-0.01170876 0.74199998 -0.048136011 1.4114327e-38 311 277
-0.010407786 0.74199998 -0.048136011 1.4296252e-38 312 277
-0.009106813 0.74199998 -0.048136011 1.5679187e-38 313 277
-0.0078058392 0.74199998 -0.048136011 1.7240506e-38 314 277
-0.0065223998 0.74400002 -0.048265759 1.7978071e-38 315 277
-0.0052179201 0.74400002 -0.048265759 1.8617717e-38 316 277
-0.0039239596 0.74599999 -0.048395503 1.8064543e-38 317 277
-0.0026159731 0.74599999 -0.048395503 1.6778083e-38 318 277
-0.0013097399 0.74699998 -0.048460379 1.539479e-38 319 277
0 0.74699998 -0.048460379 1.2359441e-38 320 277
0.0013132467 0.74900001 -0.048590127 1.2359441e-38 321 277
0.00263 0.75 -0.048655 1.1996012e-38 322 277
0.003945 0.75 -0.048655 1.1535041e-38 323 277
-0.041948501 0.72500002 -0.048304334 1.862269e-38 287 278
-0.040677335 0.72500002 -0.048304334 1.6235216e-38 288 278
-0.039406165 0.72500002 -0.048304334 1.4944477e-38 289 278
-0.038135 0.72500002 -0.048304334 1.4121501e-38 290 278
-0.036863834 0.72500002 -0.048304334 1.4213695e-38 291 278
-0.035592668 0.72500002 -0.048304334 1.5316091e-38 292 278
-0.034321502 0.72500002 -0.048304334 1.5869265e-38 293 278
-0.033050332 0.72500002 -0.048304334 1.6417051e-38 294 278
-0.03186683 0.727 -0.048437584 1.6601442e-38 295 278
-0.030592158 0.727 -0.048437584 1.6880165e-38 296 278
-0.029357811 0.72799999 -0.048504211 1.6418826e-38 297 278
-0.028081384 0.72799999 -0.048504211 1.6417747e-38 298 278
-0.026878599 0.73000002 -0.048637468 1.6601777e-38 299 278
-0.025598666 0.73000002 -0.048637468 1.5682705e-38 300 278
-0.024318734 0.73000002 -0.048637468 1.5498316e-38 301 278
-0.02307036 0.73100001 -0.048704091 1.5497599e-38 302 278
-0.021788673 0.73100001 -0.048704091 1.5312852e-38 303 278
-0.020506985 0.73100001 -0.048704091 1.476148e-38 304 278
-0.019277899 0.73299998 -0.048837345 1.4576733e-38 305 278
-0.017992707 0.73299998 -0.048837345 1.4666774e-38 306 278
-0.016730307 0.73400003 -0.048903972 1.4482386e-38 307 278
-0.015485439 0.736 -0.049037226 1.4114327e-38 308 278
-0.014233559 0.73799998 -0.049170475 1.3929938e-38 309 278
-0.0129922 0.741 -0.049370356 1.3838461e-38 310 278
-0.01170876 0.74199998 -0.049436983 1.3469684e-38 311 278
-0.01043584 0.74400002 -0.04957024 1.3467173e-38 312 278
-0.0091313599 0.74400002 -0.04957024 1.4204729e-38 313 278
-0.0078268806 0.74400002 -0.04957024 1.6134465e-38 314 278
-0.0065399334 0.74599999 -0.04970349 1.7240811e-38 315 278
-0.0052319462 0.74599999 -0.04970349 1.742024e-38 316 278
-0.0039292197 0.74699998 -0.049770117 1.6498644e-38 317 278
-0.044490833 0.72500002 -0.0495755 1.9449249e-38 285 279
-0.043219667 0.72500002 -0.0495755 1.7244721e-38 286 279
-0.041948501 0.72500002 -0.0495755 1.5493004e-38 287 279
-0.040677335 0.72500002 -0.0495755 1.4581396e-38 288 279
-0.039406165 0.72500002 -0.0495755 1.4581396e-38 289 279
-0.038135 0.72500002 -0.0495755 1.4857261e-38 290 279
-0.036863834 0.72500002 -0.0495755 1.4857261e-38 291 279
-0.035494477 0.72299999 -0.049438741 1.5224245e-38 292 279
-0.03422682 0.72299999 -0.049438741 1.5039856e-38 293 279
-0.032959159 0.72299999 -0.049438741 1.5129898e-38 294 279
-0.031779166 0.72500002 -0.0495755 1.5129898e-38 295 279
-0.030508002 0.72500002 -0.0495755 1.5129898e-38 296 279
-0.029317487 0.727 -0.049712259 1.5037704e-38 297 279
-0.028042812 0.727 -0.049712259 1.494551e-38 298 279
-0.026804959 0.72799999 -0.049780637 1.494551e-38 299 279
-0.025528532 0.72799999 -0.049780637 1.457745e-38 300 279
-0.024318734 0.73000002 -0.0499174 1.4208673e-38 301 279
-0.023038799 0.73000002 -0.0499174 1.4299791e-38 302 279
-0.021788673 0.73100001 -0.049985781 1.4023209e-38 303 279
-0.020506985 0.73100001 -0.049985781 1.4113609e-38 304 279
-0.019277899 0.73299998 -0.050122537 1.4113609e-38 305 279
-0.017992707 0.73299998 -0.050122537 1.411325e-38 306 279
-0.016730307 0.73400003 -0.050190922 1.3928862e-38 307 279
-0.015485439 0.736 -0.050327681 1.3835591e-38 308 279
-0.014233559 0.73799998 -0.050464436 1.3651203e-38 309 279
-0.0129922 0.741 -0.050669577 1.3376415e-38 310 279
-0.01170876 0.74199998 -0.050737958 1.3652642e-38 311 279
-0.010463892 0.74599999 -0.051011477 1.4755444e-38 312 279
-0.0091559067 0.74599999 -0.051011477 1.6045825e-38 313 279
-0.0078479191 0.74599999 -0.051011477 1.742056e-38 314 279
-0.04563576 0.72299999 -0.050706398 1.9821923e-38 284 280
-0.044368099 0.72299999 -0.050706398 1.7517034e-38 285 280
-0.043100435 0.72299999 -0.050706398 1.5039154e-38 286 280
-0.041832779 0.72299999 -0.050706398 1.448598e-38 287 280
-0.040565118 0.72299999 -0.050706398 1.4489202e-38 288 280
-0.039297458 0.72299999 -0.050706398 1.4857979e-38 289 280
-0.038135 0.72500002 -0.050846666 1.4857979e-38 290 280
-0.036762137 0.72299999 -0.050706398 1.4673949e-38 291 280
-0.035494477 0.72299999 -0.050706398 1.476435e-38 292 280
-0.03422682 0.72299999 -0.050706398 1.4671797e-38 293 280
-0.032959159 0.72299999 -0.050706398 1.4578885e-38 294 280
-0.031779166 0.72500002 -0.050846666 1.4578885e-38 295 280
-0.030508002 0.72500002 -0.050846666 1.4669644e-38 296 280
-0.029317487 0.727 -0.050986931 1.439342e-38 297 280
-0.028042812 0.727 -0.050986931 1.4576733e-38 298 280
-0.026768139 0.727 -0.050986931 1.4391985e-38 299 280
-0.025528532 0.72799999 -0.051057063 1.3932808e-38 300 280
-0.024252106 0.72799999 -0.051057063 1.3840614e-38 301 280
-0.023038799 0.73000002 -0.051197331 1.3931732e-38 302 280
-0.021788673 0.73100001 -0.051267464 1.3931732e-38 303 280
-0.020506985 0.73100001 -0.051267464 1.3471119e-38 304 280
-0.019277899 0.73299998 -0.051407732 1.3194895e-38 305 280
-0.017992707 0.73299998 -0.051407732 1.328422e-38 306 280
-0.016730307 0.73400003 -0.051477864 1.3192026e-38 307 280
-0.015485439 0.736 -0.051618133 1.4017835e-38 308 280
-0.014233559 0.73799998 -0.051758397 1.4386618e-38 309 280
-0.013009733 0.74199998 -0.05203893 1.4754032e-38 310 280
-0.045572639 0.722 -0.051902171 2.0375835e-38 284 281
-0.044306733 0.722 -0.051902171 1.816314e-38 285 281
-0.043100435 0.72299999 -0.051974058 1.504025e-38 286 281
-0.041832779 0.72299999 -0.051974058 1.4487076e-38 287 281
-0.040565118 0.72299999 -0.051974058 1.4949456e-38 288 281
-0.039297458 0.72299999 -0.051974058 1.4857261e-38 289 281
-0.038029801 0.72299999 -0.051974058 1.5132768e-38 290 281
-0.036762137 0.72299999 -0.051974058 1.4856185e-38 291 281
-0.035494477 0.72299999 -0.051974058 1.4394855e-38 292 281
-0.03422682 0.72299999 -0.051974058 1.4026078e-38 293 281
-0.032959159 0.72299999 -0.051974058 1.3841331e-38 294 281
-0.031691495 0.72299999 -0.051974058 1.3841331e-38 295 281
-0.030508002 0.72500002 -0.052117832 1.3655149e-38 296 281
-0.029236834 0.72500002 -0.052117832 1.3562955e-38 297 281
-0.027965667 0.72500002 -0.052117832 1.3745908e-38 298 281
-0.026768139 0.727 -0.052261602 1.3469684e-38 299 281
-0.025493465 0.727 -0.052261602 1.3470402e-38 300 281
-0.024252106 0.72799999 -0.052333489 1.3101984e-38 301 281
-0.023038799 0.73000002 -0.052477267 1.2734642e-38 302 281
-0.021788673 0.73100001 -0.052549154 1.2734642e-38 303 281
-0.020506985 0.73100001 -0.052549154 1.3192743e-38 304 281
-0.019277899 0.73299998 -0.052692924 1.3007996e-38 305 281
-0.017992707 0.73299998 -0.052692924 1.3372838e-38 306 281
-0.016730307 0.73400003 -0.052764814 1.4479185e-38 307 281
-0.015527519 0.73799998 -0.053052358 1.5123187e-38 308 281
-0.01429142 0.741 -0.053268019 1.5491968e-38 309 281
-0.0467088 0.72000003 -0.053020801 2.1936404e-38 283 282
-0.045446403 0.72000003 -0.053020801 2.2306221e-38 284 282
-0.044306733 0.722 -0.053168077 2.1292429e-38 285 282
-0.043040827 0.722 -0.053168077 1.8166655e-38 286 282
-0.041774917 0.722 -0.053168077 1.5769927e-38 287 282
-0.040509012 0.722 -0.053168077 1.4857261e-38 288 282
-0.039243106 0.722 -0.053168077 1.4765067e-38 289 282
-0.0379772 0.722 -0.053168077 1.4671079e-38 290 282
-0.03671129 0.722 -0.053168077 1.4486332e-38 291 282
-0.035445385 0.722 -0.053168077 1.384169e-38 292 282
-0.034179479 0.722 -0.053168077 1.3749137e-38 293 282
-0.032913569 0.722 -0.053168077 1.3748419e-38 294 282
-0.031647664 0.722 -0.053168077 1.3563672e-38 295 282
-0.030423839 0.72299999 -0.053241719 1.328709e-38 296 282
-0.029156178 0.72299999 -0.053241719 1.3194895e-38 297 282
-0.027965667 0.72500002 -0.053388998 1.3102342e-38 298 282
-0.026694499 0.72500002 -0.053388998 1.2917954e-38 299 282
-0.025493465 0.727 -0.053536277 1.2917595e-38 300 282
-0.024252106 0.72799999 -0.053609919 1.2825401e-38 301 282
-0.023038799 0.73000002 -0.053757198 1.2641371e-38 302 282
-0.021788673 0.73100001 -0.053830836 1.2548818e-38 303 282
-0.020506985 0.73100001 -0.053830836 1.2731054e-38 304 282
-0.019277899 0.73299998 -0.053978115 1.3007278e-38 305 282
-0.017992707 0.73299998 -0.053978115 1.3374323e-38 306 282
-0.016775893 0.736 -0.05419904 1.411189e-38 307 282
-0.015527519 0.73799998 -0.054346316 1.4661178e-38 308 282
-0.0479712 0.72000003 -0.054283202 2.2120802e-38 282 283
-0.0467088 0.72000003 -0.054283202 2.2212998e-38 283 283
-0.045446403 0.72000003 -0.054283202 2.294947e-38 284 283
-0.044183999 0.72000003 -0.054283202 2.3041667e-38 285 283
-0.042921603 0.72000003 -0.054283202 2.0196073e-38 286 283
-0.041659199 0.72000003 -0.054283202 1.5217509e-38 287 283
-0.040509012 0.722 -0.054433983 1.4213337e-38 288 283
-0.039243106 0.722 -0.054433983 1.3936754e-38 289 283
-0.0379772 0.722 -0.054433983 1.4026078e-38 290 283
-0.03671129 0.722 -0.054433983 1.3749137e-38 291 283
-0.035445385 0.722 -0.054433983 1.3104495e-38 292 283
-0.034179479 0.722 -0.054433983 1.3012301e-38 293 283
-0.032913569 0.722 -0.054433983 1.310306e-38 294 283
-0.031647664 0.722 -0.054433983 1.2734642e-38 295 283
-0.030423839 0.72299999 -0.054509375 1.2825401e-38 296 283
-0.029156178 0.72299999 -0.054509375 1.2641371e-38 297 283
-0.027965667 0.72500002 -0.054660168 1.2824684e-38 298 283
-0.026694499 0.72500002 -0.054660168 1.2732489e-38 299 283
-0.025493465 0.727 -0.054810952 1.2639936e-38 300 283
-0.024252106 0.72799999 -0.054886345 1.2639936e-38 301 283
-0.023038799 0.73000002 -0.055037133 1.263886e-38 302 283
-0.021788673 0.73100001 -0.055112526 1.2731054e-38 303 283
-0.020506985 0.73100001 -0.055112526 1.2912248e-38 304 283
-0.019356798 0.736 -0.055489492 1.3281391e-38 305 283
-0.0492336 0.72000003 -0.055545598 2.2303398e-38 281 284
-0.0479712 0.72000003 -0.055545598 2.2121521e-38 282 284
-0.0467088 0.72000003 -0.055545598 2.2398108e-38 283 284
-0.045446403 0.72000003 -0.055545598 2.2859089e-38 284 284
-0.044183999 0.72000003 -0.055545598 2.2674339e-38 285 284
-0.042921603 0.72000003 -0.055545598 2.0471959e-38 286 284
-0.041659199 0.72000003 -0.055545598 1.4479243e-38 287 284
-0.040396802 0.72000003 -0.055545598 1.3566183e-38 288 284
-0.039134402 0.72000003 -0.055545598 1.3289959e-38 289 284
-0.0379772 0.722 -0.055699892 1.3197048e-38 290 284
-0.03671129 0.722 -0.055699892 1.3104495e-38 291 284
-0.035445385 0.722 -0.055699892 1.3194895e-38 292 284
-0.034179479 0.722 -0.055699892 1.2917954e-38 293 284
-0.032913569 0.722 -0.055699892 1.2458776e-38 294 284
-0.031647664 0.722 -0.055699892 1.2366582e-38 295 284
-0.030423839 0.72299999 -0.055777039 1.2456624e-38 296 284
-0.029156178 0.72299999 -0.055777039 1.236443e-38 297 284
-0.027965667 0.72500002 -0.055931333 1.2363354e-38 298 284
-0.026768139 0.727 -0.056085624 1.2270801e-38 299 284
-0.025528532 0.72799999 -0.056162767 1.236228e-38 300 284
-0.024318734 0.73000002 -0.056317069 1.2270085e-38 301 284
-0.023038799 0.73000002 -0.056317069 1.2360879e-38 302 284
-0.021788673 0.73100001 -0.056394216 1.2453075e-38 303 284
-0.020563092 0.73299998 -0.056548502 1.2542084e-38 304 284
-0.05168651 0.71899998 -0.056729097 2.2211569e-38 279 285
-0.050425861 0.71899998 -0.056729097 2.2211563e-38 280 285
-0.0492336 0.72000003 -0.056808002 2.2304117e-38 281 285
-0.04790457 0.71899998 -0.056729097 2.2213717e-38 282 285
-0.046643924 0.71899998 -0.056729097 2.2674695e-38 283 285
-0.045446403 0.72000003 -0.056808002 2.3042754e-38 284 285
-0.044183999 0.72000003 -0.056808002 2.2489581e-38 285 285
-0.042921603 0.72000003 -0.056808002 1.9366687e-38 286 285
-0.041659199 0.72000003 -0.056808002 1.3466167e-38 287 285
-0.040396802 0.72000003 -0.056808002 1.3287807e-38 288 285
-0.039134402 0.72000003 -0.056808002 1.3103419e-38 289 285
-0.0379772 0.722 -0.056965802 1.2735359e-38 290 285
-0.03671129 0.722 -0.056965802 1.2550971e-38 291 285
-0.035445385 0.722 -0.056965802 1.2549536e-38 292 285
-0.034179479 0.722 -0.056965802 1.2549536e-38 293 285
-0.032913569 0.722 -0.056965802 1.236443e-38 294 285
-0.031691495 0.72299999 -0.057044696 1.2272236e-38 295 285
-0.030423839 0.72299999 -0.057044696 1.2454113e-38 296 285
-0.029236834 0.72500002 -0.057202499 1.2454113e-38 297 285
-0.027965667 0.72500002 -0.057202499 1.2269384e-38 298 285
-0.026768139 0.727 -0.057360299 1.236158e-38 299 285
-0.025528532 0.72799999 -0.057439197 1.2267624e-38 300 285
-0.024318734 0.73000002 -0.057597004 1.2452015e-38 301 285
-0.02307036 0.73100001 -0.057675898 1.2359137e-38 302 285
-0.021788673 0.73100001 -0.057675898 1.2359137e-38 303 285
-0.05508272 0.71399999 -0.057586476 2.1383956e-38 276 286
-0.053830836 0.71399999 -0.057586476 2.1660543e-38 277 286
-0.052578956 0.71399999 -0.057586476 2.2027886e-38 278 286
-0.051542737 0.71700001 -0.057828441 2.239631e-38 279 286
-0.0502856 0.71700001 -0.057828441 2.2673972e-38 280 286
-0.049165215 0.71899998 -0.057989739 2.2673972e-38 281 286
-0.04790457 0.71899998 -0.057989739 2.2397385e-38 282 286
-0.046643924 0.71899998 -0.057989739 2.1383233e-38 283 286
-0.045446403 0.72000003 -0.058070403 2.0828261e-38 284 286
-0.044183999 0.72000003 -0.058070403 1.9721915e-38 285 286
-0.042921603 0.72000003 -0.058070403 1.7064683e-38 286 286
-0.041659199 0.72000003 -0.058070403 1.2270511e-38 287 286
-0.040396802 0.72000003 -0.058070403 1.1998164e-38 288 286
-0.039134402 0.72000003 -0.058070403 1.2274747e-38 289 286
-0.0379772 0.722 -0.058231708 1.2824325e-38 290 286
-0.03671129 0.722 -0.058231708 1.2732131e-38 291 286
-0.035445385 0.722 -0.058231708 1.2638501e-38 292 286
-0.03422682 0.72299999 -0.058312356 1.2638501e-38 293 286
-0.032959159 0.72299999 -0.058312356 1.2453772e-38 294 286
-0.031779166 0.72500002 -0.058473669 1.2361577e-38 295 286
-0.030592158 0.727 -0.058634974 1.2543835e-38 296 286
-0.029317487 0.727 -0.058634974 1.263639e-38 297 286
-0.028042812 0.727 -0.058634974 1.2267995e-38 298 286
-0.026804959 0.72799999 -0.058715623 1.2175441e-38 299 286
-0.0563346 0.71399999 -0.058838356 2.1658742e-38 275 287
-0.05508272 0.71399999 -0.058838356 2.1843139e-38 276 287
-0.053830836 0.71399999 -0.058838356 2.2396313e-38 277 287
-0.052578956 0.71399999 -0.058838356 2.2212995e-38 278 287
-0.051542737 0.71700001 -0.059085581 2.2397385e-38 279 287
-0.0502856 0.71700001 -0.059085581 2.2581408e-38 280 287
-0.049165215 0.71899998 -0.059250388 2.2212265e-38 281 287
-0.04790457 0.71899998 -0.059250388 2.1473981e-38 282 287
-0.046643924 0.71899998 -0.059250388 2.0736416e-38 283 287
-0.045446403 0.72000003 -0.059332799 1.9448198e-38 284 287
-0.044183999 0.72000003 -0.059332799 1.8526601e-38 285 287
-0.042921603 0.72000003 -0.059332799 1.7058242e-38 286 287
-0.041659199 0.72000003 -0.059332799 1.3647003e-38 287 287
-0.040509012 0.722 -0.059497613 1.2822907e-38 288 287
-0.039243106 0.722 -0.059497613 1.2638157e-38 289 287
-0.038029801 0.72299999 -0.059580017 1.2730343e-38 290 287
-0.036762137 0.72299999 -0.059580017 1.2638147e-38 291 287
-0.035494477 0.72299999 -0.059580017 1.2546339e-38 292 287
-0.0563346 0.71399999 -0.060090236 2.2304112e-38 275 288
-0.05508272 0.71399999 -0.060090236 2.2121155e-38 276 288
-0.053981625 0.71600002 -0.06025856 2.2121155e-38 277 288
-0.052799881 0.71700001 -0.060342718 2.2580331e-38 278 288
-0.051542737 0.71700001 -0.060342718 2.1934962e-38 279 288
-0.0502856 0.71700001 -0.060342718 2.0826817e-38 280 288
-0.0492336 0.72000003 -0.060595199 1.9720469e-38 281 288
-0.0479712 0.72000003 -0.060595199 1.9167298e-38 282 288
-0.0467088 0.72000003 -0.060595199 1.8982907e-38 283 288
-0.045446403 0.72000003 -0.060595199 1.8065264e-38 284 288
-0.044183999 0.72000003 -0.060595199 1.751209e-38 285 288
-0.042921603 0.72000003 -0.060595199 1.6134506e-38 286 288
-0.041774917 0.722 -0.060763516 1.4198756e-38 287 288
-0.040509012 0.722 -0.060763516 1.31896e-38 288 288
-0.039243106 0.722 -0.060763516 1.2820816e-38 289 288
-0.080772556 0.69800001 -0.059967503 1.5681128e-38 254 289
-0.079548739 0.69800001 -0.059967503 1.4943563e-38 255 289
-0.058838356 0.71399999 -0.061342116 2.2026086e-38 273 289
-0.057586476 0.71399999 -0.061342116 2.2026802e-38 274 289
-0.056492399 0.71600002 -0.061513945 2.1934606e-38 275 289
-0.055237014 0.71600002 -0.061513945 2.193352e-38 276 289
-0.053981625 0.71600002 -0.061513945 2.1564379e-38 277 289
-0.052726239 0.71600002 -0.061513945 2.0829331e-38 278 289
-0.051542737 0.71700001 -0.061599858 1.999993e-38 279 289
-0.0502856 0.71700001 -0.061599858 1.8986504e-38 280 289
-0.0492336 0.72000003 -0.061857603 1.8341135e-38 281 289
-0.0479712 0.72000003 -0.061857603 1.806419e-38 282 289
-0.0467088 0.72000003 -0.061857603 1.7695409e-38 283 289
-0.045572639 0.722 -0.062029421 1.7051465e-38 284 289
-0.084444039 0.69800001 -0.061191335 1.2189216e-38 251 290
-0.083220214 0.69800001 -0.061191335 1.4672389e-38 252 290
-0.081996389 0.69800001 -0.061191335 1.5317759e-38 253 290
-0.080656841 0.69700003 -0.061103668 1.4762784e-38 254 290
-0.079434767 0.69700003 -0.061103668 1.3195459e-38 255 290
-0.078324907 0.69800001 -0.061191335 1.1172547e-38 256 290
-0.077321991 0.69999999 -0.061366666 1.2924264e-38 257 290
-0.076203369 0.70099998 -0.06145433 1.659986e-38 258 290
-0.074974284 0.70099998 -0.06145433 1.6415469e-38 259 290
-0.07406079 0.704 -0.061717331 1.8161428e-38 260 290
-0.070957392 0.70999998 -0.062243331 2.0644596e-38 263 290
-0.069712527 0.70999998 -0.062243331 2.0920457e-38 264 290
-0.06025856 0.71600002 -0.062769331 2.1933517e-38 272 290
-0.058838356 0.71399999 -0.062593997 2.1933517e-38 273 290
-0.057586476 0.71399999 -0.062593997 2.1657647e-38 274 290
-0.056492399 0.71600002 -0.062769331 2.0828246e-38 275 290
-0.055237014 0.71600002 -0.062769331 2.0366555e-38 276 290
-0.053981625 0.71600002 -0.062769331 1.981374e-38 277 290
-0.052726239 0.71600002 -0.062769331 1.8709913e-38 278 290
-0.051470853 0.71600002 -0.062769331 1.8156741e-38 279 290
-0.0502856 0.71700001 -0.062856995 1.7788677e-38 280 290
-0.08554513 0.69700003 -0.062325738 9.0606852e-39 250 291
-0.084323063 0.69700003 -0.062325738 9.429109e-39 251 291
-0.083100989 0.69700003 -0.062325738 1.182044e-38 252 291
-0.081878915 0.69700003 -0.062325738 1.246581e-38 253 291
-0.080656841 0.69700003 -0.062325738 1.246221e-38 254 291
-0.079434767 0.69700003 -0.062325738 1.181684e-38 255 291
-0.078212693 0.69700003 -0.062325738 1.1265817e-38 256 291
-0.077321991 0.69999999 -0.062593997 1.2648752e-38 257 291
-0.076094657 0.69999999 -0.062593997 1.6046318e-38 258 291
-0.074974284 0.70099998 -0.062683418 1.64151e-38 259 291
-0.07406079 0.704 -0.062951677 1.8068508e-38 260 291
-0.072826453 0.704 -0.062951677 1.9359247e-38 261 291
-0.071795486 0.70599997 -0.063130513 2.0553472e-38 262 291
-0.070657574 0.70700002 -0.063219935 2.0645668e-38 263 291
-0.069516152 0.708 -0.063309364 2.1013009e-38 264 291
-0.068467662 0.70999998 -0.063488193 2.1013009e-38 265 291
-0.067222796 0.70999998 -0.063488193 2.1195599e-38 266 291
-0.065977924 0.70999998 -0.063488193 2.1288154e-38 267 291
-0.064733058 0.70999998 -0.063488193 2.1196674e-38 268 291
-0.063577622 0.71100003 -0.063577622 2.1381067e-38 269 291
-0.062331002 0.71100003 -0.063577622 2.1473981e-38 270 291
-0.061256204 0.713 -0.063756458 2.128959e-38 271 291
-0.060090236 0.71399999 -0.063845873 2.1011561e-38 272 291
-0.058838356 0.71399999 -0.063845873 2.0458387e-38 273 291
-0.057586476 0.71399999 -0.063845873 1.9997765e-38 274 291
-0.056492399 0.71600002 -0.064024724 1.9536428e-38 275 291
-0.055237014 0.71600002 -0.064024724 1.8616998e-38 276 291
-0.053981625 0.71600002 -0.064024724 1.8340053e-38 277 291
-0.052726239 0.71600002 -0.064024724 1.7418821e-38 278 291
-0.051470853 0.71600002 -0.064024724 1.6865649e-38 279 291
-0.086767212 0.69700003 -0.06354782 1.2734127e-38 249 292
-0.08554513 0.69700003 -0.06354782 9.0610481e-39 250 292
-0.084323063 0.69700003 -0.06354782 8.6004301e-39 251 292
-0.083100989 0.69700003 -0.06354782 1.0071592e-38 252 292
-0.081878915 0.69700003 -0.06354782 1.0900992e-38 253 292
-0.080656841 0.69700003 -0.06354782 1.0806632e-38 254 292
-0.079434767 0.69700003 -0.06354782 1.06226e-38 255 292
-0.078212693 0.69700003 -0.06354782 1.1818623e-38 256 292
-0.077321991 0.69999999 -0.063821331 1.2740219e-38 257 292
-0.076094657 0.69999999 -0.063821331 1.5495292e-38 258 292
-0.074974284 0.70099998 -0.063912503 1.5864075e-38 259 292
-0.07406079 0.704 -0.064186029 1.7333444e-38 260 292
-0.072826453 0.704 -0.064186029 1.8624183e-38 261 292
-0.071795486 0.70599997 -0.064368367 2.0553823e-38 262 292
-0.070557632 0.70599997 -0.064368367 2.0830411e-38 263 292
-0.069516152 0.708 -0.06455072 2.1196321e-38 264 292
-0.068467662 0.70999998 -0.064733058 2.1104125e-38 265 292
-0.067222796 0.70999998 -0.064733058 2.1195955e-38 266 292
-0.065977924 0.70999998 -0.064733058 2.1195955e-38 267 292
-0.064733058 0.70999998 -0.064733058 2.1564013e-38 268 292
-0.063577622 0.71100003 -0.064824238 2.1932794e-38 269 292
-0.062331002 0.71100003 -0.064824238 2.1750195e-38 270 292
-0.061256204 0.713 -0.065006584 2.1104826e-38 271 292
-0.060090236 0.71399999 -0.065097757 1.9999201e-38 272 292
-0.058838356 0.71399999 -0.065097757 1.9353832e-38 273 292
-0.087989278 0.69700003 -0.064769886 1.1357664e-38 248 293
-0.086767212 0.69700003 -0.064769886 1.0712295e-38 249 293
-0.085422389 0.69599998 -0.064676955 9.5198584e-39 250 293
-0.084202074 0.69599998 -0.064676955 9.5198584e-39 251 293
-0.082981758 0.69599998 -0.064676955 9.7960698e-39 252 293
-0.081761435 0.69599998 -0.064676955 1.0073017e-38 253 293
-0.080656841 0.69700003 -0.064769886 1.007337e-38 254 293
-0.079434767 0.69700003 -0.064769886 1.0165566e-38 255 293
-0.078324907 0.69800001 -0.06486281 1.1727125e-38 256 293
-0.077321991 0.69999999 -0.065048665 1.2465049e-38 257 293
-0.076094657 0.69999999 -0.065048665 1.4850972e-38 258 293
-0.074974284 0.70099998 -0.065141588 1.5035724e-38 259 293
-0.073955595 0.70300001 -0.065327443 1.5954083e-38 260 293
-0.072826453 0.704 -0.065420374 1.752141e-38 261 293
-0.071592107 0.704 -0.065420374 2.0370858e-38 262 293
-0.070557632 0.70599997 -0.065606222 2.1108423e-38 263 293
-0.069417976 0.70700002 -0.065699153 2.1564735e-38 264 293
-0.068467662 0.70999998 -0.065977924 2.1195952e-38 265 293
-0.067222796 0.70999998 -0.065977924 2.1564366e-38 266 293
-0.065977924 0.70999998 -0.065977924 2.1564366e-38 267 293
-0.064733058 0.70999998 -0.065977924 2.147145e-38 268 293
-0.063577622 0.71100003 -0.066070862 2.0641331e-38 269 293
-0.062331002 0.71100003 -0.066070862 1.9720103e-38 270 293
-0.093154602 0.69 -0.065329194 1.6870689e-38 243 294
-0.09234456 0.69300002 -0.06561324 1.3747541e-38 244 294
-0.091129504 0.69300002 -0.06561324 1.2640833e-38 245 294
-0.089914441 0.69300002 -0.06561324 1.0713717e-38 246 294
-0.088699378 0.69300002 -0.06561324 1.1266889e-38 247 294
-0.087484315 0.69300002 -0.06561324 1.1174338e-38 248 294
-0.086269259 0.69300002 -0.06561324 1.0621166e-38 249 294
-0.085176937 0.69400001 -0.065707922 9.979745e-39 250 294
-0.083960123 0.69400001 -0.065707922 1.0071942e-38 251 294
-0.082981758 0.69599998 -0.065897278 1.0439629e-38 252 294
-0.081761435 0.69599998 -0.065897278 1.0531824e-38 253 294
-0.080541112 0.69599998 -0.065897278 1.0990632e-38 254 294
-0.079434767 0.69700003 -0.06599196 1.1267578e-38 255 294
-0.078324907 0.69800001 -0.066086642 1.2002599e-38 256 294
-0.077321991 0.69999999 -0.066275999 1.2371383e-38 257 294
-0.076094657 0.69999999 -0.066275999 1.4666898e-38 258 294
-0.074974284 0.70099998 -0.066370681 1.5035679e-38 259 294
-0.073955595 0.70300001 -0.066560037 1.5493064e-38 260 294
-0.072826453 0.704 -0.066654719 1.7244781e-38 261 294
-0.071592107 0.704 -0.066654719 1.9727267e-38 262 294
-0.070557632 0.70599997 -0.066844068 2.0464832e-38 263 294
-0.069417976 0.70700002 -0.066938758 2.1103754e-38 264 294
-0.068467662 0.70999998 -0.067222796 2.0643134e-38 265 294
-0.067222796 0.70999998 -0.067222796 2.0643485e-38 266 294
-0.065977924 0.70999998 -0.067222796 2.0551289e-38 267 294
-0.064733058 0.70999998 -0.067222796 1.9998113e-38 268 294
-0.063488193 0.70999998 -0.067222796 1.9444579e-38 269 294
-0.095574193 0.69 -0.066538997 1.7607185e-38 241 295
-0.094364397 0.69 -0.066538997 1.742386e-38 242 295
-0.093154602 0.69 -0.066538997 1.6778491e-38 243 295
-0.091944791 0.69 -0.066538997 1.4206714e-38 244 295
-0.090866491 0.69099998 -0.06663543 1.2915975e-38 245 295
-0.089654945 0.69099998 -0.06663543 1.0989928e-38 246 295
-0.088443391 0.69099998 -0.06663543 1.1266874e-38 247 295
-0.087231837 0.69099998 -0.06663543 1.0898812e-38 248 295
-0.086020276 0.69099998 -0.06663543 1.0529669e-38 249 295
-0.085054204 0.69300002 -0.066828303 1.0071915e-38 250 295
-0.083839141 0.69300002 -0.066828303 1.0071915e-38 251 295
-0.082743309 0.69400001 -0.066924736 1.0623259e-38 252 295
-0.081526496 0.69400001 -0.066924736 1.0715455e-38 253 295
-0.080541112 0.69599998 -0.067117594 1.1448331e-38 254 295
-0.079434767 0.69700003 -0.067214034 1.1909311e-38 255 295
-0.078324907 0.69800001 -0.06731046 1.2002581e-38 256 295
-0.077321991 0.69999999 -0.067503333 1.2371003e-38 257 295
-0.076094657 0.69999999 -0.067503333 1.4482142e-38 258 295
-0.074974284 0.70099998 -0.067599766 1.5034957e-38 259 295
-0.073955595 0.70300001 -0.067792632 1.5585263e-38 260 295
-0.072826453 0.704 -0.067889065 1.6968197e-38 261 295
-0.071795486 0.70599997 -0.06808193 1.9358486e-38 262 295
-0.070657574 0.70700002 -0.068178371 1.9727267e-38 263 295
-0.069516152 0.708 -0.068274796 1.9905213e-38 264 295
-0.098135822 0.69099998 -0.067846984 1.9078715e-38 239 296
-0.096783996 0.69 -0.0677488 1.7791216e-38 240 296
-0.095574193 0.69 -0.0677488 1.7514631e-38 241 296
-0.094364397 0.69 -0.0677488 1.7240548e-38 242 296
-0.093154602 0.69 -0.0677488 1.6595178e-38 243 296
-0.091944791 0.69 -0.0677488 1.420742e-38 244 296
-0.090734996 0.69 -0.0677488 1.3101074e-38 245 296
-0.0895252 0.69 -0.0677488 1.1909344e-38 246 296
-0.088315398 0.69 -0.0677488 1.1725313e-38 247 296
-0.087231837 0.69099998 -0.067846984 1.1358326e-38 248 296
-0.086020276 0.69099998 -0.067846984 1.1081379e-38 249 296
-0.085054204 0.69300002 -0.068043359 1.034812e-38 250 296
-0.083839141 0.69300002 -0.068043359 1.0255565e-38 251 296
-0.082743309 0.69400001 -0.068141542 1.0898026e-38 252 296
-0.081526496 0.69400001 -0.068141542 1.0990221e-38 253 296
-0.080541112 0.69599998 -0.068337917 1.1630905e-38 254 296
-0.079434767 0.69700003 -0.068436109 1.2276274e-38 255 296
-0.078324907 0.69800001 -0.068534292 1.2370272e-38 256 296
-0.077321991 0.69999999 -0.068730667 1.2739054e-38 257 296
-0.076094657 0.69999999 -0.068730667 1.4573604e-38 258 296
-0.074974284 0.70099998 -0.068828844 1.5311527e-38 259 296
-0.073955595 0.70300001 -0.069025226 1.6136616e-38 260 296
-0.072826453 0.704 -0.06912341 1.6597594e-38 261 296
-0.099347368 0.69099998 -0.069058537 1.9815198e-38 238 297
-0.098135822 0.69099998 -0.069058537 1.9354579e-38 239 297
-0.09692426 0.69099998 -0.069058537 1.7607901e-38 240 297
-0.095574193 0.69 -0.068958595 1.742351e-38 241 297
-0.094364397 0.69 -0.068958595 1.7148349e-38 242 297
-0.093154602 0.69 -0.068958595 1.6410783e-38 243 297
-0.091944791 0.69 -0.068958595 1.3931894e-38 244 297
-0.090734996 0.69 -0.068958595 1.3009937e-38 245 297
-0.0895252 0.69 -0.068958595 1.2184824e-38 246 297
-0.088315398 0.69 -0.068958595 1.2092628e-38 247 297
-0.087231837 0.69099998 -0.069058537 1.1725284e-38 248 297
-0.086020276 0.69099998 -0.069058537 1.1356861e-38 249 297
-0.085054204 0.69300002 -0.069258414 1.0531048e-38 250 297
-0.083839141 0.69300002 -0.069258414 1.0531048e-38 251 297
-0.082743309 0.69400001 -0.069358356 1.1265697e-38 252 297
-0.081761435 0.69599998 -0.069558233 1.1173501e-38 253 297
-0.080541112 0.69599998 -0.069558233 1.1907106e-38 254 297
-0.079434767 0.69700003 -0.069658175 1.2644671e-38 255 297
-0.078324907 0.69800001 -0.069758117 1.3106745e-38 256 297
-0.077321991 0.69999999 -0.069957994 1.3290776e-38 257 297
-0.076094657 0.69999999 -0.069957994 1.4666116e-38 258 297
-0.074974284 0.70099998 -0.070057929 1.4850509e-38 259 297
-0.073955595 0.70300001 -0.070257813 1.5860675e-38 260 297
-0.099347368 0.69099998 -0.070270091 1.9724082e-38 238 298
-0.098135822 0.69099998 -0.070270091 1.9355299e-38 239 298
-0.09692426 0.69099998 -0.070270091 1.7792292e-38 240 298
-0.095712706 0.69099998 -0.070270091 1.7607901e-38 241 298
-0.094364397 0.69 -0.070168398 1.7149065e-38 242 298
-0.093154602 0.69 -0.070168398 1.6135272e-38 243 298
-0.091944791 0.69 -0.070168398 1.4391777e-38 244 298
