# .PCD v.7 - Point Cloud Data file format
FIELDS x y z rgb imX imY
SIZE 4 4 4 4 4 4
TYPE F F F F F F
COUNT 1 1 1 1 1 1
WIDTH 835
HEIGHT 1
VIEWPOINT 0 0 0 1 0 0 0
POINTS 835
DATA ascii
-0.037938625 0.69800001 0.02202888 1.6042763e-38 289 222
-0.036662199 0.69700003 0.02199732 1.4476166e-38 290 222
-0.035440128 0.69700003 0.02199732 1.2078719e-38 291 222
-0.034218054 0.69700003 0.02199732 7.1948871e-39 292 222
-0.032853961 0.69400001 0.021902639 4.7981608e-39 293 222
-0.031591557 0.69300002 0.021871079 6.635975e-39 294 222
-0.030288832 0.69099998 0.021807959 6.2671925e-39 295 222
-0.028951041 0.68800002 0.021713281 5.9920545e-39 296 222
-0.027704418 0.68699998 0.021681719 6.9140094e-39 297 222
-0.026461305 0.68599999 0.021650158 5.6297544e-39 298 222
-0.025184879 0.68400002 0.02158704 5.0765806e-39 299 222
-0.023950534 0.68300003 0.02155548 3.790525e-39 300 222
-0.022753006 0.68300003 0.02155548 3.5142968e-39 301 222
-0.02155548 0.68300003 0.02155548 2.8721672e-39 302 222
-0.020357953 0.68300003 0.02155548 2.8721672e-39 303 222
-0.019132372 0.68199998 0.021523919 2.5963034e-39 304 222
-0.017936599 0.68199998 0.021523919 2.5963034e-39 305 222
-0.016740825 0.68199998 0.021523919 3.0554823e-39 306 222
-0.01428616 0.67900002 0.021429239 2.8718113e-39 308 222
-0.013095647 0.67900002 0.021429239 2.9643656e-39 309 222
-0.011905133 0.67900002 0.021429239 3.0565599e-39 310 222
-0.010714619 0.67900002 0.021429239 3.3327866e-39 311 222
-0.0095100794 0.67799997 0.021397678 3.1498303e-39 312 222
-0.0083213197 0.67799997 0.021397678 3.3342215e-39 313 222
-0.0071325595 0.67799997 0.021397678 3.5175338e-39 314 222
-0.0059437994 0.67799997 0.021397678 3.3331425e-39 315 222
-0.0047550397 0.67799997 0.021397678 3.4246221e-39 316 222
-0.0035662798 0.67799997 0.021397678 3.3320677e-39 317 222
-0.0023775198 0.67799997 0.021397678 3.0572815e-39 318 222
-0.0011887599 0.67799997 0.021397678 3.0572815e-39 319 222
0 0.67799997 0.021397678 3.3327894e-39 320 222
0.0011887599 0.67799997 0.021397678 3.3327894e-39 321 222
0.0023775198 0.67799997 0.021397678 3.3327894e-39 322 222
0.0035662798 0.67799997 0.021397678 3.3327894e-39 323 222
0.0047550397 0.67799997 0.021397678 3.6075784e-39 324 222
0.0059613334 0.68000001 0.0214608 3.6075784e-39 325 222
0.0071535995 0.68000001 0.0214608 4.4333762e-39 326 222
0.0083704125 0.68199998 0.021523919 4.6181262e-39 327 222
0.009566186 0.68199998 0.021523919 6.08749e-39 328 222
0.010761959 0.68199998 0.021523919 6.2718812e-39 329 222
0.011975267 0.68300003 0.02155548 6.2711525e-39 330 222
0.013172794 0.68300003 0.02155548 6.1789569e-39 331 222
0.014370319 0.68300003 0.02155548 6.5455786e-39 332 222
0.015567848 0.68300003 0.02155548 6.8221641e-39 333 222
0.016765373 0.68300003 0.02155548 6.180389e-39 334 222
0.017962901 0.68300003 0.02155548 5.9959978e-39 335 222
0.01918848 0.68400002 0.02158704 6.17931e-39 336 222
0.020387759 0.68400002 0.02158704 5.9030819e-39 337 222
0.021776399 0.69 0.021776399 6.0860438e-39 338 222
0.02308614 0.69300002 0.021871079 5.8094583e-39 339 222
0.024336265 0.69400001 0.021902639 4.7996028e-39 340 222
0.025553079 0.69400001 0.021902639 1.0331341e-38 341 222
-0.037938625 0.69800001 0.020805053 1.585837e-38 289 223
-0.0367148 0.69800001 0.020805053 1.5120455e-38 290 223
-0.035440128 0.69700003 0.020775247 1.3276543e-38 291 223
-0.034218054 0.69700003 0.020775247 7.8399034e-39 292 223
-0.032948639 0.69599998 0.020745439 4.7056121e-39 293 223
-0.031591557 0.69300002 0.020656019 5.6232678e-39 294 223
-0.030288832 0.69099998 0.020596405 5.8076605e-39 295 223
-0.028951041 0.68800002 0.020506985 6.2661205e-39 296 223
-0.027704418 0.68699998 0.020477179 6.9114899e-39 297 223
-0.026461305 0.68599999 0.020447372 5.8116261e-39 298 223
-0.025184879 0.68400002 0.020387759 5.4428422e-39 299 223
-0.023950534 0.68300003 0.020357953 3.9759938e-39 300 223
-0.022753006 0.68300003 0.020357953 3.6994083e-39 301 223
-0.02155548 0.68300003 0.020357953 2.8746825e-39 302 223
-0.020357953 0.68300003 0.020357953 2.8746825e-39 303 223
-0.019132372 0.68199998 0.020328145 2.5988187e-39 304 223
-0.017936599 0.68199998 0.020328145 2.5988187e-39 305 223
-0.016740825 0.68199998 0.020328145 2.5988215e-39 306 223
-0.01434928 0.68199998 0.020328145 2.8739665e-39 308 223
-0.013076359 0.67799997 0.020208918 2.8739665e-39 309 223
-0.010698839 0.67799997 0.020208918 3.1505491e-39 311 223
-0.0095100794 0.67799997 0.020208918 3.1505463e-39 312 223
-0.0083213197 0.67799997 0.020208918 3.242742e-39 313 223
-0.0071325595 0.67799997 0.020208918 3.3342215e-39 314 223
-0.0059437994 0.67799997 0.020208918 3.2420259e-39 315 223
-0.0047550397 0.67799997 0.020208918 3.3327866e-39 316 223
-0.0035662798 0.67799997 0.020208918 3.1487555e-39 317 223
-0.0023775198 0.67799997 0.020208918 2.8739665e-39 318 223
-0.0011887599 0.67799997 0.020208918 2.9661621e-39 319 223
0 0.67799997 0.020208918 3.1501932e-39 320 223
0.0011887599 0.67799997 0.020208918 3.1501932e-39 321 223
0.0023775198 0.67799997 0.020208918 3.3342215e-39 322 223
0.0035662798 0.67799997 0.020208918 3.3342215e-39 323 223
0.0047550397 0.67799997 0.020208918 3.6093665e-39 324 223
0.0059525664 0.67900002 0.020238725 3.8855947e-39 325 223
0.0071535995 0.68000001 0.020268533 4.5266439e-39 326 223
0.0083458666 0.68000001 0.020268533 4.2504171e-39 327 223
0.009566186 0.68199998 0.020328145 5.6254328e-39 328 223
0.010761959 0.68199998 0.020328145 5.8101828e-39 329 223
0.011975267 0.68300003 0.020357953 6.4505117e-39 330 223
0.013172794 0.68300003 0.020357953 6.3583161e-39 331 223
0.014370319 0.68300003 0.020357953 6.6338268e-39 332 223
0.015567848 0.68300003 0.020357953 6.7260224e-39 333 223
0.016765373 0.68300003 0.020357953 5.6275866e-39 334 223
0.017962901 0.68300003 0.020357953 5.6275866e-39 335 223
0.01918848 0.68400002 0.020387759 5.6283069e-39 336 223
0.020387759 0.68400002 0.020387759 5.6283069e-39 337 223
0.021776399 0.69 0.020566599 5.4446415e-39 338 223
0.02308614 0.69300002 0.020656019 5.2602488e-39 339 223
0.024336265 0.69400001 0.020685827 5.7204843e-39 340 223
-0.037938625 0.69800001 0.019581227 1.5766174e-38 289 224
-0.0367148 0.69800001 0.019581227 1.4936784e-38 290 224
-0.035440128 0.69700003 0.019553173 1.3553849e-38 291 224
-0.034218054 0.69700003 0.019553173 8.5778285e-39 292 224
-0.032948639 0.69599998 0.019525118 5.4431771e-39 293 224
-0.031637147 0.69400001 0.019469013 5.8101772e-39 294 224
-0.030288832 0.69099998 0.019384852 5.8101772e-39 295 224
-0.028951041 0.68800002 0.019300694 6.3608328e-39 296 224
-0.027704418 0.68699998 0.019272638 6.1764416e-39 297 224
-0.026461305 0.68599999 0.019244585 5.7169124e-39 298 224
-0.025184879 0.68400002 0.01918848 5.809108e-39 299 224
-0.023950534 0.68300003 0.019160427 3.7926788e-39 300 224
-0.022753006 0.68300003 0.019160427 3.9770714e-39 301 224
-0.02155548 0.68300003 0.019160427 3.2445412e-39 302 224
-0.020357953 0.68300003 0.019160427 3.2445412e-39 303 224
-0.019160427 0.68300003 0.019160427 2.8772007e-39 304 224
-0.017962901 0.68300003 0.019160427 2.8772007e-39 305 224
-0.011887599 0.67799997 0.019020159 3.1523428e-39 310 224
-0.010698839 0.67799997 0.019020159 3.1523428e-39 311 224
-0.0095100794 0.67799997 0.019020159 3.2441783e-39 312 224
-0.0083335936 0.67900002 0.019048214 3.4282094e-39 313 224
-0.0071430802 0.67900002 0.019048214 3.5196862e-39 314 224
-0.0059525664 0.67900002 0.019048214 3.5196862e-39 315 224
-0.0047620535 0.67900002 0.019048214 3.6100854e-39 316 224
-0.0035662798 0.67799997 0.019020159 3.6100854e-39 317 224
-0.0023775198 0.67799997 0.019020159 3.4264144e-39 318 224
-0.0011887599 0.67799997 0.019020159 3.4264144e-39 319 224
0 0.67799997 0.019020159 3.5196862e-39 320 224
0.0011887599 0.67799997 0.019020159 3.5196862e-39 321 224
0.0023775198 0.67799997 0.019020159 3.79555e-39 322 224
0.0035662798 0.67799997 0.019020159 3.8877456e-39 323 224
0.0047550397 0.67799997 0.019020159 4.1628906e-39 324 224
0.0059525664 0.67900002 0.019048214 4.1628906e-39 325 224
0.0071535995 0.68000001 0.019076265 5.078733e-39 326 224
0.0083458666 0.68000001 0.019076265 4.248971e-39 327 224
0.009566186 0.68199998 0.019132372 5.4385262e-39 328 224
0.01077774 0.68300003 0.019160427 5.2541364e-39 329 224
0.011975267 0.68300003 0.019160427 6.078502e-39 330 224
0.013172794 0.68300003 0.019160427 6.078502e-39 331 224
0.014370319 0.68300003 0.019160427 6.0795838e-39 332 224
0.015567848 0.68300003 0.019160427 6.263615e-39 333 224
0.016789921 0.68400002 0.01918848 5.0737108e-39 334 224
0.0179892 0.68400002 0.01918848 5.5346875e-39 335 224
0.01918848 0.68400002 0.01918848 5.721234e-39 336 224
0.020387759 0.68400002 0.01918848 5.9052651e-39 337 224
0.021807959 0.69099998 0.019384852 5.1694965e-39 338 224
0.02308614 0.69300002 0.01944096 5.1694965e-39 339 224
0.024336265 0.69400001 0.019469013 6.5495205e-39 340 224
0.025553079 0.69400001 0.019469013 1.1712476e-38 341 224
-0.037938625 0.69800001 0.0183574 1.5857654e-38 289 225
-0.036662199 0.69700003 0.018331099 1.4293216e-38 290 225
-0.035440128 0.69700003 0.018331099 1.2725889e-38 291 225
-0.034218054 0.69700003 0.018331099 9.6834474e-39 292 225
-0.032948639 0.69599998 0.018304799 8.300513e-39 293 225
-0.031637147 0.69400001 0.0182522 7.7469917e-39 294 225
-0.0303765 0.69300002 0.018225901 8.02358e-39 295 225
-0.029035198 0.69 0.018146999 8.0225052e-39 296 225
-0.027704418 0.68699998 0.018068098 5.5332246e-39 297 225
-0.026499879 0.68699998 0.018068098 4.4290448e-39 298 225
-0.025184879 0.68400002 0.0179892 5.1666099e-39 299 225
-0.023950534 0.68300003 0.017962901 3.7022824e-39 300 225
-0.022753006 0.68300003 0.017962901 3.9785091e-39 301 225
-0.02155548 0.68300003 0.017962901 3.3374585e-39 302 225
-0.020357953 0.68300003 0.017962901 3.2452629e-39 303 225
-0.019160427 0.68300003 0.017962901 2.8782853e-39 304 225
-0.017962901 0.68300003 0.017962901 3.0623164e-39 305 225
-0.015545053 0.68199998 0.017936599 2.5109419e-39 307 225
-0.01434928 0.68199998 0.017936599 3.0612318e-39 308 225
-0.011887599 0.67799997 0.0178314 3.2452601e-39 310 225
-0.010698839 0.67799997 0.0178314 3.2452601e-39 311 225
-0.0095100794 0.67799997 0.0178314 3.4292912e-39 312 225
-0.0083335936 0.67900002 0.017857701 3.5214869e-39 313 225
-0.0071430802 0.67900002 0.017857701 3.5214841e-39 314 225
-0.0059525664 0.67900002 0.017857701 3.5214841e-39 315 225
-0.0047620535 0.67900002 0.017857701 3.7951941e-39 316 225
-0.0035662798 0.67799997 0.0178314 3.7029985e-39 317 225
-0.0023775198 0.67799997 0.0178314 3.5204051e-39 318 225
-0.0011887599 0.67799997 0.0178314 3.5204051e-39 319 225
0 0.67799997 0.0178314 3.795913e-39 320 225
0.0011887599 0.67799997 0.0178314 3.8884673e-39 321 225
0.0023775198 0.67799997 0.0178314 4.0721369e-39 322 225
0.0035715401 0.67900002 0.017857701 4.256168e-39 323 225
0.0047620535 0.67900002 0.017857701 4.5305941e-39 324 225
0.0059613334 0.68000001 0.017883999 4.4383985e-39 325 225
0.00717464 0.68199998 0.017936599 5.4424863e-39 326 225
0.0083704125 0.68199998 0.017936599 4.3364989e-39 327 225
0.009566186 0.68199998 0.017936599 5.4349361e-39 328 225
0.01077774 0.68300003 0.017962901 5.4349361e-39 329 225
0.011975267 0.68300003 0.017962901 5.8933905e-39 330 225
0.013172794 0.68300003 0.017962901 5.8933905e-39 331 225
0.014370319 0.68300003 0.017962901 5.3427377e-39 332 225
0.015567848 0.68300003 0.017962901 5.5271289e-39 333 225
0.016789921 0.68400002 0.0179892 4.8885964e-39 334 225
0.0179892 0.68400002 0.0179892 6.5481178e-39 335 225
0.01918848 0.68400002 0.0179892 7.7488092e-39 336 225
0.020506985 0.68800002 0.0180944 7.287831e-39 337 225
0.021871079 0.69300002 0.018225901 7.0115944e-39 338 225
0.02308614 0.69300002 0.018225901 7.8413551e-39 339 225
0.024336265 0.69400001 0.0182522 8.9412035e-39 340 225
0.025553079 0.69400001 0.0182522 1.2628669e-38 341 225
-0.037938625 0.69800001 0.017133573 1.5857654e-38 289 226
-0.036662199 0.69700003 0.017109027 1.419994e-38 290 226
-0.035389278 0.69599998 0.017084479 1.2079801e-38 291 226
-0.034168959 0.69599998 0.017084479 9.5004883e-39 292 226
-0.032948639 0.69599998 0.017084479 1.0053662e-38 293 226
-0.031637147 0.69400001 0.017035386 9.1313512e-39 294 226
-0.0303765 0.69300002 0.01701084 9.2235483e-39 295 226
-0.029077278 0.69099998 0.016961746 9.0380836e-39 296 226
-0.027744746 0.68800002 0.016888106 7.194171e-39 297 226
-0.026499879 0.68699998 0.01686356 4.618101e-39 298 226
-0.025184879 0.68400002 0.016789921 4.8946879e-39 299 226
-0.023950534 0.68300003 0.016765373 4.7139092e-39 300 226
-0.022753006 0.68300003 0.016765373 4.8983018e-39 301 226
-0.02155548 0.68300003 0.016765373 4.7157112e-39 302 226
-0.020357953 0.68300003 0.016765373 4.9001025e-39 303 226
-0.019160427 0.68300003 0.016765373 5.3567745e-39 304 226
-0.017962901 0.68300003 0.016765373 5.0805477e-39 305 226
-0.016740825 0.68199998 0.016740825 3.0615975e-39 306 226
-0.015545053 0.68199998 0.016740825 2.9694019e-39 307 226
-0.01434928 0.68199998 0.016740825 3.1523484e-39 308 226
-0.013230653 0.68599999 0.016839013 3.244544e-39 309 226
-0.011905133 0.67900002 0.016667187 3.3367397e-39 310 226
-0.010714619 0.67900002 0.016667187 3.4289353e-39 311 226
-0.009524107 0.67900002 0.016667187 3.7047963e-39 312 226
-0.0083335936 0.67900002 0.016667187 4.0735788e-39 313 226
-0.0071430802 0.67900002 0.016667187 4.256524e-39 314 226
-0.0059525664 0.67900002 0.016667187 4.256524e-39 315 226
-0.0047620535 0.67900002 0.016667187 4.53095e-39 316 226
-0.0035662798 0.67799997 0.016642639 4.53095e-39 317 226
-0.0023775198 0.67799997 0.016642639 4.6217107e-39 318 226
-0.0011887599 0.67799997 0.016642639 4.6217107e-39 319 226
0 0.67799997 0.016642639 5.26349e-39 320 226
0.0011887599 0.67799997 0.016642639 5.3560444e-39 321 226
0.0023775198 0.67799997 0.016642639 4.8064607e-39 322 226
0.0035715401 0.67900002 0.016667187 4.8064607e-39 323 226
0.0047620535 0.67900002 0.016667187 4.7139064e-39 324 226
0.0059613334 0.68000001 0.016691733 4.1610913e-39 325 226
0.00717464 0.68199998 0.016740825 5.1651777e-39 326 226
0.0083704125 0.68199998 0.016740825 4.2435802e-39 327 226
0.009566186 0.68199998 0.016740825 5.3456089e-39 328 226
0.01077774 0.68300003 0.016765373 5.2534133e-39 329 226
0.011975267 0.68300003 0.016765373 5.3452418e-39 330 226
0.013172794 0.68300003 0.016765373 5.3452418e-39 331 226
0.014370319 0.68300003 0.016765373 5.069378e-39 332 226
0.01559064 0.68400002 0.016789921 5.4378017e-39 333 226
0.016839013 0.68599999 0.016839013 5.2613236e-39 334 226
0.018041799 0.68599999 0.016839013 6.6446168e-39 335 226
0.019244585 0.68599999 0.016839013 9.0377333e-39 336 226
0.020506985 0.68800002 0.016888106 8.6689522e-39 337 226
0.021871079 0.69300002 0.01701084 8.3934275e-39 338 226
0.02308614 0.69300002 0.01701084 8.7625701e-39 339 226
0.024336265 0.69400001 0.017035386 9.403255e-39 340 226
0.025553079 0.69400001 0.017035386 1.2353514e-38 341 226
-0.037884273 0.69700003 0.015886955 1.585837e-38 289 227
-0.036609598 0.69599998 0.015864158 1.419994e-38 290 227
-0.035389278 0.69599998 0.015864158 1.1618463e-38 291 227
-0.034168959 0.69599998 0.015864158 8.303387e-39 292 227
-0.032948639 0.69599998 0.015864158 9.0409521e-39 293 227
-0.031637147 0.69400001 0.015818574 9.4086612e-39 294 227
-0.0303765 0.69300002 0.015795778 9.5930525e-39 295 227
-0.029077278 0.69099998 0.015750192 9.2224777e-39 296 227
-0.027744746 0.68800002 0.015681813 8.4845539e-39 297 227
-0.026499879 0.68699998 0.015659019 7.0141084e-39 298 227
-0.025258519 0.68599999 0.015636226 6.1847078e-39 299 227
-0.0239856 0.68400002 0.01559064 4.8061048e-39 300 227
-0.022786319 0.68400002 0.01559064 5.0830518e-39 301 227
-0.02158704 0.68400002 0.01559064 5.7312925e-39 302 227
-0.020387759 0.68400002 0.01559064 7.4826493e-39 303 227
-0.019160427 0.68300003 0.015567848 7.8392041e-39 304 227
-0.017962901 0.68300003 0.015567848 5.5346721e-39 305 227
-0.016740825 0.68199998 0.015545053 2.8768335e-39 306 227
-0.015545053 0.68199998 0.015545053 2.9690305e-39 307 227
-0.01434928 0.68199998 0.015545053 3.2441783e-39 308 227
-0.013230653 0.68599999 0.015636226 3.4282094e-39 309 227
-0.012027865 0.68599999 0.015636226 3.6122378e-39 310 227
-0.010825079 0.68599999 0.015636226 3.7962689e-39 311 227
-0.009566186 0.68199998 0.015545053 4.0721369e-39 312 227
-0.0083704125 0.68199998 0.015545053 4.256168e-39 313 227
-0.00717464 0.68199998 0.015545053 4.7157084e-39 314 227
-0.005978866 0.68199998 0.015545053 4.5313158e-39 315 227
-0.0047690663 0.68000001 0.015499466 4.6227925e-39 316 227
-0.0035715401 0.67900002 0.015476674 5.4521945e-39 317 227
-0.0023810267 0.67900002 0.015476674 7.383614e-39 318 227
-0.0011905134 0.67900002 0.015476674 8.0289834e-39 319 227
0 0.67900002 0.015476674 7.8395544e-39 320 227
0.0011905134 0.67900002 0.015476674 6.8257613e-39 321 227
0.0023810267 0.67900002 0.015476674 4.9912065e-39 322 227
0.0035767998 0.68000001 0.015499466 4.8064551e-39 323 227
0.0047690663 0.68000001 0.015499466 4.6209919e-39 324 227
0.005978866 0.68199998 0.015545053 4.3444036e-39 325 227
0.00717464 0.68199998 0.015545053 4.5244803e-39 326 227
0.0083704125 0.68199998 0.015545053 4.2482521e-39 327 227
0.009566186 0.68199998 0.015545053 4.7989049e-39 328 227
0.01077774 0.68300003 0.015567848 4.7989049e-39 329 227
0.011975267 0.68300003 0.015567848 4.8882181e-39 330 227
0.013172794 0.68300003 0.015567848 5.2573593e-39 331 227
0.01439136 0.68400002 0.01559064 5.7179816e-39 332 227
0.01559064 0.68400002 0.01559064 7.0087204e-39 333 227
0.016839013 0.68599999 0.015636226 5.9095657e-39 334 227
0.018041799 0.68599999 0.015636226 6.3705438e-39 335 227
0.019272638 0.68699998 0.015659019 8.39308e-39 336 227
0.020506985 0.68800002 0.015681813 8.7622226e-39 337 227
0.021871079 0.69300002 0.015795778 8.8540399e-39 338 227
0.02308614 0.69300002 0.015795778 8.8540399e-39 339 227
0.024336265 0.69400001 0.015818574 8.9422726e-39 340 227
0.025553079 0.69400001 0.015818574 1.1984728e-38 341 227
-0.037884273 0.69700003 0.01466488 1.5766174e-38 289 228
-0.036609598 0.69599998 0.014643839 1.4199937e-38 290 228
-0.035389278 0.69599998 0.014643839 1.1710657e-38 291 228
-0.034168959 0.69599998 0.014643839 6.3697984e-39 292 228
-0.032948639 0.69599998 0.014643839 7.6605372e-39 293 228
-0.031637147 0.69400001 0.01460176 9.4093843e-39 294 228
-0.030420333 0.69400001 0.01460176 9.224993e-39 295 228
-0.029161438 0.69300002 0.014580719 8.9476859e-39 296 228
-0.027825398 0.69 0.014517599 8.6707402e-39 297 228
-0.026499879 0.68699998 0.014454478 8.8544154e-39 298 228
-0.025258519 0.68599999 0.01443344 8.8544154e-39 299 228
-0.024055731 0.68599999 0.01443344 8.3920108e-39 300 228
-0.022852944 0.68599999 0.01443344 7.2856646e-39 301 228
-0.021650158 0.68599999 0.01443344 7.1084592e-39 302 228
-0.020447372 0.68599999 0.01443344 1.0150556e-38 303 228
-0.01918848 0.68400002 0.01439136 1.005044e-38 304 228
-0.0179892 0.68400002 0.01439136 7.007626e-39 305 228
-0.016765373 0.68300003 0.014370319 4.7124588e-39 306 228
-0.015567848 0.68300003 0.014370319 4.4362307e-39 307 228
-0.01439136 0.68400002 0.01439136 4.3462029e-39 308 228
-0.01319208 0.68400002 0.01439136 4.2540072e-39 309 228
-0.0119928 0.68400002 0.01439136 4.0710551e-39 310 228
-0.01079352 0.68400002 0.01439136 4.2558051e-39 311 228
-0.0095942402 0.68400002 0.01439136 4.624582e-39 312 228
-0.0083704125 0.68199998 0.01434928 4.9015276e-39 313 228
-0.00717464 0.68199998 0.01434928 5.7269723e-39 314 228
-0.005978866 0.68199998 0.01434928 5.8191693e-39 315 228
-0.0047690663 0.68000001 0.014307199 8.4849239e-39 316 228
-0.0035767998 0.68000001 0.014307199 9.8678583e-39 317 228
-0.0023845332 0.68000001 0.014307199 9.5876673e-39 318 228
-0.0011922666 0.68000001 0.014307199 9.3107217e-39 319 228
0 0.67900002 0.01428616 6.9193932e-39 320 228
0.0011905134 0.67900002 0.01428616 6.7353607e-39 321 228
0.0023845332 0.68000001 0.014307199 5.9095629e-39 322 228
0.0035767998 0.68000001 0.014307199 5.7251716e-39 323 228
0.0047690663 0.68000001 0.014307199 5.5400601e-39 324 228
0.005978866 0.68199998 0.01434928 5.171279e-39 325 228
0.00717464 0.68199998 0.01434928 5.079805e-39 326 228
0.0083704125 0.68199998 0.01434928 5.1720007e-39 327 228
0.0095802136 0.68300003 0.014370319 6.086041e-39 328 228
0.01077774 0.68300003 0.014370319 5.9938454e-39 329 228
0.011975267 0.68300003 0.014370319 6.9125591e-39 330 228
0.01319208 0.68400002 0.01439136 7.3738974e-39 331 228
0.01439136 0.68400002 0.01439136 8.0199828e-39 332 228
0.015636226 0.68599999 0.01443344 8.6653522e-39 333 228
0.01686356 0.68699998 0.014454478 6.5527715e-39 334 228
0.018068098 0.68699998 0.014454478 6.5527715e-39 335 228
0.019272638 0.68699998 0.014454478 7.5651172e-39 336 228
0.020506985 0.68800002 0.014475521 8.0264554e-39 337 228
0.021871079 0.69300002 0.014580719 8.3948666e-39 338 228
0.02308614 0.69300002 0.014580719 7.6569414e-39 339 228
0.0244064 0.69599998 0.014643839 6.9193666e-39 340 228
0.025700359 0.69800001 0.01468592 1.1160005e-38 341 228
-0.037884273 0.69700003 0.013442807 1.5673979e-38 289 229
-0.036609598 0.69599998 0.013423519 1.429249e-38 290 229
-0.035389278 0.69599998 0.013423519 1.2079795e-38 291 229
-0.034168959 0.69599998 0.013423519 5.9088244e-39 292 229
-0.03299598 0.69700003 0.013442807 7.1992045e-39 293 229
-0.031728316 0.69599998 0.013423519 8.9476999e-39 294 229
-0.030420333 0.69400001 0.013384946 8.7636673e-39 295 229
-0.029161438 0.69300002 0.01336566 8.7636645e-39 296 229
-0.027825398 0.69 0.0133078 9.0402514e-39 297 229
-0.026538454 0.68800002 0.013269227 9.6852495e-39 298 229
-0.025258519 0.68599999 0.013230653 1.0422815e-38 299 229
-0.024055731 0.68599999 0.013230653 1.0969873e-38 300 229
-0.022852944 0.68599999 0.013230653 9.0337648e-39 301 229
-0.021650158 0.68599999 0.013230653 6.8322212e-39 302 229
-0.020447372 0.68599999 0.013230653 1.0151265e-38 303 229
-0.01918848 0.68400002 0.01319208 1.0970955e-38 304 229
-0.0179892 0.68400002 0.01319208 9.5876617e-39 305 229
-0.016765373 0.68300003 0.013172794 7.7491567e-39 306 229
-0.015567848 0.68300003 0.013172794 6.5506135e-39 307 229
-0.01439136 0.68400002 0.01319208 4.1628878e-39 308 229
-0.01319208 0.68400002 0.01319208 3.9784965e-39 309 229
-0.0119928 0.68400002 0.01319208 4.1636067e-39 310 229
-0.01077774 0.68300003 0.013172794 4.4405537e-39 311 229
-0.0095802136 0.68300003 0.013172794 4.9944435e-39 312 229
-0.0083704125 0.68199998 0.013153506 5.0866392e-39 313 229
-0.00717464 0.68199998 0.013153506 6.095752e-39 314 229
-0.005978866 0.68199998 0.013153506 6.4645359e-39 315 229
-0.004783093 0.68199998 0.013153506 1.0879119e-38 316 229
-0.0035767998 0.68000001 0.013114933 1.235461e-38 317 229
-0.0023845332 0.68000001 0.013114933 9.4007523e-39 318 229
-0.0011922666 0.68000001 0.013114933 7.5568397e-39 319 229
0 0.68000001 0.013114933 6.5506135e-39 320 229
0.0011922666 0.68000001 0.013114933 7.1959829e-39 321 229
0.0023845332 0.68000001 0.013114933 6.5549323e-39 322 229
0.0035767998 0.68000001 0.013114933 5.9095629e-39 323 229
0.004783093 0.68199998 0.013153506 5.4503826e-39 324 229
0.005978866 0.68199998 0.013153506 5.8191665e-39 325 229
0.00717464 0.68199998 0.013153506 6.9211911e-39 326 229
0.0083704125 0.68199998 0.013153506 7.1981381e-39 327 229
0.0095802136 0.68300003 0.013172794 7.8355874e-39 328 229
0.01077774 0.68300003 0.013172794 7.282415e-39 329 229
0.0119928 0.68400002 0.01319208 8.0199688e-39 330 229
0.01319208 0.68400002 0.01319208 8.7575353e-39 331 229
0.01443344 0.68599999 0.013230653 9.1270324e-39 332 229
0.015659019 0.68699998 0.013249939 8.850447e-39 333 229
0.01686356 0.68699998 0.013249939 6.5534876e-39 334 229
0.018068098 0.68699998 0.013249939 6.184705e-39 335 229
0.019300694 0.68800002 0.013269227 6.4620178e-39 336 229
0.020596405 0.69099998 0.013327086 7.0151916e-39 337 229
0.021871079 0.69300002 0.01336566 7.8420614e-39 338 229
0.02308614 0.69300002 0.01336566 7.196692e-39 339 229
0.024336265 0.69400001 0.013384946 6.1864805e-39 340 229
0.025700359 0.69800001 0.013462093 1.0335644e-38 341 229
-0.037884273 0.69700003 0.012220734 1.5490308e-38 289 230
-0.036609598 0.69599998 0.0122032 1.4752746e-38 290 230
-0.035389278 0.69599998 0.0122032 1.2724442e-38 291 230
-0.034168959 0.69599998 0.0122032 7.3796357e-39 292 230
-0.03299598 0.69700003 0.012220734 7.3796357e-39 293 230
-0.031728316 0.69599998 0.0122032 7.9342696e-39 294 230
-0.030420333 0.69400001 0.012168133 7.6580429e-39 295 230
-0.029161438 0.69300002 0.012150601 9.1302919e-39 296 230
-0.027865725 0.69099998 0.012115533 9.9604127e-39 297 230
-0.026538454 0.68800002 0.012062933 9.9629112e-39 298 230
-0.025295338 0.68699998 0.012045399 9.8707156e-39 299 230
-0.024055731 0.68599999 0.012027865 9.7778011e-39 300 230
-0.022852944 0.68599999 0.012027865 9.1324316e-39 301 230
-0.021650158 0.68599999 0.012027865 7.8470934e-39 302 230
-0.020447372 0.68599999 0.012027865 9.8753973e-39 303 230
-0.019244585 0.68599999 0.012027865 1.005044e-38 304 230
-0.0179892 0.68400002 0.0119928 9.3128755e-39 305 230
-0.016765373 0.68300003 0.011975267 1.0511066e-38 306 230
-0.015567848 0.68300003 0.011975267 8.8515442e-39 307 230
-0.01439136 0.68400002 0.0119928 4.8046573e-39 308 230
-0.01319208 0.68400002 0.0119928 4.7124616e-39 309 230
-0.0119928 0.68400002 0.0119928 4.256168e-39 310 230
-0.01077774 0.68300003 0.011975267 4.6253107e-39 311 230
-0.0095802136 0.68300003 0.011975267 4.9940876e-39 312 230
-0.0083826864 0.68300003 0.011975267 5.2710332e-39 313 230
-0.0071851597 0.68300003 0.011975267 6.2801433e-39 314 230
-0.005978866 0.68199998 0.011957732 6.4645359e-39 315 230
-0.004783093 0.68199998 0.011957732 1.0696882e-38 316 230
-0.0035767998 0.68000001 0.011922667 1.2264209e-38 317 230
-0.0023845332 0.68000001 0.011922667 8.8504498e-39 318 230
-0.0011957732 0.68199998 0.011957732 6.8221459e-39 319 230
0 0.68199998 0.011957732 6.8293514e-39 320 230
0.0011957732 0.68199998 0.011957732 7.4747208e-39 321 230
0.0023915465 0.68199998 0.011957732 7.7513105e-39 322 230
0.00358732 0.68199998 0.011957732 6.183626e-39 323 230
0.004783093 0.68199998 0.011957732 4.8968403e-39 324 230
0.005978866 0.68199998 0.011957732 7.2013709e-39 325 230
0.00717464 0.68199998 0.011957732 8.1190014e-39 326 230
0.0083704125 0.68199998 0.011957732 7.9346101e-39 327 230
0.0095802136 0.68300003 0.011975267 8.7582541e-39 328 230
0.01077774 0.68300003 0.011975267 8.2050804e-39 329 230
0.0119928 0.68400002 0.0119928 8.5738559e-39 330 230
0.013230653 0.68599999 0.012027865 8.7586073e-39 331 230
0.014454478 0.68699998 0.012045399 8.4834623e-39 332 230
0.015659019 0.68699998 0.012045399 8.1146798e-39 333 230
0.016888106 0.68800002 0.012062933 6.2758217e-39 334 230
0.0180944 0.68800002 0.012062933 6.2758217e-39 335 230
0.019356798 0.69 0.012097999 5.7269695e-39 336 230
0.020596405 0.69099998 0.012115533 6.2801433e-39 337 230
0.021871079 0.69300002 0.012150601 7.2896065e-39 338 230
0.02308614 0.69300002 0.012150601 6.6442371e-39 339 230
0.024336265 0.69400001 0.012168133 6.093566e-39 340 230
0.025663542 0.69700003 0.012220734 1.0334205e-38 341 230
-0.037884273 0.69700003 0.01099866 1.5306998e-38 289 231
-0.036662199 0.69700003 0.01099866 1.5028253e-38 290 231
-0.035440128 0.69700003 0.01099866 1.3276897e-38 291 231
-0.034218054 0.69700003 0.01099866 8.4834595e-39 292 231
-0.03299598 0.69700003 0.01099866 7.008328e-39 293 231
-0.031728316 0.69599998 0.010982879 7.5633291e-39 294 231
-0.030420333 0.69400001 0.01095132 7.8395573e-39 295 231
-0.029161438 0.69300002 0.010935539 8.6700368e-39 296 231
-0.027865725 0.69099998 0.01090398 9.5923518e-39 297 231
-0.026615599 0.69 0.010888199 9.9611259e-39 298 231
-0.025295338 0.68699998 0.010840859 8.9473327e-39 299 231
-0.024090799 0.68699998 0.010840859 8.1193685e-39 300 231
-0.022852944 0.68599999 0.010825079 9.5944986e-39 301 231
-0.021650158 0.68599999 0.010825079 9.8710785e-39 302 231
-0.020447372 0.68599999 0.010825079 1.0701199e-38 303 231
-0.019244585 0.68599999 0.010825079 9.497987e-39 304 231
-0.0179892 0.68400002 0.01079352 8.7604205e-39 305 231
-0.016789921 0.68400002 0.01079352 1.1801085e-38 306 231
-0.01559064 0.68400002 0.01079352 1.0325595e-38 307 231
-0.01439136 0.68400002 0.01079352 5.2649123e-39 308 231
-0.01319208 0.68400002 0.01079352 5.2649123e-39 309 231
-0.011975267 0.68300003 0.01077774 4.6242317e-39 310 231
-0.01077774 0.68300003 0.01077774 4.9008186e-39 311 231
-0.009566186 0.68199998 0.010761959 4.9940876e-39 312 231
-0.0083704125 0.68199998 0.010761959 5.3632288e-39 313 231
-0.00717464 0.68199998 0.010761959 6.2808593e-39 314 231
-0.005978866 0.68199998 0.010761959 6.4656107e-39 315 231
-0.004783093 0.68199998 0.010761959 1.0513567e-38 316 231
-0.00358732 0.68199998 0.010761959 1.2264925e-38 317 231
-0.0023915465 0.68199998 0.010761959 9.221749e-39 318 231
-0.0011957732 0.68199998 0.010761959 7.6544247e-39 319 231
0 0.68199998 0.010761959 7.1062942e-39 320 231
0.0011957732 0.68199998 0.010761959 7.6591092e-39 321 231
0.0023915465 0.68199998 0.010761959 8.1186455e-39 322 231
0.00358732 0.68199998 0.010761959 7.0122979e-39 323 231
0.004783093 0.68199998 0.010761959 6.3687236e-39 324 231
0.0059876335 0.68300003 0.01077774 8.1204405e-39 325 231
0.0071851597 0.68300003 0.01077774 9.4061375e-39 326 231
0.0083826864 0.68300003 0.01077774 8.3923457e-39 327 231
0.0095802136 0.68300003 0.01077774 8.6660557e-39 328 231
0.01079352 0.68400002 0.01079352 8.2976319e-39 329 231
0.012027865 0.68599999 0.010825079 8.1153987e-39 330 231
0.013249939 0.68699998 0.010840859 8.1153987e-39 331 231
0.014454478 0.68699998 0.010840859 7.3792826e-39 332 231
0.015681813 0.68800002 0.010856641 6.6417175e-39 333 231
0.0169372 0.69 0.010888199 6.1825569e-39 334 231
0.018146999 0.69 0.010888199 6.1825569e-39 335 231
0.019384852 0.69099998 0.01090398 5.9095657e-39 336 231
0.020656019 0.69300002 0.010935539 6.2779895e-39 337 231
0.021902639 0.69400001 0.01095132 6.6449643e-39 338 231
0.023119451 0.69400001 0.01095132 5.6304523e-39 339 231
0.0244064 0.69599998 0.010982879 5.9041357e-39 340 231
0.025663542 0.69700003 0.01099866 1.1067091e-38 341 231
-0.037884273 0.69700003 0.0097765867 1.5489589e-38 289 232
-0.036662199 0.69700003 0.0097765867 1.5212645e-38 290 232
-0.035440128 0.69700003 0.0097765867 1.3922266e-38 291 232
-0.034218054 0.69700003 0.0097765867 9.6820027e-39 292 232
-0.03299598 0.69700003 0.0097765867 7.3774707e-39 293 232
-0.03177391 0.69700003 0.0097765867 6.7389536e-39 294 232
-0.030507999 0.69599998 0.0097625591 6.9233449e-39 295 232
-0.029203519 0.69400001 0.0097345067 8.0268226e-39 296 232
-0.027865725 0.69099998 0.0096924258 8.2112138e-39 297 232
-0.026615599 0.69 0.0096783992 8.8526302e-39 298 232
-0.02533216 0.68800002 0.0096503468 8.2998151e-39 299 232
-0.024090799 0.68699998 0.0096363192 5.7298436e-39 300 232
-0.022852944 0.68599999 0.0096222926 8.4957125e-39 301 232
-0.021650158 0.68599999 0.0096222926 1.1248981e-38 302 232
-0.020477179 0.68699998 0.0096363192 1.1709959e-38 303 232
-0.019244585 0.68599999 0.0096222926 9.497987e-39 304 232
-0.018041799 0.68599999 0.0096222926 8.7604205e-39 305 232
-0.016789921 0.68400002 0.0095942402 1.1434098e-38 306 232
-0.01559064 0.68400002 0.0095942402 1.0235555e-38 307 232
-0.01439136 0.68400002 0.0095942402 6.0003166e-39 308 232
-0.01319208 0.68400002 0.0095942402 5.908121e-39 309 232
-0.011975267 0.68300003 0.0095802136 4.9011745e-39 310 232
-0.01077774 0.68300003 0.0095802136 4.9933701e-39 311 232
-0.009566186 0.68199998 0.009566186 5.2699514e-39 312 232
-0.0083704125 0.68199998 0.009566186 5.4543427e-39 313 232
-0.00717464 0.68199998 0.009566186 7.1066613e-39 314 232
-0.005978866 0.68199998 0.009566186 7.3832482e-39 315 232
-0.004783093 0.68199998 0.009566186 1.0605764e-38 316 232
-0.00358732 0.68199998 0.009566186 1.2357479e-38 317 232
-0.0023915465 0.68199998 0.009566186 9.498703e-39 318 232
-0.0011957732 0.68199998 0.009566186 7.1019754e-39 319 232
0 0.68199998 0.009566186 7.3807301e-39 320 232
0.0011957732 0.68199998 0.009566186 8.0260995e-39 321 232
0.0023915465 0.68199998 0.009566186 8.5778229e-39 322 232
0.00358732 0.68199998 0.009566186 8.5778229e-39 323 232
0.004783093 0.68199998 0.009566186 8.6703717e-39 324 232
0.0059876335 0.68300003 0.0095802136 9.1313484e-39 325 232
0.0071851597 0.68300003 0.0095802136 9.6820055e-39 326 232
0.0083826864 0.68300003 0.0095802136 7.3771147e-39 327 232
0.0095942402 0.68400002 0.0095942402 8.386243e-39 328 232
0.01079352 0.68400002 0.0095942402 8.1100163e-39 329 232
0.012045399 0.68699998 0.0096363192 7.4696817e-39 330 232
0.013269227 0.68800002 0.0096503468 7.6540744e-39 331 232
0.014475521 0.68800002 0.0096503468 5.8151995e-39 332 232
0.015727401 0.69 0.0096783992 5.9073965e-39 333 232
0.0169372 0.69 0.0096783992 6.1829128e-39 334 232
0.0181733 0.69099998 0.0096924258 6.1829128e-39 335 232
0.01944096 0.69300002 0.0097204801 5.9999635e-39 336 232
0.020685827 0.69400001 0.0097345067 5.8155722e-39 337 232
0.021902639 0.69400001 0.0097345067 6.2729532e-39 338 232
0.023119451 0.69400001 0.0097345067 5.1669658e-39 339 232
0.0244064 0.69599998 0.0097625591 5.2616501e-39 340 232
0.025663542 0.69700003 0.0097765867 1.0701552e-38 341 232
-0.0367148 0.69800001 0.0085667865 1.5213001e-38 290 233
-0.035490975 0.69800001 0.0085667865 1.4475436e-38 291 233
-0.034267146 0.69800001 0.0085667865 1.106457e-38 292 233
-0.033043321 0.69800001 0.0085667865 9.0362661e-39 293 233
-0.03177391 0.69700003 0.0085545136 7.5625976e-39 294 233
-0.030507999 0.69599998 0.0085422397 7.1941738e-39 295 233
-0.029203519 0.69400001 0.0085176928 7.5644151e-39 296 233
-0.027865725 0.69099998 0.008480873 7.841002e-39 297 233
-0.026615599 0.69 0.0084686 7.3825504e-39 298 233
-0.02533216 0.68800002 0.0084440531 7.1056048e-39 299 233
-0.024090799 0.68699998 0.0084317802 5.8213357e-39 300 233
-0.022886258 0.68699998 0.0084317802 7.572694e-39 301 233
-0.021681719 0.68699998 0.0084317802 1.0606495e-38 302 233
-0.020477179 0.68699998 0.0084317802 1.1067834e-38 303 233
-0.019244585 0.68599999 0.0084195063 1.005044e-38 304 233
-0.018041799 0.68599999 0.0084195063 9.2206798e-39 305 233
-0.016839013 0.68599999 0.0084195063 1.115823e-38 306 233
-0.015636226 0.68599999 0.0084195063 1.0236274e-38 307 233
-0.01439136 0.68400002 0.0083949603 6.5534848e-39 308 233
-0.013172794 0.68300003 0.0083826864 6.185061e-39 309 233
-0.011975267 0.68300003 0.0083826864 5.7276926e-39 310 233
-0.010761959 0.68199998 0.0083704125 5.6354955e-39 311 233
-0.0095381327 0.68000001 0.0083458666 4.9933673e-39 312 233
-0.0083458666 0.68000001 0.0083458666 5.0859231e-39 313 233
-0.00717464 0.68199998 0.0083704125 5.0859231e-39 314 233
-0.005978866 0.68199998 0.0083704125 5.6387367e-39 315 233
-0.004783093 0.68199998 0.0083704125 1.0421734e-38 316 233
-0.00358732 0.68199998 0.0083704125 1.2081616e-38 317 233
-0.0023915465 0.68199998 0.0083704125 7.934257e-39 318 233
-0.0011957732 0.68199998 0.0083704125 5.0758337e-39 319 233
0 0.68199998 0.0083704125 6.1872288e-39 320 233
0.0011957732 0.68199998 0.0083704125 7.5701632e-39 321 233
0.0023915465 0.68199998 0.0083704125 8.5799795e-39 322 233
0.00358732 0.68199998 0.0083704125 8.5799795e-39 323 233
0.0047901068 0.68300003 0.0083826864 8.8558378e-39 324 233
0.0059876335 0.68300003 0.0083826864 8.7636421e-39 325 233
0.0071851597 0.68300003 0.0083826864 9.1266821e-39 326 233
0.0083949603 0.68400002 0.0083949603 8.1125316e-39 327 233
0.0095942402 0.68400002 0.0083949603 7.1023439e-39 328 233
0.010825079 0.68599999 0.0084195063 7.194541e-39 329 233
0.012045399 0.68699998 0.0084317802 7.3796483e-39 330 233
0.013269227 0.68800002 0.0084440531 7.1034215e-39 331 233
0.014517599 0.69 0.0084686 6.8261144e-39 332 233
0.015727401 0.69 0.0084686 6.8261144e-39 333 233
0.016961746 0.69099998 0.008480873 5.908121e-39 334 233
0.0181733 0.69099998 0.008480873 5.7233696e-39 335 233
0.01944096 0.69300002 0.0085054198 6.2725903e-39 336 233
0.020685827 0.69400001 0.0085176928 6.2725903e-39 337 233
0.021902639 0.69400001 0.0085176928 6.6413672e-39 338 233
0.023119451 0.69400001 0.0085176928 6.2725847e-39 339 233
0.024441468 0.69700003 0.0085545136 6.9193638e-39 340 233
-0.0367148 0.69800001 0.0073429602 1.5028253e-38 290 234
-0.035490975 0.69800001 0.0073429602 1.447508e-38 291 234
-0.034267146 0.69800001 0.0073429602 1.1985082e-38 292 234
-0.033043321 0.69800001 0.0073429602 1.0602147e-38 293 234
-0.03177391 0.69700003 0.00733244 9.1266765e-39 294 234
-0.030551834 0.69700003 0.00733244 8.2050804e-39 295 234
-0.029203519 0.69400001 0.0073008798 7.0133923e-39 296 234
-0.027865725 0.69099998 0.0072693196 7.1055879e-39 297 234
-0.026654173 0.69099998 0.0072693196 7.2896331e-39 298 234
-0.025405798 0.69 0.0072587994 7.2896331e-39 299 234
-0.024125867 0.68800002 0.0072377604 6.0968464e-39 300 234
-0.022886258 0.68699998 0.0072272392 5.7280653e-39 301 234
-0.021681719 0.68699998 0.0072272392 6.6496489e-39 302 234
-0.020477179 0.68699998 0.0072272392 8.6779527e-39 303 234
-0.019272638 0.68699998 0.0072272392 9.4047152e-39 304 234
-0.018068098 0.68699998 0.0072272392 8.8519001e-39 305 234
-0.016839013 0.68599999 0.0072167199 1.1066753e-38 306 234
-0.015636226 0.68599999 0.0072167199 1.0145157e-38 307 234
-0.01439136 0.68400002 0.0071956799 7.2896065e-39 308 234
-0.013172794 0.68300003 0.0071851597 7.013021e-39 309 234
-0.011975267 0.68300003 0.0071851597 5.6365731e-39 310 234
-0.010761959 0.68199998 0.00717464 5.4521805e-39 311 234
-0.0095381327 0.68000001 0.0071535995 5.0837651e-39 312 234
-0.0083458666 0.68000001 0.0071535995 5.0837651e-39 313 234
-0.00717464 0.68199998 0.00717464 3.7058683e-39 314 234
-0.005978866 0.68199998 0.00717464 4.4434334e-39 315 234
-0.004783093 0.68199998 0.00717464 9.9629238e-39 316 234
-0.0035925799 0.68300003 0.0071851597 1.1438414e-38 317 234
-0.0023950534 0.68300003 0.0071851597 6.6449671e-39 318 234
-0.0011975267 0.68300003 0.0071851597 4.3397162e-39 319 234
0 0.68300003 0.0071851597 5.9120866e-39 320 234
0.0011975267 0.68300003 0.0071851597 7.2028254e-39 321 234
0.0023950534 0.68300003 0.0071851597 8.4852728e-39 322 234
0.0035925799 0.68300003 0.0071851597 8.5778285e-39 323 234
0.0047901068 0.68300003 0.0071851597 8.5760265e-39 324 234
0.0059876335 0.68300003 0.0071851597 7.6544303e-39 325 234
0.0071956799 0.68400002 0.0071956799 7.8373922e-39 326 234
0.0084195063 0.68599999 0.0072167199 7.6526423e-39 327 234
0.0096222926 0.68599999 0.0072167199 7.0130238e-39 328 234
0.010840859 0.68699998 0.0072272392 7.5661976e-39 329 234
0.012062933 0.68800002 0.0072377604 8.025724e-39 330 234
0.0133078 0.69 0.0072587994 7.6569414e-39 331 234
0.014538639 0.69099998 0.0072693196 7.1012565e-39 332 234
0.015750192 0.69099998 0.0072693196 6.4558871e-39 333 234
0.016961746 0.69099998 0.0072693196 5.9045252e-39 334 234
0.018225901 0.69300002 0.0072903596 6.1811107e-39 335 234
0.019469013 0.69400001 0.0073008798 6.9190289e-39 336 234
0.020685827 0.69400001 0.0073008798 8.1175721e-39 337 234
0.021902639 0.69400001 0.0073008798 9.4983373e-39 338 234
0.023186078 0.69599998 0.0073219193 9.9593141e-39 339 234
0.024441468 0.69700003 0.00733244 1.0415957e-38 340 234
-0.037188202 0.70700002 0.0061980332 1.4844222e-38 290 235
-0.035948593 0.70700002 0.0061980332 1.4382884e-38 291 235
-0.034365334 0.69999999 0.0061366665 1.1525901e-38 292 235
-0.033043321 0.69800001 0.006119133 1.0972727e-38 293 235
-0.031819493 0.69800001 0.006119133 1.0786911e-38 294 235
-0.030551834 0.69700003 0.0061103669 9.6805636e-39 295 235
-0.029287677 0.69599998 0.0061015999 7.1959857e-39 296 235
-0.027946379 0.69300002 0.0060753003 6.7350076e-39 297 235
-0.026654173 0.69099998 0.0060577663 6.3691187e-39 298 235
-0.025405798 0.69 0.0060489997 6.8300955e-39 299 235
-0.024125867 0.68800002 0.0060314666 6.3723585e-39 300 235
-0.022919573 0.68800002 0.0060314666 5.7269891e-39 301 235
-0.021713281 0.68800002 0.0060314666 5.817733e-39 302 235
-0.020506985 0.68800002 0.0060314666 7.8460369e-39 303 235
-0.019272638 0.68699998 0.0060226996 8.3941632e-39 304 235
-0.018068098 0.68699998 0.0060226996 8.2094118e-39 305 235
-0.01686356 0.68699998 0.0060226996 1.0790526e-38 306 235
-0.015636226 0.68599999 0.0060139326 9.9604071e-39 307 235
-0.01439136 0.68400002 0.0059964 7.2896065e-39 308 235
-0.013172794 0.68300003 0.0059876335 7.4739991e-39 309 235
-0.011975267 0.68300003 0.0059876335 6.6474839e-39 310 235
-0.01077774 0.68300003 0.0059876335 6.186147e-39 311 235
-0.009566186 0.68199998 0.005978866 5.0837707e-39 312 235
-0.0083704125 0.68199998 0.005978866 4.8068251e-39 313 235
-0.0071851597 0.68300003 0.0059876335 3.8895463e-39 314 235
-0.0059876335 0.68300003 0.0059876335 4.7189482e-39 315 235
-0.0047901068 0.68300003 0.0059876335 1.0053324e-38 316 235
-0.0035925799 0.68300003 0.0059876335 1.1713206e-38 317 235
-0.0023950534 0.68300003 0.0059876335 7.4718495e-39 318 235
-0.0011975267 0.68300003 0.0059876335 5.0747646e-39 319 235
0 0.68300003 0.0059876335 5.1763195e-39 320 235
0.0011975267 0.68300003 0.0059876335 6.3745039e-39 321 235
0.0023950534 0.68300003 0.0059876335 7.5665605e-39 322 235
0.0035925799 0.68300003 0.0059876335 7.6591149e-39 323 235
0.0047901068 0.68300003 0.0059876335 8.0243016e-39 324 235
0.0059964 0.68400002 0.0059964 7.2867366e-39 325 235
0.0072167199 0.68599999 0.0060139326 6.6435308e-39 326 235
0.0084317802 0.68699998 0.0060226996 6.5513352e-39 327 235
0.0096363192 0.68699998 0.0060226996 5.8170015e-39 328 235
0.010856641 0.68800002 0.0060314666 6.0010326e-39 329 235
0.012062933 0.68800002 0.0060314666 6.3658537e-39 330 235
0.013327086 0.69099998 0.0060577663 6.0892654e-39 331 235
0.014538639 0.69099998 0.0060577663 6.3633384e-39 332 235
0.015750192 0.69099998 0.0060577663 6.6395651e-39 333 235
0.01701084 0.69300002 0.0060753003 7.1016223e-39 334 235
0.018225901 0.69300002 0.0060753003 8.02358e-39 335 235
0.019469013 0.69400001 0.0060840664 8.8536868e-39 336 235
0.020685827 0.69400001 0.0060840664 9.5912518e-39 337 235
0.021902639 0.69400001 0.0060840664 1.0787264e-38 338 235
0.023186078 0.69599998 0.0061015999 1.0602513e-38 339 235
0.024441468 0.69700003 0.0061103669 9.5923112e-39 340 235
-0.035643511 0.70099998 0.0049163462 1.4198853e-38 291 236
-0.034414422 0.70099998 0.0049163462 1.1342952e-38 292 236
-0.033137999 0.69999999 0.0049093333 1.1066725e-38 293 236
-0.031819493 0.69800001 0.0048953067 1.1710309e-38 294 236
-0.030595668 0.69800001 0.0048953067 1.0972744e-38 295 236
-0.02932976 0.69700003 0.0048882933 8.7629415e-39 296 236
-0.027946379 0.69300002 0.00486024 7.1034215e-39 297 236
-0.026654173 0.69099998 0.0048462129 5.7241024e-39 298 236
-0.025442619 0.69099998 0.0048462129 6.1847205e-39 299 236
-0.024195999 0.69 0.0048391996 6.6449825e-39 300 236
-0.022919573 0.68800002 0.0048251734 6.7371782e-39 301 236
-0.021713281 0.68800002 0.0048251734 6.7382474e-39 302 236
-0.020506985 0.68800002 0.0048251734 7.0151944e-39 303 236
-0.019300694 0.68800002 0.0048251734 7.3814532e-39 304 236
-0.018068098 0.68699998 0.0048181596 8.0268226e-39 305 236
-0.01686356 0.68699998 0.0048181596 1.0237716e-38 306 236
-0.015659019 0.68699998 0.0048181596 9.5001506e-39 307 236
-0.01439136 0.68400002 0.0047971201 7.0119476e-39 308 236
-0.01319208 0.68400002 0.0047971201 7.2885345e-39 309 236
-0.011975267 0.68300003 0.0047901068 6.370541e-39 310 236
-0.01077774 0.68300003 0.0047901068 5.9095629e-39 311 236
-0.0095942402 0.68400002 0.0047971201 4.8061048e-39 312 236
-0.0083949603 0.68400002 0.0047971201 4.8061048e-39 313 236
-0.0071851597 0.68300003 0.0047901068 4.1632563e-39 314 236
-0.0059876335 0.68300003 0.0047901068 5.085214e-39 315 236
-0.0047971201 0.68400002 0.0047971201 9.3172041e-39 316 236
-0.0035925799 0.68300003 0.0047901068 1.0792694e-38 317 236
-0.0023950534 0.68300003 0.0047901068 7.2889002e-39 318 236
-0.00119928 0.68400002 0.0047971201 5.0765652e-39 319 236
0 0.68400002 0.0047971201 4.9919254e-39 320 236
0.0012027866 0.68599999 0.0048111463 5.7294904e-39 321 236
0.0024055731 0.68599999 0.0048111463 7.5658416e-39 322 236
0.00360836 0.68599999 0.0048111463 7.8424271e-39 323 236
0.0048181596 0.68699998 0.0048181596 7.6583932e-39 324 236
0.0060139326 0.68599999 0.0048111463 7.2892505e-39 325 236
0.0072167199 0.68599999 0.0048111463 6.2776237e-39 326 236
0.0084317802 0.68699998 0.0048181596 5.4478617e-39 327 236
0.0096503468 0.68800002 0.0048251734 4.7992693e-39 328 236
0.010856641 0.68800002 0.0048251734 4.4308455e-39 329 236
0.012097999 0.69 0.0048391996 4.1539027e-39 330 236
0.013327086 0.69099998 0.0048462129 4.061707e-39 331 236
0.014538639 0.69099998 0.0048462129 5.9956447e-39 332 236
0.015795778 0.69300002 0.00486024 7.5633291e-39 333 236
0.01701084 0.69300002 0.00486024 8.3945107e-39 334 236
0.018225901 0.69300002 0.00486024 9.5008568e-39 335 236
0.019469013 0.69400001 0.0048672534 1.0971656e-38 336 236
0.020745439 0.69599998 0.0048812795 1.1247882e-38 337 236
0.021965759 0.69599998 0.0048812795 1.1156037e-38 338 236
0.023219392 0.69700003 0.0048882933 1.0326636e-38 339 236
0.024441468 0.69700003 0.0048882933 9.2224469e-39 340 236
-0.0372408 0.708 0.00372408 1.493714e-38 290 237
-0.035948593 0.70700002 0.0037188199 1.429177e-38 291 237
-0.034414422 0.70099998 0.0036872597 1.1067454e-38 292 237
-0.033137999 0.69999999 0.0036819996 1.0238053e-38 293 237
-0.031819493 0.69800001 0.0036714801 1.0883788e-38 294 237
-0.030595668 0.69800001 0.0036714801 1.0699397e-38 295 237
-0.02932976 0.69700003 0.00366622 1.0605767e-38 296 237
-0.028067358 0.69599998 0.0036609597 9.499059e-39 297 237
-0.02673132 0.69300002 0.0036451798 7.7484378e-39 298 237
-0.025442619 0.69099998 0.0036346598 6.8264801e-39 299 237
-0.024195999 0.69 0.0036293997 6.7339314e-39 300 237
-0.022986198 0.69 0.0036293997 7.3793008e-39 301 237
-0.021776399 0.69 0.0036293997 7.2910526e-39 302 237
-0.020506985 0.68800002 0.0036188802 7.936422e-39 303 237
-0.019300694 0.68800002 0.0036188802 8.4877937e-39 304 237
-0.0180944 0.68800002 0.0036188802 8.4877937e-39 305 237
-0.016888106 0.68800002 0.0036188802 8.7643876e-39 306 237
-0.015681813 0.68800002 0.0036188802 7.4736488e-39 307 237
-0.014454478 0.68699998 0.0036136196 5.6301047e-39 308 237
-0.013230653 0.68599999 0.00360836 6.0910829e-39 309 237
-0.012027865 0.68599999 0.00360836 5.8148631e-39 310 237
-0.010825079 0.68599999 0.00360836 5.538635e-39 311 237
-0.0096222926 0.68599999 0.00360836 4.2547331e-39 312 237
-0.0084195063 0.68599999 0.00360836 4.2547331e-39 313 237
-0.0071956799 0.68400002 0.00359784 4.1632535e-39 314 237
-0.0059964 0.68400002 0.00359784 4.9933729e-39 315 237
-0.0048111463 0.68599999 0.00360836 7.1084718e-39 316 237
-0.00360836 0.68599999 0.00360836 7.4776145e-39 317 237
-0.0024055731 0.68599999 0.00360836 5.6340578e-39 318 237
-0.0012027866 0.68599999 0.00360836 5.2649151e-39 319 237
0 0.68599999 0.00360836 6.5552882e-39 320 237
0.0012027866 0.68599999 0.00360836 7.0159076e-39 321 237
0.0024055731 0.68599999 0.00360836 7.8445767e-39 322 237
0.0036136196 0.68699998 0.0036136196 7.8445767e-39 323 237
0.0048181596 0.68699998 0.0036136196 7.8427802e-39 324 237
0.0060226996 0.68699998 0.0036136196 7.1974108e-39 325 237
0.0072272392 0.68699998 0.0036136196 6.5499002e-39 326 237
0.0084317802 0.68699998 0.0036136196 5.2591614e-39 327 237
0.0096503468 0.68800002 0.0036188802 5.2573762e-39 328 237
0.010856641 0.68800002 0.0036188802 5.9949412e-39 329 237
0.012097999 0.69 0.0036293997 6.7339314e-39 330 237
0.013327086 0.69099998 0.0036346598 7.0105197e-39 331 237
0.014538639 0.69099998 0.0036346598 7.8420586e-39 332 237
0.015795778 0.69300002 0.0036451798 8.6718192e-39 333 237
0.01701084 0.69300002 0.0036451798 1.0787264e-38 334 237
0.018225901 0.69300002 0.0036451798 1.1247882e-38 335 237
0.019469013 0.69400001 0.0036504399 1.1891441e-38 336 237
0.020745439 0.69599998 0.0036609597 1.1799246e-38 337 237
0.021965759 0.69599998 0.0036609597 1.0695063e-38 338 237
0.023252707 0.69800001 0.0036714801 9.6812698e-39 339 237
0.024546666 0.69999999 0.0036819996 8.8540259e-39 340 237
-0.0372408 0.708 0.00248272 1.4844222e-38 290 238
-0.035948593 0.70700002 0.0024792133 1.4382884e-38 291 238
-0.034365334 0.69999999 0.0024546667 1.1620265e-38 292 238
-0.033043321 0.69800001 0.0024476533 1.0329526e-38 293 238
-0.031819493 0.69800001 0.0024476533 1.0239139e-38 294 238
-0.030595668 0.69800001 0.0024476533 1.0423889e-38 295 238
-0.02932976 0.69700003 0.0024441467 1.0791593e-38 296 238
-0.028067358 0.69599998 0.0024406398 1.0330975e-38 297 238
