# .PCD v.7 - Point Cloud Data file format
FIELDS x y z rgb imX imY
SIZE 4 4 4 4 4 4
TYPE F F F F F F
COUNT 1 1 1 1 1 1
WIDTH 844
HEIGHT 1
VIEWPOINT 0 0 0 1 0 0 0
POINTS 844
DATA ascii
-0.0079776663 0.64999998 0.15613432 4.5245209e-39 313 103
-0.0068379994 0.64999998 0.15613432 3.9738652e-39 314 103
-0.0056807999 0.648 0.15565392 3.8816696e-39 315 103
-0.0045376266 0.64700001 0.1554137 3.8816696e-39 316 103
-0.0034032199 0.64700001 0.1554137 3.6972784e-39 317 103
-0.0022653067 0.64600003 0.15517351 3.8802235e-39 318 103
-0.0011326533 0.64600003 0.15517351 3.6961923e-39 319 103
0 0.64600003 0.15517351 3.6039939e-39 320 103
0.0011326533 0.64600003 0.15517351 3.6039939e-39 321 103
0.0022653067 0.64600003 0.15517351 3.5117983e-39 322 103
0.00339796 0.64600003 0.15517351 3.5117983e-39 323 103
0.0045306133 0.64600003 0.15517351 3.6954637e-39 324 103
0.0056720334 0.64700001 0.1554137 3.6029093e-39 325 103
0.0068064397 0.64700001 0.1554137 3.6032652e-39 326 103
0.0079531204 0.648 0.15565392 3.4192341e-39 327 103
0.0090892799 0.648 0.15565392 3.7862118e-39 328 103
0.01024122 0.64899999 0.15589413 3.8784074e-39 329 103
0.011379133 0.64899999 0.15589413 4.1542684e-39 330 103
0.012536332 0.64999998 0.15613432 4.1542684e-39 331 103
0.013675999 0.64999998 0.15613432 4.4304952e-39 332 103
0.014861252 0.65200001 0.15661475 3.6003758e-39 333 103
0.016004426 0.65200001 0.15661475 5.6290103e-39 334 103
-0.013675999 0.64999998 0.15499465 1.3646067e-38 308 104
-0.012536332 0.64999998 0.15499465 9.7738508e-39 309 104
-0.011431733 0.65200001 0.15547158 3.5139465e-39 310 104
-0.01028856 0.65200001 0.15547158 4.0671203e-39 311 104
-0.0091173323 0.64999998 0.15499465 4.7096324e-39 312 104
-0.0079776663 0.64999998 0.15499465 4.249013e-39 313 104
-0.0068379994 0.64999998 0.15499465 3.8816696e-39 314 104
-0.0056807999 0.648 0.15451775 3.6972784e-39 315 104
-0.0045376266 0.64700001 0.15427931 3.5132472e-39 316 104
-0.0034032199 0.64700001 0.15427931 3.4206915e-39 317 104
-0.0022653067 0.64600003 0.15404086 3.6036408e-39 318 104
-0.0011326533 0.64600003 0.15404086 3.6036408e-39 319 104
0 0.64600003 0.15404086 3.5114424e-39 320 104
0.0011326533 0.64600003 0.15404086 3.4192467e-39 321 104
0.0022653067 0.64600003 0.15404086 3.4185251e-39 322 104
0.00339796 0.64600003 0.15404086 3.4185251e-39 323 104
0.0045306133 0.64600003 0.15404086 3.6021904e-39 324 104
0.0056720334 0.64700001 0.15427931 3.5099934e-39 325 104
0.0068064397 0.64700001 0.15427931 3.5103465e-39 326 104
0.0079531204 0.648 0.15451775 3.5103465e-39 327 104
0.0090892799 0.648 0.15451775 3.6021764e-39 328 104
0.01024122 0.64899999 0.1547562 3.6021764e-39 329 104
0.011396666 0.64999998 0.15499465 3.8780417e-39 330 104
0.012536332 0.64999998 0.15499465 3.9702373e-39 331 104
0.013675999 0.64999998 0.15499465 4.3379436e-39 332 104
0.014861252 0.65200001 0.15547158 3.7847698e-39 333 104
0.016004426 0.65200001 0.15547158 5.6272181e-39 334 104
-0.013675999 0.64999998 0.153855 1.336948e-38 308 105
-0.012536332 0.64999998 0.153855 9.6816552e-39 309 105
-0.011431733 0.65200001 0.15432841 3.7894558e-39 310 105
-0.01028856 0.65200001 0.15432841 4.3426281e-39 311 105
-0.0091453865 0.65200001 0.15432841 4.4341245e-39 312 105
-0.0080022132 0.65200001 0.15432841 4.1571775e-39 313 105
-0.0068379994 0.64999998 0.153855 3.789474e-39 314 105
-0.0056807999 0.648 0.1533816 3.6972784e-39 315 105
-0.0045376266 0.64700001 0.1531449 3.5132472e-39 316 105
-0.0034032199 0.64700001 0.1531449 3.3284958e-39 317 105
-0.0022688133 0.64700001 0.1531449 3.2362974e-39 318 105
-0.0011326533 0.64600003 0.15290821 3.2362974e-39 319 105
0 0.64600003 0.15290821 3.2366533e-39 320 105
0.0011326533 0.64600003 0.15290821 3.1444577e-39 321 105
0.0022688133 0.64700001 0.1531449 3.6029121e-39 322 105
0.0034032199 0.64700001 0.1531449 3.418881e-39 323 105
0.0045376266 0.64700001 0.1531449 3.6021904e-39 324 105
0.0056720334 0.64700001 0.1531449 3.5099934e-39 325 105
0.0068064397 0.64700001 0.1531449 3.6018233e-39 326 105
0.0079531204 0.648 0.1533816 3.6018233e-39 327 105
0.0090892799 0.648 0.1533816 3.6021764e-39 328 105
0.01024122 0.64899999 0.15361829 3.6021764e-39 329 105
0.011396666 0.64999998 0.153855 3.8780388e-39 330 105
0.012536332 0.64999998 0.153855 3.9702345e-39 331 105
0.013675999 0.64999998 0.153855 4.521609e-39 332 105
0.014861252 0.65200001 0.15432841 3.8762396e-39 333 105
-0.013675999 0.64999998 0.15271533 1.3553513e-38 308 106
-0.012536332 0.64999998 0.15271533 9.4972639e-39 309 106
-0.011431733 0.65200001 0.15318523 3.5139465e-39 310 106
-0.01028856 0.65200001 0.15318523 4.0671203e-39 311 106
-0.0091453865 0.65200001 0.15318523 4.7089136e-39 312 106
-0.0080022132 0.65200001 0.15318523 4.2475753e-39 313 106
-0.0068379994 0.64999998 0.15271533 3.6972784e-39 314 106
-0.005698333 0.64999998 0.15271533 3.4206915e-39 315 106
-0.00454464 0.648 0.15224543 3.4210474e-39 316 106
-0.0034032199 0.64700001 0.1520105 3.4210474e-39 317 106
-0.0022688133 0.64700001 0.1520105 3.5121612e-39 318 106
-0.0011344067 0.64700001 0.1520105 3.4199656e-39 319 106
0 0.64700001 0.1520105 3.4192467e-39 320 106
0.0011344067 0.64700001 0.1520105 3.4192467e-39 321 106
0.0022688133 0.64700001 0.1520105 3.418881e-39 322 106
0.0034032199 0.64700001 0.1520105 3.418881e-39 323 106
0.0045376266 0.64700001 0.1520105 3.5103493e-39 324 106
0.0056720334 0.64700001 0.1520105 3.417795e-39 325 106
0.0068064397 0.64700001 0.1520105 3.6021792e-39 326 106
0.0079531204 0.648 0.15224543 3.6021792e-39 327 106
0.0091033066 0.64899999 0.15248038 3.6021736e-39 328 106
0.01024122 0.64899999 0.15248038 3.509978e-39 329 106
0.011396666 0.64999998 0.15271533 3.6025296e-39 330 106
0.012536332 0.64999998 0.15271533 3.7865621e-39 331 106
0.013675999 0.64999998 0.15271533 3.9706002e-39 332 106
0.014884046 0.653 0.15342017 3.4177852e-39 333 106
-0.013675999 0.64999998 0.15157565 1.3737541e-38 308 107
-0.012536332 0.64999998 0.15157565 9.5887365e-39 309 107
-0.011431733 0.65200001 0.15204206 2.961493e-39 310 107
-0.01028856 0.65200001 0.15204206 3.8830891e-39 311 107
-0.0091453865 0.65200001 0.15204206 4.249013e-39 312 107
-0.0080022132 0.65200001 0.15204206 4.064263e-39 313 107
-0.0068379994 0.64999998 0.15157565 3.5132472e-39 314 107
-0.005698333 0.64999998 0.15157565 3.4206915e-39 315 107
-0.0045586661 0.64999998 0.15157565 3.6036408e-39 316 107
-0.00340848 0.648 0.15110928 3.5114452e-39 317 107
-0.00227232 0.648 0.15110928 3.5114424e-39 318 107
-0.0011344067 0.64700001 0.15087609 3.4192467e-39 319 107
0 0.64700001 0.15087609 3.6029149e-39 320 107
0.0011344067 0.64700001 0.15087609 3.4185251e-39 321 107
0.0022688133 0.64700001 0.15087609 3.418881e-39 322 107
0.0034032199 0.64700001 0.15087609 3.326684e-39 323 107
0.0045376266 0.64700001 0.15087609 3.5092745e-39 324 107
0.0056720334 0.64700001 0.15087609 3.5092745e-39 325 107
0.0068064397 0.64700001 0.15087609 3.6929399e-39 326 107
0.0079531204 0.648 0.15110928 3.6929399e-39 327 107
0.0091173323 0.64999998 0.15157565 3.5099808e-39 328 107
0.010256999 0.64999998 0.15157565 3.6021764e-39 329 107
0.011431733 0.65200001 0.15204206 3.785839e-39 330 107
0.012574906 0.65200001 0.15204206 3.8783948e-39 331 107
0.01371808 0.65200001 0.15204206 4.2461011e-39 332 107
0.014906839 0.65399998 0.15250842 3.3237847e-39 333 107
0.016078066 0.65499997 0.15274163 5.8126827e-39 334 107
-0.01371808 0.65200001 0.15089887 1.4014124e-38 308 108
-0.012574906 0.65200001 0.15089887 9.7734851e-39 309 108
-0.011431733 0.65200001 0.15089887 2.9614902e-39 310 108
-0.01028856 0.65200001 0.15089887 3.6068596e-39 311 108
-0.0091453865 0.65200001 0.15089887 4.3412086e-39 312 108
-0.0080022132 0.65200001 0.15089887 4.064263e-39 313 108
-0.0068590399 0.65200001 0.15089887 3.9720646e-39 314 108
-0.005698333 0.64999998 0.15043598 3.6958364e-39 315 108
-0.0045586661 0.64999998 0.15043598 3.512164e-39 316 108
-0.0034189997 0.64999998 0.15043598 3.2355785e-39 317 108
-0.00227232 0.648 0.14997312 3.3266952e-39 318 108
-0.00113616 0.648 0.14997312 3.3266952e-39 319 108
0 0.648 0.14997312 3.3270483e-39 320 108
0.00113616 0.648 0.14997312 3.3270483e-39 321 108
0.00227232 0.648 0.14997312 3.5099962e-39 322 108
0.0034032199 0.64700001 0.14974168 3.5099962e-39 323 108
0.0045376266 0.64700001 0.14974168 3.5092745e-39 324 108
0.0056807999 0.648 0.14997312 3.5092745e-39 325 108
0.0068169599 0.648 0.14997312 3.5096277e-39 326 108
0.0079653924 0.64899999 0.15020455 3.5096277e-39 327 108
0.0091173323 0.64999998 0.15043598 3.6932903e-39 328 108
0.010256999 0.64999998 0.15043598 3.6932903e-39 329 108
0.011431733 0.65200001 0.15089887 3.7858418e-39 330 108
0.012574906 0.65200001 0.15089887 3.7858418e-39 331 108
0.013760159 0.65399998 0.15136175 3.786209e-39 332 108
0.014906839 0.65399998 0.15136175 3.2330352e-39 333 108
0.016078066 0.65499997 0.15159319 6.6413672e-39 334 108
-0.013823279 0.65700001 0.15090413 1.4383261e-38 308 109
-0.012632766 0.65499997 0.15044475 1.0234456e-38 309 109
-0.011466799 0.65399998 0.15021507 3.237354e-39 310 109
-0.010304339 0.653 0.14998539 3.8827234e-39 311 109
-0.0091594132 0.653 0.14998539 4.6167137e-39 312 109
-0.0080144862 0.653 0.14998539 4.2479312e-39 313 109
-0.0068590399 0.65200001 0.1497557 3.6965567e-39 314 109
-0.0057158666 0.65200001 0.1497557 3.6043597e-39 315 109
-0.0045726933 0.65200001 0.1497557 3.6036408e-39 316 109
-0.0034189997 0.64999998 0.14929631 3.4192495e-39 317 109
-0.0022758266 0.64899999 0.14906664 3.3270511e-39 318 109
-0.0011379133 0.64899999 0.14906664 3.3270511e-39 319 109
0 0.64899999 0.14906664 3.3263322e-39 320 109
0.00113616 0.648 0.14883696 3.3263322e-39 321 109
0.00227232 0.648 0.14883696 3.5099962e-39 322 109
0.00340848 0.648 0.14883696 3.5099962e-39 323 109
0.00454464 0.648 0.14883696 3.5096305e-39 324 109
0.0056807999 0.648 0.14883696 3.5096305e-39 325 109
0.0068169599 0.648 0.14883696 3.5096249e-39 326 109
0.0079653924 0.64899999 0.14906664 3.5096249e-39 327 109
0.0091173323 0.64999998 0.14929631 3.6932903e-39 328 109
0.010256999 0.64999998 0.14929631 3.6932903e-39 329 109
0.011431733 0.65200001 0.1497557 3.6936462e-39 330 109
0.012594193 0.653 0.14998539 3.7858418e-39 331 109
0.013760159 0.65399998 0.15021507 3.785839e-39 332 109
0.014906839 0.65399998 0.15021507 3.325221e-39 333 109
-0.015020805 0.65899998 0.15020806 1.5950917e-38 307 110
-0.013823279 0.65700001 0.1497522 1.5120102e-38 308 110
-0.012632766 0.65499997 0.14929631 1.0971658e-38 309 110
-0.011466799 0.65399998 0.14906839 4.4330133e-39 310 110
-0.01032012 0.65399998 0.14906839 4.6170444e-39 311 110
-0.0091734398 0.65399998 0.14906839 4.8918587e-39 312 110
-0.0080144862 0.653 0.14884046 4.5230762e-39 313 110
-0.0068590399 0.65200001 0.14861253 3.9724205e-39 314 110
-0.0057158666 0.65200001 0.14861253 3.6961923e-39 315 110
-0.0045726933 0.65200001 0.14861253 3.3288518e-39 316 110
-0.0034295199 0.65200001 0.14861253 3.2362974e-39 317 110
-0.0022793331 0.64999998 0.14815666 3.2359345e-39 318 110
-0.0011396665 0.64999998 0.14815666 3.1437388e-39 319 110
0 0.64899999 0.14792871 3.4185251e-39 320 110
0.0011379133 0.64899999 0.14792871 3.4185251e-39 321 110
0.0022758266 0.64899999 0.14792871 3.4188782e-39 322 110
0.0034137398 0.64899999 0.14792871 3.3266812e-39 323 110
0.0045516533 0.64899999 0.14792871 3.6018233e-39 324 110
0.0056895665 0.64899999 0.14792871 3.5096277e-39 325 110
0.0068274797 0.64899999 0.14792871 3.6021792e-39 326 110
0.0079776663 0.64999998 0.14815666 3.5096249e-39 327 110
0.0091173323 0.64999998 0.14815666 3.6932931e-39 328 110
0.01028856 0.65200001 0.14861253 3.6932931e-39 329 110
0.011449266 0.653 0.14884046 3.7858446e-39 330 110
0.012613479 0.65399998 0.14906839 3.9702373e-39 331 110
0.013760159 0.65399998 0.14906839 3.5103283e-39 332 110
-0.013823279 0.65700001 0.14860025 1.5765105e-38 308 111
-0.01267134 0.65700001 0.14860025 1.1985084e-38 309 111
-0.011484332 0.65499997 0.14814788 5.6297516e-39 310 111
-0.01032012 0.65399998 0.14792171 5.2613292e-39 311 111
-0.0091594132 0.653 0.14769554 5.2606384e-39 312 111
-0.0080144862 0.653 0.14769554 4.7074646e-39 313 111
-0.0068695596 0.653 0.14769554 4.2479284e-39 314 111
-0.0057158666 0.65200001 0.14746936 4.2479284e-39 315 111
-0.0045726933 0.65200001 0.14746936 4.0642504e-39 316 111
-0.0034295199 0.65200001 0.14746936 3.9720534e-39 317 111
-0.0022793331 0.64999998 0.14701699 3.9720506e-39 318 111
-0.0011396665 0.64999998 0.14701699 3.8798549e-39 319 111
0 0.64999998 0.14701699 3.7869404e-39 320 111
0.0011379133 0.64899999 0.14679082 3.7869404e-39 321 111
0.0022758266 0.64899999 0.14679082 3.694742e-39 322 111
0.0034137398 0.64899999 0.14679082 3.6025464e-39 323 111
0.0045516533 0.64899999 0.14679082 3.6028995e-39 324 111
0.0056895665 0.64899999 0.14679082 3.6028995e-39 325 111
0.0068274797 0.64899999 0.14679082 3.8780417e-39 326 111
0.0079776663 0.64999998 0.14701699 3.8780417e-39 327 111
0.0091453865 0.65200001 0.14746936 4.1535467e-39 328 111
0.01028856 0.65200001 0.14746936 4.0613511e-39 329 111
0.011449266 0.653 0.14769554 3.9705904e-39 330 111
0.012613479 0.65399998 0.14792171 4.1546215e-39 331 111
0.013760159 0.65399998 0.14792171 3.7861921e-39 332 111
-0.01267134 0.65700001 0.14744832 1.2998515e-38 309 112
-0.011484332 0.65499997 0.14699945 6.4580703e-39 310 112
-0.01032012 0.65399998 0.14677504 5.4439184e-39 311 112
-0.0091594132 0.653 0.14655061 5.2606412e-39 312 112
-0.0080144862 0.653 0.14655061 4.799663e-39 313 112
-0.0068695596 0.653 0.14655061 4.3415618e-39 314 112
-0.0057158666 0.65200001 0.14632618 4.3415618e-39 315 112
-0.0045726933 0.65200001 0.14632618 4.2500794e-39 316 112
-0.0034295199 0.65200001 0.14632618 4.2500794e-39 317 112
-0.0022793331 0.64999998 0.14587732 4.157881e-39 318 112
-0.0011396665 0.64999998 0.14587732 3.8816542e-39 319 112
0 0.64999998 0.14587732 3.880571e-39 320 112
0.0011396665 0.64999998 0.14587732 3.6965399e-39 321 112
0.0022793331 0.64999998 0.14587732 3.7876537e-39 322 112
0.0034189997 0.64999998 0.14587732 3.6954581e-39 323 112
0.0045586661 0.64999998 0.14587732 3.695814e-39 324 112
0.005698333 0.64999998 0.14587732 3.7880096e-39 325 112
0.0068379994 0.64999998 0.14587732 4.1553502e-39 326 112
0.0079776663 0.64999998 0.14587732 4.1553502e-39 327 112
0.0091453865 0.65200001 0.14632618 4.063149e-39 328 112
0.01028856 0.65200001 0.14632618 4.063149e-39 329 112
0.011431733 0.65200001 0.14632618 3.9713093e-39 330 112
0.012613479 0.65399998 0.14677504 4.1557005e-39 331 112
0.013760159 0.65399998 0.14677504 3.7865481e-39 332 112
-0.011519399 0.65700001 0.14629638 7.5618914e-39 310 113
-0.01032012 0.65399998 0.14562835 5.7183375e-39 311 113
-0.0091734398 0.65399998 0.14562835 4.3415562e-39 312 113
-0.0080144862 0.653 0.14540568 4.2493605e-39 313 113
-0.0068695596 0.653 0.14540568 4.3422778e-39 314 113
-0.0057158666 0.65200001 0.14518301 4.3422778e-39 315 113
-0.0045726933 0.65200001 0.14518301 4.3419121e-39 316 113
-0.0034295199 0.65200001 0.14518301 4.5259432e-39 317 113
-0.0022863466 0.65200001 0.14518301 4.3419065e-39 318 113
-0.0011396665 0.64999998 0.14473766 4.2497108e-39 319 113
0 0.64999998 0.14473766 4.0645979e-39 320 113
0.0011396665 0.64999998 0.14473766 3.9724009e-39 321 113
0.0022793331 0.64999998 0.14473766 3.7880096e-39 322 113
0.0034189997 0.64999998 0.14473766 3.7880096e-39 323 113
0.0045586661 0.64999998 0.14473766 3.7880096e-39 324 113
0.005698333 0.64999998 0.14473766 3.8802053e-39 325 113
0.0068379994 0.64999998 0.14473766 4.1553474e-39 326 113
0.0080022132 0.65200001 0.14518301 4.1553474e-39 327 113
0.0091453865 0.65200001 0.14518301 4.4304924e-39 328 113
0.01028856 0.65200001 0.14518301 4.4304924e-39 329 113
0.011431733 0.65200001 0.14518301 4.6141606e-39 330 113
0.012594193 0.653 0.14540568 4.6141606e-39 331 113
0.013739119 0.653 0.14540568 4.0613343e-39 332 113
-0.0091734398 0.65399998 0.14448167 2.8664289e-39 312 114
-0.0080144862 0.653 0.14426075 3.3270483e-39 313 114
-0.0068695596 0.653 0.14426075 3.6954833e-39 314 114
-0.0057158666 0.65200001 0.14403984 4.1564614e-39 315 114
-0.0045726933 0.65200001 0.14403984 4.7074674e-39 316 114
-0.0034295199 0.65200001 0.14403984 4.7074674e-39 317 114
-0.0022793331 0.64999998 0.14359799 4.615985e-39 318 114
-0.0011396665 0.64999998 0.14359799 4.3397583e-39 319 114
0 0.64999998 0.14359799 4.0642476e-39 320 114
0.0011396665 0.64999998 0.14359799 3.9720506e-39 321 114
0.0022793331 0.64999998 0.14359799 3.8798521e-39 322 114
0.0034189997 0.64999998 0.14359799 3.7876565e-39 323 114
0.0045586661 0.64999998 0.14359799 4.0628015e-39 324 114
0.005698333 0.64999998 0.14359799 4.0628015e-39 325 114
0.0068379994 0.64999998 0.14359799 4.2464668e-39 326 114
0.0079776663 0.64999998 0.14359799 4.3386625e-39 327 114
0.0091453865 0.65200001 0.14403984 4.521609e-39 328 114
0.01028856 0.65200001 0.14403984 4.521609e-39 329 114
0.011431733 0.65200001 0.14403984 4.4286917e-39 330 114
0.012594193 0.653 0.14426075 4.5208873e-39 331 114
0.013739119 0.653 0.14426075 3.5081675e-39 332 114
-0.0091734398 0.65399998 0.143335 7.5579565e-39 312 115
-0.0080267601 0.65399998 0.143335 7.5579565e-39 313 115
-0.0068695596 0.653 0.14311583 5.6268972e-39 314 115
-0.0057158666 0.65200001 0.14289667 5.1662778e-39 315 115
-0.0045726933 0.65200001 0.14289667 4.9836816e-39 316 115
-0.0034295199 0.65200001 0.14289667 4.9836816e-39 317 115
-0.0022793331 0.64999998 0.14245833 4.3401114e-39 318 115
-0.0011396665 0.64999998 0.14245833 4.3401114e-39 319 115
0 0.64999998 0.14245833 3.9720478e-39 320 115
0.0011396665 0.64999998 0.14245833 3.9720478e-39 321 115
0.0022793331 0.64999998 0.14245833 3.9713247e-39 322 115
0.0034189997 0.64999998 0.14245833 3.9713247e-39 323 115
0.0045586661 0.64999998 0.14245833 4.0627987e-39 324 115
0.005698333 0.64999998 0.14245833 4.0627987e-39 325 115
0.0068379994 0.64999998 0.14245833 4.4304952e-39 326 115
0.0079776663 0.64999998 0.14245833 4.4304952e-39 327 115
0.0091173323 0.64999998 0.14245833 4.9818613e-39 328 115
0.01028856 0.65200001 0.14289667 5.074417e-39 329 115
0.011431733 0.65200001 0.14289667 5.8098143e-39 330 115
0.012594193 0.653 0.14311583 6.178238e-39 331 115
-0.0080267601 0.65399998 0.14218831 1.2533979e-38 313 116
-0.0068590399 0.65200001 0.14175349 9.0373774e-39 314 116
-0.0057158666 0.65200001 0.14175349 7.2860205e-39 315 116
-0.0045726933 0.65200001 0.14175349 6.5495499e-39 316 116
-0.0034189997 0.64999998 0.14131866 6.1804073e-39 317 116
-0.0022793331 0.64999998 0.14131866 5.2606202e-39 318 116
-0.0011396665 0.64999998 0.14131866 5.1684245e-39 319 116
0 0.64999998 0.14131866 4.8007196e-39 320 116
0.0011396665 0.64999998 0.14131866 4.6159696e-39 321 116
0.0022793331 0.64999998 0.14131866 4.6152508e-39 322 116
0.0034137398 0.64899999 0.14110124 4.7996406e-39 323 116
0.0045516533 0.64899999 0.14110124 4.9833102e-39 324 116
0.005698333 0.64999998 0.14131866 4.9833102e-39 325 116
0.0068379994 0.64999998 0.14131866 5.4428422e-39 326 116
0.0079776663 0.64999998 0.14131866 5.6272335e-39 327 116
0.0091173323 0.64999998 0.14131866 6.1800387e-39 328 116
0.010256999 0.64999998 0.14131866 6.7332125e-39 329 116
0.011431733 0.65200001 0.14175349 8.2976445e-39 330 116
-0.0068590399 0.65200001 0.14061031 1.0326299e-38 314 117
-0.0057158666 0.65200001 0.14061031 1.0049712e-38 315 117
-0.0045586661 0.64999998 0.14017899 1.0507094e-38 316 117
-0.0034189997 0.64999998 0.14017899 1.0414899e-38 317 117
-0.0022793331 0.64999998 0.14017899 9.8642472e-39 318 117
-0.0011396665 0.64999998 0.14017899 9.5876617e-39 319 117
0 0.64999998 0.14017899 9.1248885e-39 320 117
0.0011396665 0.64999998 0.14017899 8.7561045e-39 321 117
0.0022758266 0.64899999 0.13996333 8.7553857e-39 322 117
0.0034137398 0.64899999 0.13996333 9.2160051e-39 323 117
0.0045516533 0.64899999 0.13996333 9.4014711e-39 324 117
0.0056895665 0.64899999 0.13996333 9.4936668e-39 325 117
0.0068274797 0.64899999 0.13996333 9.4007495e-39 326 117
0.0079776663 0.64999998 0.14017899 9.2163582e-39 327 117
0.0091173323 0.64999998 0.14017899 9.033762e-39 328 117
0.010256999 0.64999998 0.14017899 9.1259577e-39 329 117
-0.0045586661 0.64999998 0.13903932 1.1520864e-38 316 118
-0.0034189997 0.64999998 0.13903932 1.1613059e-38 317 118
-0.0022793331 0.64999998 0.13903932 1.1154599e-38 318 118
-0.0011396665 0.64999998 0.13903932 1.1062404e-38 319 118
0 0.64999998 0.13903932 1.0692898e-38 320 118
0.0011396665 0.64999998 0.13903932 1.0508507e-38 321 118
0.0022758266 0.64899999 0.13882543 1.0598897e-38 322 118
0.0034137398 0.64899999 0.13882543 1.0783649e-38 323 118
0.0045516533 0.64899999 0.13882543 1.0784362e-38 324 118
0.0056895665 0.64899999 0.13882543 1.0784362e-38 325 118
0.0068274797 0.64899999 0.13882543 1.0784002e-38 326 118
0.0079776663 0.64999998 0.13903932 1.0599251e-38 327 118
0.0091173323 0.64999998 0.13903932 1.0321595e-38 328 118
-0.0034295199 0.65200001 0.13832396 1.0414882e-38 317 119
-0.0022863466 0.65200001 0.13832396 9.9549826e-39 318 119
-0.0011396665 0.64999998 0.13789965 1.0139374e-38 319 119
0 0.64999998 0.13789965 1.0599981e-38 320 119
0.0011396665 0.64999998 0.13789965 1.0323392e-38 321 119
0.0022793331 0.64999998 0.13789965 1.0322674e-38 322 119
0.0034137398 0.64899999 0.1376875 1.0414869e-38 323 119
0.00454464 0.648 0.13747536 9.2210119e-39 324 119
0.0056807999 0.648 0.13747536 9.2210119e-39 325 119
0.0068169599 0.648 0.13747536 9.4975946e-39 326 119
-0.0022863466 0.65200001 0.13718079 1.2535739e-38 318 120
-0.0011396665 0.64999998 0.13676 1.2258792e-38 319 120
0 0.64999998 0.13676 1.2352062e-38 320 120
0.0011396665 0.64999998 0.13676 1.2075835e-38 321 120
0.0022758266 0.64899999 0.13654959 1.2074753e-38 322 120
0.0034137398 0.64899999 0.13654959 1.2166949e-38 323 120
0.00454464 0.648 0.1363392 1.1799969e-38 324 120
0.0056807999 0.648 0.1363392 1.1799969e-38 325 120
-0.0011396665 0.64999998 0.13562033 1.6409027e-38 319 121
0 0.64999998 0.13562033 1.5765453e-38 320 121
0.0011396665 0.64999998 0.13562033 1.5488866e-38 321 121
0.0022758266 0.64899999 0.13541168 1.5303033e-38 322 121
0.0034137398 0.64899999 0.13541168 1.5395228e-38 323 121
0.0045516533 0.64899999 0.13541168 1.5488146e-38 324 121
-0.0022863466 0.65200001 0.13489446 1.6408301e-38 318 122
-0.0011431733 0.65200001 0.13489446 1.5855488e-38 319 122
0 0.64999998 0.13448066 1.5488143e-38 320 122
0.0011396665 0.64999998 0.13448066 1.5488143e-38 321 122
0.0022758266 0.64899999 0.13427377 1.5210834e-38 322 122
0.0034137398 0.64899999 0.13427377 1.5210834e-38 323 122
-0.0011431733 0.65200001 0.13375129 1.5117918e-38 319 123
0 0.64999998 0.13334098 1.5118639e-38 320 123
0.0011396665 0.64999998 0.13334098 1.5210834e-38 321 123
0.0022758266 0.64899999 0.13313586 1.5393784e-38 322 123
0 0.65200001 0.13260812 1.5485976e-38 320 124
0.0011431733 0.65200001 0.13260812 1.5946953e-38 321 124
-0.03177391 0.69700003 0.023219392 9.4947079e-39 294 221
-0.030420333 0.69400001 0.023119451 9.5869036e-39 295 221
-0.029203519 0.69400001 0.023119451 9.7709221e-39 296 221
-0.028107686 0.69700003 0.023219392 1.0876911e-38 297 221
-0.034267146 0.69800001 0.02202888 8.2072033e-39 292 222
-0.03299598 0.69700003 0.02199732 8.4841489e-39 293 222
-0.03177391 0.69700003 0.02199732 9.4950583e-39 294 222
-0.030420333 0.69400001 0.021902639 9.771285e-39 295 222
-0.029203519 0.69400001 0.021902639 1.0046786e-38 296 222
-0.028107686 0.69700003 0.02199732 1.1060939e-38 297 222
-0.026885614 0.69700003 0.02199732 1.2076536e-38 298 222
-0.034267146 0.69800001 0.020805053 8.299036e-39 292 223
-0.03299598 0.69700003 0.020775247 8.5752628e-39 293 223
-0.03177391 0.69700003 0.020775247 9.5861721e-39 294 223
-0.030551834 0.69700003 0.020775247 9.7709221e-39 295 223
-0.02932976 0.69700003 0.020775247 1.0413768e-38 296 223
-0.028107686 0.69700003 0.020775247 1.1335724e-38 297 223
-0.026885614 0.69700003 0.020775247 1.216765e-38 298 223
-0.034365334 0.69999999 0.019637333 8.1139245e-39 292 224
-0.033043321 0.69800001 0.019581227 8.5745439e-39 293 224
-0.031819493 0.69800001 0.019581227 9.4939793e-39 294 224
-0.030551834 0.69700003 0.019553173 9.6783705e-39 295 224
-0.02932976 0.69700003 0.019553173 1.0229376e-38 296 224
-0.028107686 0.69700003 0.019553173 1.1059137e-38 297 224
-0.026885614 0.69700003 0.019553173 1.207581e-38 298 224
-0.033137999 0.69999999 0.018409999 8.6660165e-39 293 225
-0.031910665 0.69999999 0.018409999 9.4925373e-39 294 225
-0.030595668 0.69800001 0.0183574 9.8613198e-39 295 225
-0.029371841 0.69800001 0.0183574 1.0504521e-38 296 225
-0.028148014 0.69800001 0.0183574 1.1518315e-38 297 225
-0.031956252 0.70099998 0.017207211 9.1252024e-39 294 226
-0.030595668 0.69800001 0.017133573 9.4936261e-39 295 226
-0.029371841 0.69800001 0.017133573 9.8631205e-39 296 226
-0.028148014 0.69800001 0.017133573 1.0784718e-38 297 226
-0.032047424 0.70300001 0.016023712 9.2155819e-39 294 227
-0.030814834 0.70300001 0.016023712 9.8609513e-39 295 227
-0.029582238 0.70300001 0.016023712 1.0321572e-38 296 227
-0.028349647 0.70300001 0.016023712 1.1151693e-38 297 227
-0.027117053 0.70300001 0.016023712 1.1982541e-38 298 227
-0.030814834 0.70300001 0.014791119 9.583654e-39 295 228
-0.029582238 0.70300001 0.014791119 1.0045711e-38 296 228
-0.028349647 0.70300001 0.014791119 1.0967309e-38 297 228
-0.027117053 0.70300001 0.014791119 1.1889627e-38 298 228
-0.030858666 0.704 0.013577812 9.9502687e-39 295 229
-0.029582238 0.70300001 0.013558527 1.0136462e-38 296 229
-0.028268991 0.70099998 0.013519952 1.1150254e-38 297 229
-0.027039904 0.70099998 0.013519952 1.1797425e-38 298 229
-0.020328145 0.68199998 0.013153506 1.2721905e-38 303 229
-0.019132372 0.68199998 0.013153506 1.290522e-38 304 229
-0.033422034 0.70599997 0.012378532 8.2957864e-39 293 230
-0.032184184 0.70599997 0.012378532 9.3048993e-39 294 230
-0.030858666 0.704 0.012343466 9.7662375e-39 295 230
-0.029582238 0.70300001 0.012325933 1.0136462e-38 296 230
-0.028268991 0.70099998 0.012290866 1.0966223e-38 297 230
-0.027039904 0.70099998 0.012290866 1.1521917e-38 298 230
-0.020328145 0.68199998 0.011957732 1.2721903e-38 303 230
-0.019132372 0.68199998 0.011957732 1.290522e-38 304 230
-0.017936599 0.68199998 0.011957732 1.2997416e-38 305 230
-0.016740825 0.68199998 0.011957732 1.3182174e-38 306 230
-0.033422034 0.70599997 0.011140679 8.7542436e-39 293 231
-0.032184184 0.70599997 0.011140679 9.3974508e-39 294 231
-0.030858666 0.704 0.011109119 9.7662347e-39 295 231
-0.029624319 0.704 0.011109119 9.8605982e-39 296 231
-0.028268991 0.70099998 0.011061779 1.0689999e-38 297 231
-0.027039904 0.70099998 0.011061779 1.1428646e-38 298 231
-0.025884461 0.70300001 0.01109334 1.2903415e-38 299 231
-0.024651866 0.70300001 0.01109334 1.2262722e-38 300 231
-0.023419274 0.70300001 0.01109334 1.2354918e-38 301 231
-0.02155548 0.68300003 0.01077774 1.2446395e-38 302 231
-0.020357953 0.68300003 0.01077774 1.2446395e-38 303 231
-0.019132372 0.68199998 0.010761959 1.2721908e-38 304 231
-0.017936599 0.68199998 0.010761959 1.2814104e-38 305 231
-0.016740825 0.68199998 0.010761959 1.2998862e-38 306 231
-0.033469379 0.70700002 0.0099168532 8.5716502e-39 293 232
-0.032184184 0.70599997 0.0099028256 9.5807673e-39 294 232
-0.030946331 0.70599997 0.0099028256 1.0041745e-38 295 232
-0.029624319 0.704 0.0098747732 1.0043548e-38 296 232
-0.028389972 0.704 0.0098747732 1.0504524e-38 297 232
-0.027039904 0.70099998 0.0098326923 1.1517245e-38 298 232
-0.025810819 0.70099998 0.0098326923 1.3361157e-38 299 232
-0.024651866 0.70300001 0.0098607466 1.2446397e-38 300 232
-0.023419274 0.70300001 0.0098607466 1.2261646e-38 301 232
-0.02155548 0.68300003 0.0095802136 1.2446395e-38 302 232
-0.020357953 0.68300003 0.0095802136 1.2446395e-38 303 232
-0.019132372 0.68199998 0.009566186 1.2813025e-38 304 232
-0.017936599 0.68199998 0.009566186 1.2997416e-38 305 232
-0.016740825 0.68199998 0.009566186 1.2998138e-38 306 232
-0.033469379 0.70700002 0.008677247 1.0315809e-38 293 233
-0.032184184 0.70599997 0.0086649731 1.0680997e-38 294 233
-0.030946331 0.70599997 0.0086649731 1.0865748e-38 295 233
-0.029624319 0.704 0.0086404262 1.0774997e-38 296 233
-0.028349647 0.70300001 0.0086281532 1.0959389e-38 297 233
-0.027039904 0.70099998 0.0086036054 1.1329616e-38 298 233
-0.025810819 0.70099998 0.0086036054 1.3173528e-38 299 233
-0.024651866 0.70300001 0.0086281532 1.2813025e-38 300 233
-0.023419274 0.70300001 0.0086281532 1.2628635e-38 301 233
-0.021681719 0.68699998 0.0084317802 1.2261646e-38 302 233
-0.020357953 0.68300003 0.0083826864 1.2353843e-38 303 233
-0.019132372 0.68199998 0.0083704125 1.2446044e-38 304 233
-0.017936599 0.68199998 0.0083704125 1.2630075e-38 305 233
-0.034758076 0.708 0.0074481601 1.077536e-38 292 234
-0.033469379 0.70700002 0.0074376399 1.0499133e-38 293 234
-0.032184184 0.70599997 0.0074271196 1.0865042e-38 294 234
-0.030858666 0.704 0.0074060797 1.0680649e-38 295 234
-0.029624319 0.704 0.0074060797 1.123023e-38 296 234
-0.028349647 0.70300001 0.0073955595 1.0584861e-38 297 234
-0.027039904 0.70099998 0.0073745195 1.0677777e-38 298 234
-0.025810819 0.70099998 0.0073745195 1.270608e-38 299 234
-0.024651866 0.70300001 0.0073955595 1.2258053e-38 300 234
-0.023419274 0.70300001 0.0073955595 1.2995618e-38 301 234
-0.021681719 0.68699998 0.0072272392 1.2261649e-38 302 234
-0.020357953 0.68300003 0.0071851597 1.2353846e-38 303 234
-0.019160427 0.68300003 0.0071851597 1.2629354e-38 304 234
-0.017962901 0.68300003 0.0071851597 1.2721908e-38 305 234
-0.034758076 0.708 0.0062067998 1.1145219e-38 292 235
-0.033469379 0.70700002 0.0061980332 1.06846e-38 293 235
-0.032184184 0.70599997 0.0061892662 1.1598644e-38 294 235
-0.030858666 0.704 0.0061717331 1.150609e-38 295 235
-0.029582238 0.70300001 0.0061629666 1.1686539e-38 296 235
-0.028268991 0.70099998 0.0061454331 1.1409954e-38 297 235
-0.026847038 0.69599998 0.0061015999 1.1042602e-38 298 235
-0.02551626 0.69300002 0.0060753003 1.279396e-38 299 235
-0.024231065 0.69099998 0.0060577663 1.1887822e-38 300 235
-0.022919573 0.68800002 0.0060314666 1.317856e-38 301 235
-0.021681719 0.68699998 0.0060226996 1.2352765e-38 302 235
-0.020447372 0.68599999 0.0060139326 1.2168734e-38 303 235
-0.019244585 0.68599999 0.0060139326 1.2170172e-38 304 235
-0.034856264 0.70999998 0.0049794666 1.1238136e-38 292 236
-0.033516716 0.708 0.0049654399 1.0777159e-38 293 236
-0.032184184 0.70599997 0.0049514128 1.1690487e-38 294 236
-0.030858666 0.704 0.0049373866 1.1229508e-38 295 236
-0.029582238 0.70300001 0.0049303733 1.159542e-38 296 236
-0.028268991 0.70099998 0.0049163462 1.1503224e-38 297 236
-0.026847038 0.69599998 0.0048812795 1.1505739e-38 298 236
-0.02551626 0.69300002 0.00486024 1.2335859e-38 299 236
-0.024231065 0.69099998 0.0048462129 1.1887106e-38 300 236
-0.022919573 0.68800002 0.0048251734 1.2900899e-38 301 236
-0.021681719 0.68699998 0.0048181596 1.1891775e-38 302 236
-0.020447372 0.68599999 0.0048111463 1.1891775e-38 303 236
-0.019244585 0.68599999 0.0048111463 1.1801741e-38 304 236
-0.0179892 0.68400002 0.0047971201 1.2170522e-38 305 236
-0.016789921 0.68400002 0.0047971201 1.2630075e-38 306 236
-0.034856264 0.70999998 0.0037345996 1.1512562e-38 292 237
-0.033516716 0.708 0.00372408 1.0867193e-38 293 237
-0.032184184 0.70599997 0.0037135598 1.1780884e-38 294 237
-0.030858666 0.704 0.0037030398 1.1227711e-38 295 237
-0.029582238 0.70300001 0.0036977797 1.1593619e-38 296 237
-0.028349647 0.70300001 0.0036977797 1.1685815e-38 297 237
-0.026847038 0.69599998 0.0036609597 1.1230227e-38 298 237
-0.02551626 0.69300002 0.0036451798 1.2152544e-38 299 237
-0.024231065 0.69099998 0.0036346598 1.1700912e-38 300 237
-0.022919573 0.68800002 0.0036188802 1.2346282e-38 301 237
-0.021713281 0.68800002 0.0036188802 1.1150957e-38 302 237
-0.020506985 0.68800002 0.0036188802 1.0690339e-38 303 237
-0.019272638 0.68699998 0.0036136196 1.0143646e-38 304 237
-0.0179892 0.68400002 0.00359784 1.1157797e-38 305 237
-0.016789921 0.68400002 0.00359784 1.2447479e-38 306 237
-0.034856264 0.70999998 0.0024897333 1.160583e-38 292 238
-0.033516716 0.708 0.00248272 1.0868265e-38 293 238
-0.032184184 0.70599997 0.0024757064 1.1501056e-38 294 238
-0.030858666 0.704 0.0024686933 1.1501056e-38 295 238
-0.029582238 0.70300001 0.0024651866 1.1133e-38 296 238
-0.028349647 0.70300001 0.0024651866 1.1501422e-38 297 238
-0.026885614 0.69700003 0.0024441467 1.095364e-38 298 238
-0.025553079 0.69400001 0.0024336267 1.1414979e-38 299 238
-0.024231065 0.69099998 0.0024231065 1.0777513e-38 300 238
-0.023019511 0.69099998 0.0024231065 1.1883859e-38 301 238
-0.021713281 0.68800002 0.0024125867 1.0689966e-38 302 238
-0.020506985 0.68800002 0.0024125867 9.8602058e-39 303 238
-0.019300694 0.68800002 0.0024125867 8.9458123e-39 304 238
-0.018068098 0.68699998 0.0024090798 1.00518e-38 305 238
-0.01686356 0.68699998 0.0024090798 1.2079054e-38 306 238
-0.034856264 0.70999998 0.0012448666 1.1423238e-38 292 239
-0.033516716 0.708 0.00124136 1.031689e-38 293 239
-0.032184184 0.70599997 0.0012378532 1.1226262e-38 294 239
-0.030858666 0.704 0.0012343467 1.0396501e-38 295 239
-0.029624319 0.704 0.0012343467 1.0856409e-38 296 239
-0.028349647 0.70300001 0.0012325933 1.1225192e-38 297 239
-0.026885614 0.69700003 0.0012220733 1.0772476e-38 298 239
-0.025626717 0.69599998 0.0012203199 1.132565e-38 299 239
-0.024301201 0.69300002 0.00121506 1.1146278e-38 300 239
-0.02308614 0.69300002 0.00121506 1.1791648e-38 301 239
-0.021807959 0.69099998 0.0012115532 1.0507374e-38 302 239
-0.020566599 0.69 0.0012097999 9.7698081e-39 303 239
-0.019300694 0.68800002 0.0012062934 8.4830363e-39 304 239
-0.018068098 0.68699998 0.0012045399 9.1284057e-39 305 239
-0.01686356 0.68699998 0.0012045399 1.1251088e-38 306 239
-0.033516716 0.708 -0 1.0410521e-38 293 240
-0.032093015 0.704 -0 1.1136204e-38 294 240
-0.030858666 0.704 -0 1.0767063e-38 295 240
-0.029624319 0.704 -0 1.0581245e-38 296 240
-0.028349647 0.70300001 -0 1.1503562e-38 297 240
-0.027039904 0.70099998 -0 1.0409086e-38 298 240
-0.025626717 0.69599998 -0 1.096226e-38 299 240
-0.024301201 0.69300002 -0 1.0597423e-38 300 240
-0.02308614 0.69300002 -0 1.0873651e-38 301 240
-0.021871079 0.69300002 -0 1.032226e-38 302 240
-0.020566599 0.69 -0 1.0045673e-38 303 240
-0.019300694 0.68800002 -0 8.2067955e-39 304 240
-0.018068098 0.68699998 -0 7.8383732e-39 305 240
-0.01686356 0.68699998 -0 9.3174871e-39 306 240
-0.032093015 0.704 -0.0012343467 1.1141604e-38 294 241
-0.030858666 0.704 -0.0012343467 1.0680984e-38 295 241
-0.029624319 0.704 -0.0012343467 1.0033464e-38 296 241
-0.028349647 0.70300001 -0.0012325933 1.0402605e-38 297 241
-0.027039904 0.70099998 -0.0012290865 1.0409436e-38 298 241
-0.025700359 0.69800001 -0.0012238267 1.0778219e-38 299 241
-0.0244064 0.69599998 -0.0012203199 1.0412308e-38 300 241
-0.023186078 0.69599998 -0.0012203199 1.0320112e-38 301 241
-0.021871079 0.69300002 -0.00121506 9.7698052e-39 302 241
-0.020596405 0.69099998 -0.0012115532 9.4932184e-39 303 241
-0.019300694 0.68800002 -0.0012062934 8.2064326e-39 304 241
-0.0180944 0.68800002 -0.0012062934 7.3763132e-39 305 241
-0.028349647 0.70300001 -0.0024651866 1.0498391e-38 297 242
-0.027039904 0.70099998 -0.0024581731 9.8584108e-39 298 242
-0.025700359 0.69800001 -0.0024476533 9.4896282e-39 299 242
-0.024441468 0.69700003 -0.0024441467 9.5825455e-39 300 242
-0.023219392 0.69700003 -0.0024441467 9.6747426e-39 301 242
-0.021902639 0.69400001 -0.0024336267 9.3095502e-39 302 242
-0.020656019 0.69300002 -0.00243012 9.4017458e-39 303 242
-0.01944096 0.69300002 -0.00243012 8.7578015e-39 304 242
-0.018225901 0.69300002 -0.00243012 7.7440097e-39 305 242
-0.028349647 0.70300001 -0.0036977797 1.050378e-38 297 243
-0.027039904 0.70099998 -0.0036872597 9.6750929e-39 298 243
-0.025773998 0.69999999 -0.0036819996 8.6605808e-39 299 243
-0.024476532 0.69800001 -0.0036714801 8.476921e-39 300 243
-0.023252707 0.69800001 -0.0036714801 8.6613123e-39 301 243
-0.021965759 0.69599998 -0.0036609597 8.8489406e-39 302 243
-0.020685827 0.69400001 -0.0036504399 9.3099187e-39 303 243
-0.019469013 0.69400001 -0.0036504399 8.7599567e-39 304 243
-0.0182522 0.69400001 -0.0036504399 8.2067829e-39 305 243
-0.011957732 0.68199998 -0.00358732 1.3920093e-38 310 243
-0.010761959 0.68199998 -0.00358732 1.37357e-38 311 243
-0.028349647 0.70300001 -0.0049303733 1.0320831e-38 297 244
-0.027039904 0.70099998 -0.0049163462 8.9389754e-39 298 244
-0.025773998 0.69999999 -0.0049093333 8.6620284e-39 299 244
-0.024546666 0.69999999 -0.0049093333 8.1088616e-39 300 244
-0.023319334 0.69999999 -0.0049093333 8.1088616e-39 301 244
-0.02202888 0.69800001 -0.0048953067 8.2039271e-39 302 244
-0.020775247 0.69700003 -0.0048882933 8.7571009e-39 303 244
-0.019469013 0.69400001 -0.0048672534 8.5748424e-39 304 244
-0.0182522 0.69400001 -0.0048672534 8.482288e-39 305 244
-0.013153506 0.68199998 -0.004783093 1.2262703e-38 309 244
-0.011957732 0.68199998 -0.004783093 1.4012291e-38 310 244
-0.010761959 0.68199998 -0.004783093 1.38279e-38 311 244
-0.028268991 0.70099998 -0.0061454331 9.8620205e-39 297 245
-0.027001332 0.69999999 -0.0061366665 8.5716348e-39 298 245
-0.025773998 0.69999999 -0.0061366665 8.203211e-39 299 245
-0.024546666 0.69999999 -0.0061366665 7.9255493e-39 300 245
-0.023319334 0.69999999 -0.0061366665 7.5564067e-39 301 245
-0.02202888 0.69800001 -0.006119133 7.4674551e-39 302 245
-0.020775247 0.69700003 -0.0061103669 7.7440405e-39 303 245
-0.019469013 0.69400001 -0.0060840664 8.0227574e-39 304 245
-0.0182522 0.69400001 -0.0060840664 8.2071487e-39 305 245
-0.013153506 0.68199998 -0.005978866 1.23531e-38 309 245
-0.011957732 0.68199998 -0.005978866 1.4105561e-38 310 245
-0.010761959 0.68199998 -0.005978866 1.3920811e-38 311 245
-0.028268991 0.70099998 -0.0073745195 8.9400474e-39 297 246
-0.027001332 0.69999999 -0.0073639993 8.5709131e-39 298 246
-0.025773998 0.69999999 -0.0073639993 8.4787161e-39 299 246
-0.024546666 0.69999999 -0.0073639993 7.3748923e-39 300 246
-0.023319334 0.69999999 -0.0073639993 7.0979467e-39 301 246
-0.022091998 0.69999999 -0.0073639993 7.3712924e-39 302 246
-0.020805053 0.69800001 -0.0073429602 8.1088588e-39 303 246
-0.019525118 0.69599998 -0.0073219193 8.4819405e-39 304 246
-0.0182522 0.69400001 -0.0073008798 9.0351143e-39 305 246
-0.017035386 0.69400001 -0.0073008798 8.3908141e-39 306 246
-0.028389972 0.704 -0.0086404262 8.8482021e-39 297 247
-0.027039904 0.70099998 -0.0086036054 8.8478518e-39 298 247
-0.025773998 0.69999999 -0.0085913334 8.4790692e-39 299 247
-0.024546666 0.69999999 -0.0085913334 8.199258e-39 300 247
-0.023319334 0.69999999 -0.0085913334 7.4616929e-39 301 247
-0.022091998 0.69999999 -0.0085913334 6.5444254e-39 302 247
-0.020805053 0.69800001 -0.0085667865 7.0975991e-39 303 247
-0.019525118 0.69599998 -0.0085422397 8.1146251e-39 304 247
-0.0182522 0.69400001 -0.0085176928 9.5893951e-39 305 247
-0.01701084 0.69300002 -0.0085054198 9.4003165e-39 306 247
-0.015795778 0.69300002 -0.0085054198 7.8333495e-39 307 247
-0.03389544 0.71600002 -0.010043093 1.1888875e-38 293 248
-0.032548878 0.71399999 -0.01001504 9.2184265e-39 294 248
-0.031296998 0.71399999 -0.01001504 8.849644e-39 295 248
-0.030045118 0.71399999 -0.01001504 9.0325933e-39 296 248
-0.028510952 0.70700002 -0.0099168532 9.124789e-39 297 248
-0.027117053 0.70300001 -0.0098607466 8.572704e-39 298 248
-0.025810819 0.70099998 -0.0098326923 8.2042802e-39 299 248
-0.024546666 0.69999999 -0.0098186666 7.8319174e-39 300 248
-0.023319334 0.69999999 -0.0098186666 7.186548e-39 301 248
-0.022091998 0.69999999 -0.0098186666 6.5426247e-39 302 248
-0.020805053 0.69800001 -0.0097906133 6.8195703e-39 303 248
-0.019525118 0.69599998 -0.0097625591 6.8246038e-39 304 248
-0.018225901 0.69300002 -0.0097204801 8.1153412e-39 305 248
-0.01701084 0.69300002 -0.0097204801 9.3988942e-39 306 248
-0.015795778 0.69300002 -0.0097204801 1.0321209e-38 307 248
-0.035199918 0.71700001 -0.01131426 1.0876156e-38 292 249
-0.03389544 0.71600002 -0.01129848 1.0876156e-38 293 249
-0.032548878 0.71399999 -0.011266919 8.5741333e-39 294 249
-0.031296998 0.71399999 -0.011266919 8.3897421e-39 295 249
-0.029876797 0.70999998 -0.011203799 8.9439948e-39 296 249
-0.028510952 0.70700002 -0.011156459 9.128026e-39 297 249
-0.027155625 0.704 -0.011109119 8.573783e-39 298 249
-0.02592128 0.704 -0.011109119 7.7440223e-39 299 249
-0.024546666 0.69999999 -0.011045999 7.5553347e-39 300 249
-0.023319334 0.69999999 -0.011045999 6.9099653e-39 301 249
-0.022091998 0.69999999 -0.011045999 6.0834514e-39 302 249
-0.020775247 0.69700003 -0.01099866 6.0834514e-39 303 249
-0.019469013 0.69400001 -0.01095132 5.5342335e-39 304 249
-0.018225901 0.69300002 -0.010935539 6.1796029e-39 305 249
-0.016961746 0.69099998 -0.01090398 6.5483882e-39 306 249
-0.015750192 0.69099998 -0.01090398 8.2079096e-39 307 249
-0.037819397 0.71899998 -0.012606465 9.030092e-39 290 250
-0.036558751 0.71899998 -0.012606465 7.2783751e-39 291 250
-0.035199918 0.71700001 -0.0125714 9.3081068e-39 292 250
-0.03389544 0.71600002 -0.012553867 1.0045673e-38 293 250
-0.032548878 0.71399999 -0.012518799 8.6652528e-39 294 250
-0.031296998 0.71399999 -0.012518799 8.2042746e-39 295 250
-0.029876797 0.70999998 -0.012448666 8.7599721e-39 296 250
-0.028510952 0.70700002 -0.012396066 8.8521678e-39 297 250
-0.027155625 0.704 -0.012343466 8.0202617e-39 298 250
-0.025810819 0.70099998 -0.012290866 7.3748923e-39 299 250
-0.024546666 0.69999999 -0.012273333 7.095081e-39 300 250
-0.023319334 0.69999999 -0.012273333 6.6341043e-39 301 250
-0.022091998 0.69999999 -0.012273333 5.899056e-39 302 250
-0.020775247 0.69700003 -0.012220734 5.8068603e-39 303 250
-0.019469013 0.69400001 -0.012168133 5.3484031e-39 304 250
-0.0182522 0.69400001 -0.012168133 5.6246299e-39 305 250
-0.016961746 0.69099998 -0.012115533 4.7062707e-39 306 250
-0.015750192 0.69099998 -0.012115533 5.3516401e-39 307 250
-0.037819397 0.71899998 -0.013867113 9.9506036e-39 290 251
-0.036558751 0.71899998 -0.013867113 7.3691259e-39 291 251
-0.035298105 0.71899998 -0.013867113 9.398499e-39 292 251
-0.033942781 0.71700001 -0.013828539 1.0228618e-38 293 251
-0.032640055 0.71600002 -0.013809253 9.0325961e-39 294 251
-0.031384666 0.71600002 -0.013809253 8.3872267e-39 295 251
-0.029876797 0.70999998 -0.013693533 7.6532742e-39 296 251
-0.028510952 0.70700002 -0.013635674 6.7309592e-39 297 251
-0.027155625 0.704 -0.013577812 6.8199333e-39 298 251
-0.025810819 0.70099998 -0.013519952 6.912489e-39 299 251
-0.024546666 0.69999999 -0.013500666 6.5444282e-39 300 251
-0.023319334 0.69999999 -0.013500666 6.0834514e-39 301 251
-0.022091998 0.69999999 -0.013500666 5.8068575e-39 302 251
-0.020805053 0.69800001 -0.013462093 5.8068575e-39 303 251
-0.019469013 0.69400001 -0.013384946 5.8079323e-39 304 251
-0.0182522 0.69400001 -0.013384946 6.0845206e-39 305 251
-0.036609601 0.72000003 -0.0151488 7.2772806e-39 291 252
-0.035298105 0.71899998 -0.01512776 9.2155371e-39 292 252
-0.03403746 0.71899998 -0.01512776 9.9534608e-39 293 252
-0.032776814 0.71899998 -0.01512776 9.4932212e-39 294 252
-0.031516165 0.71899998 -0.01512776 8.294678e-39 295 252
-0.030045118 0.71399999 -0.015022559 7.6464513e-39 296 252
-0.02855128 0.708 -0.01489632 7.0932775e-39 297 252
-0.027232772 0.70599997 -0.014854239 6.3600341e-39 298 252
-0.02592128 0.704 -0.014812159 6.636621e-39 299 252
-0.024546666 0.69999999 -0.014727999 6.7284439e-39 300 252
-0.023319334 0.69999999 -0.014727999 6.3596628e-39 301 252
-0.022091998 0.69999999 -0.014727999 6.0830745e-39 302 252
-0.020864666 0.69999999 -0.014727999 5.9908788e-39 303 252
-0.019637333 0.69999999 -0.014727999 5.9926739e-39 304 252
-0.036609601 0.72000003 -0.0164112 8.8453308e-39 291 253
-0.035298105 0.71899998 -0.016388407 9.0347457e-39 292 253
-0.03403746 0.71899998 -0.016388407 9.8641463e-39 293 253
-0.032776814 0.71899998 -0.016388407 9.8637987e-39 294 253
-0.031516165 0.71899998 -0.016388407 8.3886701e-39 295 253
-0.03012928 0.71600002 -0.016320027 7.0954285e-39 296 253
-0.028631933 0.70999998 -0.016183265 7.0032329e-39 297 253
-0.027232772 0.70599997 -0.016092092 6.5447785e-39 298 253
-0.02592128 0.704 -0.016046507 6.6369741e-39 299 253
-0.024581732 0.70099998 -0.015978126 6.6394895e-39 300 253
-0.023352645 0.70099998 -0.015978126 6.0866744e-39 301 253
-0.022123558 0.70099998 -0.015978126 5.9916019e-39 302 253
-0.020864666 0.69999999 -0.015955333 5.8994063e-39 303 253
-0.019637333 0.69999999 -0.015955333 5.9916019e-39 304 253
-0.037016369 0.72799999 -0.017869972 1.1333538e-38 291 254
-0.035445385 0.722 -0.017722692 1.059884e-38 292 254
-0.034179479 0.722 -0.017722692 1.0783591e-38 293 254
-0.0328224 0.72000003 -0.017673599 1.0692487e-38 294 254
-0.03156 0.72000003 -0.017673599 9.4017486e-39 295 254
-0.030255521 0.71899998 -0.017649053 7.0050322e-39 296 254
-0.028752912 0.713 -0.017501773 6.8206395e-39 297 254
-0.027232772 0.70599997 -0.017329946 6.6380461e-39 298 254
-0.02592128 0.704 -0.017280852 6.7302431e-39 299 254
-0.024581732 0.70099998 -0.017207211 7.3734475e-39 300 254
-0.023352645 0.70099998 -0.017207211 7.0043049e-39 301 254
-0.022123558 0.70099998 -0.017207211 6.6355294e-39 302 254
-0.020864666 0.69999999 -0.017182667 6.3585824e-39 303 254
-0.019637333 0.69999999 -0.017182667 6.0848863e-39 304 254
-0.035445385 0.722 -0.0189886 1.1980708e-38 292 255
-0.034179479 0.722 -0.0189886 1.1703762e-38 293 255
-0.032913569 0.722 -0.0189886 1.1706283e-38 294 255
-0.03156 0.72000003 -0.018935999 9.8623708e-39 295 255
-0.0302976 0.72000003 -0.018935999 7.2801799e-39 296 255
-0.029035201 0.72000003 -0.018935999 7.0954285e-39 297 255
-0.027271347 0.70700002 -0.018594101 7.1876284e-39 298 255
-0.02592128 0.704 -0.018515198 7.279824e-39 299 255
-0.024581732 0.70099998 -0.018436298 7.0979495e-39 300 255
-0.023352645 0.70099998 -0.018436298 7.0057538e-39 301 255
-0.022123558 0.70099998 -0.018436298 6.6358923e-39 302 255
-0.020864666 0.69999999 -0.018409999 6.3596656e-39 303 255
-0.019553173 0.69700003 -0.018331099 6.2678357e-39 304 255
-0.018331099 0.69700003 -0.018331099 6.9132051e-39 305 255
-0.03422682 0.72299999 -0.020282559 1.225622e-38 293 256
-0.032913569 0.722 -0.020254506 1.1430055e-38 294 256
-0.03156 0.72000003 -0.020198401 1.0323348e-38 295 256
-0.0302976 0.72000003 -0.020198401 8.4776399e-39 296 256
-0.029035201 0.72000003 -0.020198401 7.3712924e-39 297 256
-0.027271347 0.70700002 -0.019833706 7.1858291e-39 298 256
-0.02592128 0.704 -0.019749546 7.4624174e-39 299 256
-0.024581732 0.70099998 -0.019665385 7.3738133e-39 300 256
-0.023352645 0.70099998 -0.019665385 7.5582045e-39 301 256
-0.022123558 0.70099998 -0.019665385 6.9131911e-39 302 256
-0.020864666 0.69999999 -0.019637333 6.3600187e-39 303 256
-0.019553173 0.69700003 -0.019553173 5.9919719e-39 304 256
-0.018331099 0.69700003 -0.019553173 6.1767218e-39 305 256
-0.017109027 0.69700003 -0.019553173 4.6126387e-39 306 256
-0.015886955 0.69700003 -0.019553173 4.9810625e-39 307 256
-0.035985414 0.73299998 -0.021848286 1.4284527e-38 292 257
-0.034605537 0.73100001 -0.021788673 1.3270015e-38 293 257
-0.033050332 0.72500002 -0.021609833 1.1889959e-38 294 257
-0.031779166 0.72500002 -0.021609833 1.0875447e-38 295 257
-0.030508002 0.72500002 -0.021609833 9.5843476e-39 296 257
-0.028631933 0.70999998 -0.021162732 8.2936088e-39 297 257
-0.027387066 0.70999998 -0.021162732 7.83083e-39 298 257
-0.02592128 0.704 -0.020983893 8.0148611e-39 299 257
-0.024581732 0.70099998 -0.020894472 7.7433063e-39 300 257
-0.023352645 0.70099998 -0.020894472 7.9273374e-39 301 257
-0.022123558 0.70099998 -0.020894472 7.2819652e-39 302 257
-0.020864666 0.69999999 -0.020864666 6.7287914e-39 303 257
-0.019581227 0.69800001 -0.020805053 6.1749198e-39 304 257
-0.0183574 0.69800001 -0.020805053 6.1749198e-39 305 257
-0.017109027 0.69700003 -0.020775247 4.9792661e-39 306 257
-0.015886955 0.69700003 -0.020775247 5.7168325e-39 307 257
-0.01466488 0.69700003 -0.020775247 1.069215e-38 308 257
-0.035985414 0.73299998 -0.023133477 1.5021736e-38 292 258
-0.034605537 0.73100001 -0.02307036 1.4284171e-38 293 258
-0.033278264 0.73000002 -0.023038799 1.3270015e-38 294 258
-0.031998333 0.73000002 -0.023038799 1.1795245e-38 295 258
-0.027387066 0.70999998 -0.022407599 8.7560261e-39 298 258
-0.026068559 0.708 -0.022344479 8.3872421e-39 299 258
-0.024581732 0.70099998 -0.022123558 8.2039271e-39 300 258
-0.023352645 0.70099998 -0.022123558 8.2961241e-39 301 258
-0.022123558 0.70099998 -0.022123558 7.3766845e-39 302 258
-0.020864666 0.69999999 -0.022091998 6.4547282e-39 303 258
