# .PCD v.7 - Point Cloud Data file format
FIELDS x y z rgb imX imY
SIZE 4 4 4 4 4 4
TYPE F F F F F F
COUNT 1 1 1 1 1 1
WIDTH 834
HEIGHT 1
VIEWPOINT 0 0 0 1 0 0 0
POINTS 834
DATA ascii
-0.0239856 0.68400002 0.01319208 3.9838789e-39 300 229
-0.022753006 0.68300003 0.013172794 4.1686289e-39 301 229
-0.02155548 0.68300003 0.013172794 3.8927805e-39 302 229
-0.020328145 0.68199998 0.013153506 3.8927805e-39 303 229
-0.019132372 0.68199998 0.013153506 3.3417773e-39 304 229
-0.017936599 0.68199998 0.013153506 3.1570273e-39 305 229
-0.016691733 0.68000001 0.013114933 2.8811663e-39 306 229
-0.015499466 0.68000001 0.013114933 2.7889707e-39 307 229
-0.014307199 0.68000001 0.013114933 2.5123866e-39 308 229
-0.013095647 0.67900002 0.013095647 2.3279954e-39 309 229
-0.011905133 0.67900002 0.013095647 1.7766264e-39 310 229
-0.010698839 0.67799997 0.013076359 1.6840707e-39 311 229
-0.0095100794 0.67799997 0.013076359 1.5929499e-39 312 229
-0.0083213197 0.67799997 0.013076359 1.6851469e-39 313 229
-0.0071115191 0.676 0.013037786 1.7773397e-39 314 229
-0.0059262668 0.676 0.013037786 1.7773397e-39 315 229
-0.0047410131 0.676 0.013037786 2.5112978e-39 316 229
-0.0035557596 0.676 0.013037786 2.6956891e-39 317 229
-0.0023705065 0.676 0.013037786 3.33709e-39 318 229
-0.0011852533 0.676 0.013037786 3.33709e-39 319 229
0 0.676 0.013037786 3.52184e-39 320 229
0.0011852533 0.676 0.013037786 3.7058711e-39 321 229
0.0023705065 0.676 0.013037786 3.7058711e-39 322 229
0.0035557596 0.676 0.013037786 3.8902638e-39 323 229
0.0047410131 0.676 0.013037786 4.624582e-39 324 229
0.0059437994 0.67799997 0.013076359 4.7167776e-39 325 229
0.0071325595 0.67799997 0.013076359 4.9919198e-39 326 229
0.0083213197 0.67799997 0.013076359 4.9919198e-39 327 229
0.0095100794 0.67799997 0.013076359 5.3596163e-39 328 229
0.010714619 0.67900002 0.013095647 5.3596163e-39 329 229
0.011905133 0.67900002 0.013095647 6.0939317e-39 330 229
0.013095647 0.67900002 0.013095647 6.2786817e-39 331 229
0.014307199 0.68000001 0.013114933 7.3803391e-39 332 229
0.015499466 0.68000001 0.013114933 7.7487615e-39 333 229
0.016740825 0.68199998 0.013153506 8.9429761e-39 334 229
0.017936599 0.68199998 0.013153506 9.3117586e-39 335 229
0.019160427 0.68300003 0.013172794 9.6808915e-39 336 229
0.020357953 0.68300003 0.013172794 9.9574783e-39 337 229
0.02158704 0.68400002 0.01319208 9.5894245e-39 338 229
0.022852944 0.68599999 0.013230653 8.4827168e-39 339 229
0.024090799 0.68699998 0.013249939 6.4591087e-39 340 229
0.025295338 0.68699998 0.013249939 5.1683699e-39 341 229
0.026499879 0.68699998 0.013249939 2.1327693e-39 342 229
0.027744746 0.68800002 0.013269227 1.3030086e-39 343 229
-0.030288832 0.69099998 0.012115533 1.1222075e-39 295 230
-0.029035198 0.69 0.012097999 7.7538258e-39 296 230
-0.027744746 0.68800002 0.012062933 1.0150912e-38 297 230
-0.026499879 0.68699998 0.012045399 1.1710662e-38 298 230
-0.025258519 0.68599999 0.012027865 1.0051141e-38 299 230
-0.024055731 0.68599999 0.012027865 6.1908161e-39 300 230
-0.022786319 0.68400002 0.0119928 5.6376423e-39 301 230
-0.02155548 0.68300003 0.011975267 3.9853433e-39 302 230
-0.020328145 0.68199998 0.011957732 3.8013108e-39 303 230
-0.019132372 0.68199998 0.011957732 3.3407025e-39 304 230
-0.017936599 0.68199998 0.011957732 3.1563113e-39 305 230
-0.016740825 0.68199998 0.011957732 2.9730018e-39 306 230
-0.015499466 0.68000001 0.011922667 2.8804475e-39 307 230
-0.014307199 0.68000001 0.011922667 2.5127425e-39 308 230
-0.013095647 0.67900002 0.011905133 2.3283513e-39 309 230
-0.011905133 0.67900002 0.011905133 1.9599359e-39 310 230
-0.010714619 0.67900002 0.011905133 1.9599359e-39 311 230
-0.0095100794 0.67799997 0.011887599 1.5929499e-39 312 230
-0.0083213197 0.67799997 0.011887599 1.5929499e-39 313 230
-0.0071325595 0.67799997 0.011887599 1.5929499e-39 314 230
-0.0059437994 0.67799997 0.011887599 1.6851469e-39 315 230
-0.0047550397 0.67799997 0.011887599 2.3283485e-39 316 230
-0.0035662798 0.67799997 0.011887599 2.4205441e-39 317 230
-0.0023775198 0.67799997 0.011887599 3.0626639e-39 318 230
-0.0011887599 0.67799997 0.011887599 3.0626639e-39 319 230
0 0.67799997 0.011887599 3.4300073e-39 320 230
0.0011887599 0.67799997 0.011887599 3.4300073e-39 321 230
0.0023775198 0.67799997 0.011887599 3.7058711e-39 322 230
0.0035662798 0.67799997 0.011887599 3.8902638e-39 323 230
0.0047550397 0.67799997 0.011887599 4.6238631e-39 324 230
0.0059437994 0.67799997 0.011887599 4.7160588e-39 325 230
0.0071325595 0.67799997 0.011887599 5.1748719e-39 326 230
0.0083213197 0.67799997 0.011887599 5.1748719e-39 327 230
0.0095100794 0.67799997 0.011887599 5.4507301e-39 328 230
0.010714619 0.67900002 0.011905133 5.6351214e-39 329 230
0.011905133 0.67900002 0.011905133 6.8293332e-39 330 230
0.013114933 0.68000001 0.011922667 7.2903099e-39 331 230
0.014307199 0.68000001 0.011922667 8.3008479e-39 332 230
0.015545053 0.68199998 0.011957732 8.5774334e-39 333 230
0.016740825 0.68199998 0.011957732 9.3128306e-39 334 230
0.017936599 0.68199998 0.011957732 9.4972233e-39 335 230
0.019160427 0.68300003 0.011975267 8.8518595e-39 336 230
0.020357953 0.68300003 0.011975267 7.8373474e-39 337 230
0.021650158 0.68599999 0.012027865 3.7976604e-39 338 230
0.022886258 0.68699998 0.012045399 4.627421e-39 339 230
0.024090799 0.68699998 0.012045399 8.7557332e-39 340 230
0.025295338 0.68699998 0.012045399 7.55719e-39 341 230
0.026538454 0.68800002 0.012062933 3.6050225e-39 342 230
0.027865725 0.69099998 0.012115533 2.3142837e-39 343 230
-0.029035198 0.69 0.010888199 3.7937353e-39 296 231
-0.027744746 0.68800002 0.010856641 7.850343e-39 297 231
-0.026499879 0.68699998 0.010840859 1.2079451e-38 298 231
-0.025295338 0.68699998 0.010840859 1.1157136e-38 299 231
-0.024055731 0.68599999 0.010825079 8.3988295e-39 300 231
-0.022786319 0.68400002 0.01079352 6.8315024e-39 301 231
-0.02158704 0.68400002 0.01079352 4.3526839e-39 302 231
-0.020357953 0.68300003 0.01077774 4.1682912e-39 303 231
-0.019160427 0.68300003 0.01077774 3.3410585e-39 304 231
-0.017936599 0.68199998 0.010761959 3.2488628e-39 305 231
-0.016740825 0.68199998 0.010761959 3.0641157e-39 306 231
-0.015545053 0.68199998 0.010761959 2.9719186e-39 307 231
-0.014307199 0.68000001 0.0107304 2.8786482e-39 308 231
-0.013114933 0.68000001 0.0107304 2.6942569e-39 309 231
-0.011905133 0.67900002 0.010714619 1.9592156e-39 310 231
-0.010714619 0.67900002 0.010714619 1.9592156e-39 311 231
-0.0095100794 0.67799997 0.010698839 1.6844266e-39 312 231
-0.0083213197 0.67799997 0.010698839 1.6844266e-39 313 231
-0.0071325595 0.67799997 0.010698839 1.5929499e-39 314 231
-0.0059437994 0.67799997 0.010698839 1.6851469e-39 315 231
-0.0047550397 0.67799997 0.010698839 2.1446803e-39 316 231
-0.0035662798 0.67799997 0.010698839 2.1446803e-39 317 231
-0.0023775198 0.67799997 0.010698839 2.8789985e-39 318 231
-0.0011887599 0.67799997 0.010698839 2.8789985e-39 319 231
0 0.67799997 0.010698839 3.1541435e-39 320 231
0.0011887599 0.67799997 0.010698839 3.2463391e-39 321 231
0.0023775198 0.67799997 0.010698839 3.796992e-39 322 231
0.0035662798 0.67799997 0.010698839 3.8895463e-39 323 231
0.0047550397 0.67799997 0.010698839 4.8064551e-39 324 231
0.0059437994 0.67799997 0.010698839 4.9912065e-39 325 231
0.0071325595 0.67799997 0.010698839 5.4503798e-39 326 231
0.0083213197 0.67799997 0.010698839 5.5425754e-39 327 231
0.0095100794 0.67799997 0.010698839 6.0935786e-39 328 231
0.010714619 0.67900002 0.010714619 6.6467524e-39 329 231
0.011922667 0.68000001 0.0107304 8.5756453e-39 330 231
0.013114933 0.68000001 0.0107304 9.2210147e-39 331 231
0.01434928 0.68199998 0.010761959 9.5897776e-39 332 231
0.015545053 0.68199998 0.010761959 9.5897776e-39 333 231
0.016740825 0.68199998 0.010761959 9.6808943e-39 334 231
0.017962901 0.68300003 0.01077774 9.2199161e-39 335 231
0.019160427 0.68300003 0.01077774 6.5509512e-39 336 231
0.020387759 0.68400002 0.01079352 5.1680168e-39 337 231
0.021681719 0.68699998 0.010840859 1.7708139e-39 338 231
0.022886258 0.68699998 0.010840859 4.5370415e-39 339 231
0.024125867 0.68800002 0.010856641 1.0873339e-38 340 231
0.02533216 0.68800002 0.010856641 9.3982089e-39 341 231
0.026615599 0.69 0.010888199 5.9952523e-39 342 231
0.027865725 0.69099998 0.01090398 3.5981659e-39 343 231
0.029203519 0.69400001 0.01095132 4.4315237e-39 344 231
-0.029161438 0.69300002 0.0097204801 1.1916642e-41 296 232
-0.027744746 0.68800002 0.0096503468 4.2561554e-39 297 232
-0.026499879 0.68699998 0.0096363192 1.0238069e-38 298 232
-0.025295338 0.68699998 0.0096363192 1.1436612e-38 299 232
-0.024090799 0.68699998 0.0096363192 1.0330622e-38 300 232
-0.022852944 0.68599999 0.0096222926 7.8413397e-39 301 232
-0.021650158 0.68599999 0.0096222926 4.3530398e-39 302 232
-0.020387759 0.68400002 0.0095942402 4.3530398e-39 303 232
-0.019160427 0.68300003 0.0095802136 3.3417745e-39 304 232
-0.017962901 0.68300003 0.0095802136 3.1573833e-39 305 232
-0.016765373 0.68300003 0.0095802136 3.1566672e-39 306 232
-0.015545053 0.68199998 0.009566186 2.7878847e-39 307 232
-0.01434928 0.68199998 0.009566186 3.0608787e-39 308 232
-0.013153506 0.68199998 0.009566186 2.7839316e-39 309 232
-0.011922667 0.68000001 0.0095381327 2.3261961e-39 310 232
-0.0107304 0.68000001 0.0095381327 2.2340005e-39 311 232
-0.009524107 0.67900002 0.009524107 1.6844238e-39 312 232
-0.0083335936 0.67900002 0.009524107 1.6844238e-39 313 232
-0.0071325595 0.67799997 0.0095100794 1.8677361e-39 314 232
-0.0059437994 0.67799997 0.0095100794 1.9602918e-39 315 232
-0.0047550397 0.67799997 0.0095100794 2.3276324e-39 316 232
-0.0035662798 0.67799997 0.0095100794 2.5116635e-39 317 232
-0.0023775198 0.67799997 0.0095100794 2.8790013e-39 318 232
-0.0011887599 0.67799997 0.0095100794 2.8790013e-39 319 232
0 0.67799997 0.0095100794 3.2463391e-39 320 232
0.0011887599 0.67799997 0.0095100794 3.3388935e-39 321 232
0.0023775198 0.67799997 0.0095100794 4.2558023e-39 322 232
0.0035662798 0.67799997 0.0095100794 4.3479979e-39 323 232
0.0047550397 0.67799997 0.0095100794 5.3574625e-39 324 232
0.0059437994 0.67799997 0.0095100794 5.4496581e-39 325 232
0.0071325595 0.67799997 0.0095100794 5.0830266e-39 326 232
0.0083213197 0.67799997 0.0095100794 6.0971785e-39 327 232
0.009524107 0.67900002 0.009524107 8.5767299e-39 328 232
0.0107304 0.68000001 0.0095381327 9.4986876e-39 329 232
0.011922667 0.68000001 0.0095381327 1.1334665e-38 330 232
0.013153506 0.68199998 0.009566186 1.1427219e-38 331 232
0.01434928 0.68199998 0.009566186 1.0786163e-38 332 232
0.015545053 0.68199998 0.009566186 9.9564022e-39 333 232
0.016740825 0.68199998 0.009566186 6.7320985e-39 334 232
0.017962901 0.68300003 0.0095802136 5.349164e-39 335 232
0.019160427 0.68300003 0.0095802136 1.4920844e-39 336 232
0.020447372 0.68599999 0.0096222926 1.9530625e-39 337 232
0.021681719 0.68699998 0.0096363192 3.8819625e-39 338 232
0.022886258 0.68699998 0.0096363192 7.2932008e-39 339 232
0.024125867 0.68800002 0.0096503468 1.1796722e-38 340 232
0.02533216 0.68800002 0.0096503468 1.1151352e-38 341 232
0.026654173 0.69099998 0.0096924258 8.8450323e-39 342 232
0.027946379 0.69300002 0.0097204801 4.9731746e-39 343 232
0.029203519 0.69400001 0.0097345067 5.2591194e-39 344 232
-0.029161438 0.69300002 0.0085054198 3.2888475e-42 296 233
-0.027825398 0.69 0.0084686 1.9455193e-39 297 233
-0.026538454 0.68800002 0.0084440531 6.6482041e-39 298 233
-0.025295338 0.68699998 0.0084317802 9.7828541e-39 299 233
-0.024090799 0.68699998 0.0084317802 1.1528442e-38 300 233
-0.022852944 0.68599999 0.0084195063 8.5778229e-39 301 233
-0.021650158 0.68599999 0.0084195063 5.1795537e-39 302 233
-0.020387759 0.68400002 0.0083949603 5.1795537e-39 303 233
-0.01918848 0.68400002 0.0083949603 4.3508874e-39 304 233
-0.017962901 0.68300003 0.0083826864 4.0746606e-39 305 233
-0.016765373 0.68300003 0.0083826864 3.7051677e-39 306 233
-0.015545053 0.68199998 0.0083704125 3.3363865e-39 307 233
-0.01434928 0.68199998 0.0083704125 3.2434721e-39 308 233
-0.013153506 0.68199998 0.0083704125 3.151275e-39 309 233
-0.011957732 0.68199998 0.0083704125 2.3261933e-39 310 233
-0.0107304 0.68000001 0.0083458666 2.3261933e-39 311 233
-0.009524107 0.67900002 0.0083335936 1.6844238e-39 312 233
-0.0083335936 0.67900002 0.0083335936 1.6844238e-39 313 233
-0.0071430802 0.67900002 0.0083335936 1.592947e-39 314 233
-0.0059525664 0.67900002 0.0083335936 1.6851441e-39 315 233
-0.0047550397 0.67799997 0.0083213197 2.0524847e-39 316 233
-0.0035662798 0.67799997 0.0083213197 2.3290702e-39 317 233
-0.0023775198 0.67799997 0.0083213197 2.8790013e-39 318 233
-0.0011887599 0.67799997 0.0083213197 2.8790013e-39 319 233
0 0.67799997 0.0083213197 3.8881114e-39 320 233
0.0011887599 0.67799997 0.0083213197 3.8881114e-39 321 233
0.0023775198 0.67799997 0.0083213197 4.9901261e-39 322 233
0.0035662798 0.67799997 0.0083213197 5.0823232e-39 323 233
0.0047550397 0.67799997 0.0083213197 5.0826707e-39 324 233
0.0059437994 0.67799997 0.0083213197 5.2674207e-39 325 233
0.0071430802 0.67900002 0.0083335936 5.7280233e-39 326 233
0.0083335936 0.67900002 0.0083335936 7.1109577e-39 327 233
0.0095381327 0.68000001 0.0083458666 1.0232992e-38 328 233
0.0107304 0.68000001 0.0083458666 1.0417385e-38 329 233
0.011957732 0.68199998 0.0083704125 1.0877267e-38 330 233
0.013153506 0.68199998 0.0083704125 1.0969462e-38 331 233
0.01434928 0.68199998 0.0083704125 9.5876252e-39 332 233
0.015545053 0.68199998 0.0083704125 8.3890835e-39 333 233
0.016765373 0.68300003 0.0083826864 4.2478737e-39 334 233
0.017962901 0.68300003 0.0083826864 3.1415262e-39 335 233
0.01918848 0.68400002 0.0083949603 1.7665245e-39 336 233
0.020447372 0.68599999 0.0084195063 2.9650663e-39 337 233
0.021681719 0.68699998 0.0084317802 6.5498708e-39 338 233
0.022919573 0.68800002 0.0084440531 9.0391528e-39 339 233
0.024231065 0.69099998 0.008480873 1.1611961e-38 340 233
0.025442619 0.69099998 0.008480873 1.1611961e-38 341 233
0.02673132 0.69300002 0.0085054198 9.1266457e-39 342 233
0.027946379 0.69300002 0.0085054198 4.9778409e-39 343 233
0.029203519 0.69400001 0.0085176928 6.7328019e-39 344 233
-0.030507999 0.69599998 0.0073219193 3.3230083e-39 295 234
-0.029203519 0.69400001 0.0073008798 1.8837936e-40 296 234
-0.027865725 0.69099998 0.0072693196 1.8837936e-40 297 234
-0.026538454 0.68800002 0.0072377604 5.7192315e-40 298 234
-0.025295338 0.68699998 0.0072272392 6.7490318e-39 299 234
-0.024090799 0.68699998 0.0072272392 1.2078742e-38 300 234
-0.022852944 0.68599999 0.0072167199 9.7738508e-39 301 234
-0.021650158 0.68599999 0.0072167199 6.1926168e-39 302 234
-0.020447372 0.68599999 0.0072167199 5.639443e-39 303 234
-0.01918848 0.68400002 0.0071956799 4.1675695e-39 304 234
-0.017962901 0.68300003 0.0071851597 3.4300045e-39 305 234
-0.016765373 0.68300003 0.0071851597 3.242742e-39 306 234
-0.015545053 0.68199998 0.00717464 3.519689e-39 307 234
-0.01434928 0.68199998 0.00717464 3.0601514e-39 308 234
-0.013153506 0.68199998 0.00717464 3.1523484e-39 309 234
-0.011957732 0.68199998 0.00717464 1.959566e-39 310 234
-0.010761959 0.68199998 0.00717464 1.959566e-39 311 234
-0.0095381327 0.68000001 0.0071535995 1.6844238e-39 312 234
-0.0083458666 0.68000001 0.0071535995 1.6844238e-39 313 234
-0.0071535995 0.68000001 0.0071535995 1.8677361e-39 314 234
-0.0059525664 0.67900002 0.0071430802 1.9602918e-39 315 234
-0.0047620535 0.67900002 0.0071430802 2.3276296e-39 316 234
-0.0035715401 0.67900002 0.0071430802 2.6038564e-39 317 234
-0.0023775198 0.67799997 0.0071325595 3.0626667e-39 318 234
-0.0011887599 0.67799997 0.0071325595 3.0626667e-39 319 234
0 0.67799997 0.0071325595 3.9802916e-39 320 234
0.0011887599 0.67799997 0.0071325595 4.0724872e-39 321 234
0.0023775198 0.67799997 0.0071325595 5.0823063e-39 322 234
0.0035662798 0.67799997 0.0071325595 5.1745034e-39 323 234
0.0047620535 0.67900002 0.0071430802 5.5425628e-39 324 234
0.0059525664 0.67900002 0.0071430802 5.9109852e-39 325 234
0.0071430802 0.67900002 0.0071430802 7.7498447e-39 326 234
0.0083335936 0.67900002 0.0071430802 9.5937559e-39 327 234
0.0095381327 0.68000001 0.0071535995 1.1061308e-38 328 234
0.010761959 0.68199998 0.00717464 1.0969112e-38 329 234
0.011957732 0.68199998 0.00717464 1.0876917e-38 330 234
0.013153506 0.68199998 0.00717464 9.5861777e-39 331 234
0.01434928 0.68199998 0.00717464 4.9825493e-39 332 234
0.015567848 0.68300003 0.0071851597 2.9542454e-39 333 234
0.016765373 0.68300003 0.0071851597 1.581413e-39 334 234
0.0179892 0.68400002 0.0071956799 2.1345867e-39 335 234
0.019244585 0.68599999 0.0072167199 1.7668762e-39 336 234
0.020477179 0.68699998 0.0072272392 3.4260388e-39 337 234
0.021713281 0.68800002 0.0072377604 9.3092573e-39 338 234
0.023019511 0.69099998 0.0072693196 1.0784746e-38 339 234
0.024231065 0.69099998 0.0072693196 1.0510652e-38 340 234
0.02551626 0.69300002 0.0072903596 9.8652827e-39 341 234
0.02673132 0.69300002 0.0072903596 9.2159631e-39 342 234
0.027986705 0.69400001 0.0073008798 8.2021713e-39 343 234
-0.030507999 0.69599998 0.0061015999 7.2816541e-39 295 235
-0.029203519 0.69400001 0.0060840664 3.6885539e-39 296 235
-0.027865725 0.69099998 0.0060577663 1.2911074e-39 297 235
-0.026615599 0.69 0.0060489997 9.0243621e-42 298 235
-0.02533216 0.68800002 0.0060314666 4.0721145e-39 299 235
-0.024090799 0.68699998 0.0060226996 9.9625581e-39 300 235
-0.022886258 0.68699998 0.0060226996 9.9625581e-39 301 235
-0.021681719 0.68699998 0.0060226996 9.9585952e-39 302 235
-0.020477179 0.68699998 0.0060226996 8.8522476e-39 303 235
-0.019244585 0.68599999 0.0060139326 5.4496609e-39 304 235
-0.0179892 0.68400002 0.0059964 4.2511177e-39 305 235
-0.016765373 0.68300003 0.0059876335 3.4249696e-39 306 235
-0.015567848 0.68300003 0.0059876335 3.8859464e-39 307 235
-0.01434928 0.68199998 0.005978866 2.786084e-39 308 235
-0.013153506 0.68199998 0.005978866 2.786084e-39 309 235
-0.011957732 0.68199998 0.005978866 2.1436013e-39 310 235
-0.010761959 0.68199998 0.005978866 1.9595688e-39 311 235
-0.0095381327 0.68000001 0.0059613334 1.6844266e-39 312 235
-0.0083458666 0.68000001 0.0059613334 1.6844266e-39 313 235
-0.0071535995 0.68000001 0.0059613334 1.6844266e-39 314 235
-0.0059613334 0.68000001 0.0059613334 1.7766236e-39 315 235
-0.0047620535 0.67900002 0.0059525664 2.2361529e-39 316 235
-0.0035715401 0.67900002 0.0059525664 2.3283485e-39 317 235
-0.0023810267 0.67900002 0.0059525664 3.4292884e-39 318 235
-0.0011887599 0.67799997 0.0059437994 3.4292884e-39 319 235
0 0.67799997 0.0059437994 4.8972088e-39 320 235
0.0011887599 0.67799997 0.0059437994 4.8972088e-39 321 235
0.0023775198 0.67799997 0.0059437994 5.2652627e-39 322 235
0.0035715401 0.67900002 0.0059525664 5.2652627e-39 323 235
0.0047620535 0.67900002 0.0059525664 4.6241995e-39 324 235
0.0059525664 0.67900002 0.0059525664 6.0989694e-39 325 235
0.0071430802 0.67900002 0.0059525664 9.2220839e-39 326 235
0.0083458666 0.68000001 0.0059613334 1.014404e-38 327 235
0.009566186 0.68199998 0.005978866 1.0877993e-38 328 235
0.010761959 0.68199998 0.005978866 1.0693601e-38 329 235
0.011957732 0.68199998 0.005978866 8.4823637e-39 330 235
0.013172794 0.68300003 0.0059876335 6.3622243e-39 331 235
0.014370319 0.68300003 0.0059876335 2.5004784e-39 332 235
0.015567848 0.68300003 0.0059876335 1.855109e-39 333 235
0.016765373 0.68300003 0.0059876335 2.0409632e-39 334 235
0.0179892 0.68400002 0.0059964 2.3175487e-39 335 235
0.019244585 0.68599999 0.0060139326 2.4111638e-39 336 235
0.020477179 0.68699998 0.0060226996 4.5316633e-39 337 235
0.021713281 0.68800002 0.0060314666 9.954261e-39 338 235
0.02308614 0.69300002 0.0060753003 9.954261e-39 339 235
0.024301201 0.69300002 0.0060753003 9.8627674e-39 340 235
0.025553079 0.69400001 0.0060840664 9.4936261e-39 341 235
0.026769891 0.69400001 0.0060840664 9.4003599e-39 342 235
0.027986705 0.69400001 0.0060840664 8.6627949e-39 343 235
-0.030551834 0.69700003 0.0048882933 1.0875857e-38 295 236
-0.029287677 0.69599998 0.0048812795 8.1114358e-39 296 236
-0.027946379 0.69300002 0.00486024 4.7923931e-39 297 236
-0.026615599 0.69 0.0048391996 2.8562386e-40 298 236
-0.02533216 0.68800002 0.0048251734 2.3139277e-39 299 236
-0.024125867 0.68800002 0.0048251734 7.2888876e-39 300 236
-0.022886258 0.68699998 0.0048181596 1.060793e-38 301 236
-0.021681719 0.68699998 0.0048181596 1.1797822e-38 302 236
-0.020477179 0.68699998 0.0048181596 9.861715e-39 303 236
-0.019272638 0.68699998 0.0048181596 6.1818142e-39 304 236
-0.018041799 0.68599999 0.0048111463 5.1676636e-39 305 236
-0.016789921 0.68400002 0.0047971201 4.3447567e-39 306 236
-0.015567848 0.68300003 0.0047901068 4.621345e-39 307 236
-0.014370319 0.68300003 0.0047901068 2.7868029e-39 308 236
-0.013153506 0.68199998 0.004783093 2.6946073e-39 309 236
-0.011957732 0.68199998 0.004783093 2.1436041e-39 310 236
-0.010761959 0.68199998 0.004783093 1.9595716e-39 311 236
-0.009566186 0.68199998 0.004783093 1.8677389e-39 312 236
-0.0083704125 0.68199998 0.004783093 1.8677389e-39 313 236
-0.00717464 0.68199998 0.004783093 1.8677361e-39 314 236
-0.0059613334 0.68000001 0.0047690663 1.9602918e-39 315 236
-0.0047690663 0.68000001 0.0047690663 2.3276268e-39 316 236
-0.0035767998 0.68000001 0.0047690663 2.5120167e-39 317 236
-0.0023810267 0.67900002 0.0047620535 3.7955472e-39 318 236
-0.0011905134 0.67900002 0.0047620535 3.7955472e-39 319 236
0 0.67900002 0.0047620535 5.0801553e-39 320 236
0.0011905134 0.67900002 0.0047620535 5.2645466e-39 321 236
0.0023810267 0.67900002 0.0047620535 5.2652655e-39 322 236
0.0035715401 0.67900002 0.0047620535 5.2652655e-39 323 236
0.0047690663 0.68000001 0.0047690663 4.9901051e-39 324 236
0.0059613334 0.68000001 0.0047690663 6.9262133e-39 325 236
0.0071535995 0.68000001 0.0047690663 1.0601416e-38 326 236
0.0083458666 0.68000001 0.0047690663 1.0878361e-38 327 236
0.009566186 0.68199998 0.004783093 1.0418456e-38 328 236
0.010761959 0.68199998 0.004783093 9.1277177e-39 329 236
0.011975267 0.68300003 0.0047901068 4.8914257e-39 330 236
0.013172794 0.68300003 0.0047901068 2.1255568e-39 331 236
0.014370319 0.68300003 0.0047901068 1.119353e-39 332 236
0.015567848 0.68300003 0.0047901068 1.856918e-39 333 236
0.016789921 0.68400002 0.0047971201 2.2246314e-39 334 236
0.018041799 0.68599999 0.0048111463 2.4090226e-39 335 236
0.019272638 0.68699998 0.0048181596 3.7890508e-39 336 236
0.020506985 0.68800002 0.0048251734 6.0935814e-39 337 236
0.021776399 0.69 0.0048391996 9.4932758e-39 338 236
0.02308614 0.69300002 0.00486024 9.3092447e-39 339 236
0.024301201 0.69300002 0.00486024 9.6754993e-39 340 236
0.025553079 0.69400001 0.0048672534 9.8602507e-39 341 236
0.026769891 0.69400001 0.0048672534 9.3092419e-39 342 236
0.027986705 0.69400001 0.0048672534 7.6497191e-39 343 236
-0.030551834 0.69700003 0.00366622 1.004934e-38 295 237
-0.029287677 0.69599998 0.0036609597 9.5844051e-39 296 237
-0.027946379 0.69300002 0.0036451798 9.5844051e-39 297 237
-0.026654173 0.69099998 0.0036346598 7.3771147e-39 298 237
-0.02533216 0.68800002 0.0036188802 6.3629614e-39 299 237
-0.024125867 0.68800002 0.0036188802 6.2761622e-39 300 237
-0.022886258 0.68699998 0.0036136196 1.0240574e-38 301 237
-0.021681719 0.68699998 0.0036136196 1.1247163e-38 302 237
-0.020477179 0.68699998 0.0036136196 8.9422726e-39 303 237
-0.019272638 0.68699998 0.0036136196 7.5632983e-39 304 237
-0.018041799 0.68599999 0.00360836 7.1948745e-39 305 237
-0.016839013 0.68599999 0.00360836 6.0010355e-39 306 237
-0.015567848 0.68300003 0.0035925799 5.355666e-39 307 237
-0.014370319 0.68300003 0.0035925799 2.6964079e-39 308 237
-0.013172794 0.68300003 0.0035925799 2.5120167e-39 309 237
-0.011957732 0.68199998 0.00358732 2.1436041e-39 310 237
-0.010761959 0.68199998 0.00358732 1.9595716e-39 311 237
-0.009566186 0.68199998 0.00358732 1.86702e-39 312 237
-0.0083704125 0.68199998 0.00358732 1.86702e-39 313 237
-0.00717464 0.68199998 0.00358732 2.1428838e-39 314 237
-0.0059613334 0.68000001 0.0035767998 2.2350809e-39 315 237
-0.0047690663 0.68000001 0.0035767998 2.7868029e-39 316 237
-0.0035767998 0.68000001 0.0035767998 2.7868029e-39 317 237
-0.0023845332 0.68000001 0.0035767998 4.3454812e-39 318 237
-0.0011922666 0.68000001 0.0035767998 4.2532856e-39 319 237
0 0.67900002 0.0035715401 4.9876038e-39 320 237
0.0011905134 0.67900002 0.0035715401 5.2645494e-39 321 237
0.0023810267 0.67900002 0.0035715401 5.1741502e-39 322 237
0.0035715401 0.67900002 0.0035715401 6.0035508e-39 323 237
0.0047690663 0.68000001 0.0035767998 8.0257212e-39 324 237
0.0059613334 0.68000001 0.0035767998 9.1324288e-39 325 237
0.0071535995 0.68000001 0.0035767998 1.1428295e-38 326 237
0.0083704125 0.68199998 0.00358732 1.1428295e-38 327 237
0.009566186 0.68199998 0.00358732 9.0344501e-39 328 237
0.010761959 0.68199998 0.00358732 5.4388191e-39 329 237
0.011975267 0.68300003 0.0035925799 1.4877502e-39 330 237
0.013172794 0.68300003 0.0035925799 7.5018513e-40 331 237
0.014370319 0.68300003 0.0035925799 1.3019492e-39 332 237
0.01559064 0.68400002 0.00359784 1.855123e-39 333 237
0.016839013 0.68599999 0.00360836 1.6721737e-39 334 237
0.018068098 0.68699998 0.0036136196 2.4100974e-39 335 237
0.019272638 0.68699998 0.0036136196 4.8010419e-39 336 237
0.020506985 0.68800002 0.0036188802 6.3687264e-39 337 237
0.021807959 0.69099998 0.0036346598 8.7585876e-39 338 237
0.02308614 0.69300002 0.0036451798 9.1273702e-39 339 237
0.024336265 0.69400001 0.0036504399 1.0230825e-38 340 237
0.025553079 0.69400001 0.0036504399 1.0876195e-38 341 237
0.026769891 0.69400001 0.0036504399 1.0413422e-38 342 237
0.028067358 0.69599998 0.0036609597 7.4628013e-39 343 237
0.029287677 0.69599998 0.0036609597 7.0987076e-39 344 237
-0.031910665 0.69999999 0.0024546667 8.392696e-39 294 238
-0.030551834 0.69700003 0.0024441467 7.4707383e-39 295 238
-0.02932976 0.69700003 0.0024441467 7.8359223e-39 296 238
-0.027986705 0.69400001 0.0024336267 1.0325204e-38 297 238
-0.02673132 0.69300002 0.00243012 1.1800337e-38 298 238
-0.025405798 0.69 0.0024195998 1.0233011e-38 299 238
-0.024125867 0.68800002 0.0024125867 8.2108215e-39 300 238
-0.022919573 0.68800002 0.0024125867 1.0423518e-38 301 238
-0.021713281 0.68800002 0.0024125867 1.1247882e-38 302 238
-0.020506985 0.68800002 0.0024125867 9.3117754e-39 303 238
-0.019272638 0.68699998 0.0024090798 8.9437146e-39 304 238
-0.018068098 0.68699998 0.0024090798 9.6816384e-39 305 238
-0.016839013 0.68599999 0.0024055731 7.8409894e-39 306 238
-0.01559064 0.68400002 0.0023985601 6.4580549e-39 307 238
-0.014370319 0.68300003 0.0023950534 3.5225729e-39 308 238
-0.013172794 0.68300003 0.0023950534 3.1537903e-39 309 238
-0.011975267 0.68300003 0.0023950534 2.5105887e-39 310 238
-0.010761959 0.68199998 0.0023915465 2.4183931e-39 311 238
-0.009566186 0.68199998 0.0023915465 2.1428838e-39 312 238
-0.0083704125 0.68199998 0.0023915465 2.1428838e-39 313 238
-0.00717464 0.68199998 0.0023915465 2.2350781e-39 314 238
-0.005978866 0.68199998 0.0023915465 2.2350781e-39 315 238
-0.004783093 0.68199998 0.0023915465 2.7864372e-39 316 238
-0.00358732 0.68199998 0.0023915465 2.7864372e-39 317 238
-0.0023845332 0.68000001 0.0023845332 4.2536387e-39 318 238
-0.0011922666 0.68000001 0.0023845332 4.3458343e-39 319 238
0 0.68000001 0.0023845332 4.6216981e-39 320 238
0.0011922666 0.68000001 0.0023845332 5.0823176e-39 321 238
0.0023845332 0.68000001 0.0023845332 5.7276758e-39 322 238
0.0035767998 0.68000001 0.0023845332 6.9258602e-39 323 238
0.004783093 0.68199998 0.0023915465 1.0326636e-38 324 238
0.005978866 0.68199998 0.0023915465 1.0695419e-38 325 238
0.00717464 0.68199998 0.0023915465 1.1521211e-38 326 238
0.0083704125 0.68199998 0.0023915465 1.0322668e-38 327 238
0.0095802136 0.68300003 0.0023950534 6.9179162e-39 328 238
0.01077774 0.68300003 0.0023950534 2.1237421e-39 329 238
0.011975267 0.68300003 0.0023950534 1.2262763e-41 330 238
0.013172794 0.68300003 0.0023950534 9.3529806e-40 331 238
0.01439136 0.68400002 0.0023985601 2.3128585e-39 332 238
0.015636226 0.68599999 0.0024055731 2.8660309e-39 333 238
0.016839013 0.68599999 0.0024055731 4.5215908e-39 334 238
0.018068098 0.68699998 0.0024090798 5.4435457e-39 335 238
0.019300694 0.68800002 0.0024125867 6.4576752e-39 336 238
0.020566599 0.69 0.0024195998 7.748414e-39 337 238
0.021807959 0.69099998 0.0024231065 9.772371e-39 338 238
0.02308614 0.69300002 0.00243012 1.0232989e-38 339 238
0.024336265 0.69400001 0.0024336267 1.0876911e-38 340 238
0.025553079 0.69400001 0.0024336267 1.1246052e-38 341 238
0.026769891 0.69400001 0.0024336267 9.5872693e-39 342 238
0.028067358 0.69599998 0.0024406398 6.3604237e-39 343 238
0.029287677 0.69599998 0.0024406398 7.2831044e-39 344 238
-0.031910665 0.69999999 0.0012273333 3.3269768e-39 294 239
-0.030595668 0.69800001 0.0012238267 3.1422268e-39 295 239
-0.02932976 0.69700003 0.0012220733 4.5208453e-39 296 239
-0.028067358 0.69599998 0.0012203199 8.0246394e-39 297 239
-0.02673132 0.69300002 0.00121506 1.1432997e-38 298 239
-0.025442619 0.69099998 0.0012115532 1.1340801e-38 299 239
-0.024195999 0.69 0.0012097999 1.1705977e-38 300 239
-0.022919573 0.68800002 0.0012062934 1.1613422e-38 301 239
-0.021713281 0.68800002 0.0012062934 1.0787261e-38 302 239
-0.020506985 0.68800002 0.0012062934 1.0879457e-38 303 239
-0.019300694 0.68800002 0.0012062934 1.1249682e-38 304 239
-0.018068098 0.68699998 0.0012045399 1.0973093e-38 305 239
-0.01686356 0.68699998 0.0012045399 9.6816496e-39 306 239
-0.015636226 0.68599999 0.0012027866 8.2068782e-39 307 239
-0.01439136 0.68400002 0.00119928 4.4409166e-39 308 239
-0.013172794 0.68300003 0.0011975267 3.9799385e-39 309 239
-0.011975267 0.68300003 0.0011975267 2.1446803e-39 310 239
-0.01077774 0.68300003 0.0011975267 1.960289e-39 311 239
-0.0095802136 0.68300003 0.0011975267 1.9592156e-39 312 239
-0.0083704125 0.68199998 0.0011957732 1.9592156e-39 313 239
-0.00717464 0.68199998 0.0011957732 2.2350781e-39 314 239
-0.005978866 0.68199998 0.0011957732 2.2350781e-39 315 239
-0.004783093 0.68199998 0.0011957732 2.9693963e-39 316 239
-0.00358732 0.68199998 0.0011957732 3.0619506e-39 317 239
-0.0023915465 0.68199998 0.0011957732 3.6104357e-39 318 239
-0.0011922666 0.68000001 0.0011922666 3.7026313e-39 319 239
0 0.68000001 0.0011922666 3.7959003e-39 320 239
0.0011922666 0.68000001 0.0011922666 4.5334654e-39 321 239
0.0023915465 0.68199998 0.0011957732 7.5672667e-39 322 239
0.00358732 0.68199998 0.0011957732 8.7658099e-39 323 239
0.004783093 0.68199998 0.0011957732 1.1430463e-38 324 239
0.005978866 0.68199998 0.0011957732 1.1430463e-38 325 239
0.00717464 0.68199998 0.0011957732 1.1521577e-38 326 239
0.0083826864 0.68300003 0.0011975267 8.5716754e-39 327 239
0.0095802136 0.68300003 0.0011975267 4.0692054e-39 328 239
0.01077774 0.68300003 0.0011975267 2.5940753e-39 329 239
0.011975267 0.68300003 0.0011975267 4.8010279e-39 330 239
0.01319208 0.68400002 0.00119928 6.0917667e-39 331 239
0.01439136 0.68400002 0.00119928 7.562585e-39 332 239
0.015636226 0.68599999 0.0012027866 8.023203e-39 333 239
0.01686356 0.68699998 0.0012045399 9.5876421e-39 334 239
0.018068098 0.68699998 0.0012045399 9.1266639e-39 335 239
0.019300694 0.68800002 0.0012062934 8.7539157e-39 336 239
0.020566599 0.69 0.0012097999 9.9524589e-39 337 239
0.021807959 0.69099998 0.0012115532 1.0418456e-38 338 239
0.02308614 0.69300002 0.00121506 1.0695402e-38 339 239
0.024336265 0.69400001 0.0012168133 1.1337169e-38 340 239
0.025626717 0.69599998 0.0012203199 1.0691799e-38 341 239
0.026847038 0.69599998 0.0012203199 7.7415588e-39 342 239
0.028107686 0.69700003 0.0012220733 4.8834943e-39 343 239
0.02932976 0.69700003 0.0012220733 6.3643893e-39 344 239
-0.033137999 0.69999999 -0 1.0051494e-38 293 240
-0.031910665 0.69999999 -0 4.6130437e-39 294 240
-0.030595668 0.69800001 -0 4.0598713e-39 295 240
-0.02932976 0.69700003 -0 4.0620377e-39 296 240
-0.028067358 0.69599998 -0 6.4591241e-39 297 240
-0.026769891 0.69400001 -0 1.0695432e-38 298 240
-0.025442619 0.69099998 -0 1.1617388e-38 299 240
-0.024195999 0.69 -0 1.1341154e-38 300 240
-0.022919573 0.68800002 -0 8.5756453e-39 301 240
-0.021713281 0.68800002 -0 7.4765004e-39 302 240
-0.020506985 0.68800002 -0 9.9657824e-39 303 240
-0.019300694 0.68800002 -0 1.1802843e-38 304 240
-0.018068098 0.68699998 -0 1.14337e-38 305 240
-0.01686356 0.68699998 -0 1.1248589e-38 306 240
-0.015636226 0.68599999 -0 1.0511023e-38 307 240
-0.01439136 0.68400002 -0 8.1193657e-39 308 240
-0.013172794 0.68300003 -0 6.8286269e-39 309 240
-0.011975267 0.68300003 -0 3.8895435e-39 310 240
-0.01077774 0.68300003 -0 3.7051523e-39 311 240
-0.0095802136 0.68300003 -0 3.0623164e-39 312 240
-0.0083704125 0.68199998 -0 2.6935353e-39 313 240
-0.00717464 0.68199998 -0 2.7860896e-39 314 240
-0.005978866 0.68199998 -0 2.7860896e-39 315 240
-0.004783093 0.68199998 -0 3.4289353e-39 316 240
-0.00358732 0.68199998 -0 3.8899135e-39 317 240
-0.0023915465 0.68199998 -0 5.5411531e-39 318 240
-0.0011957732 0.68199998 -0 6.0021313e-39 319 240
0 0.68199998 -0 7.0137454e-39 320 240
0.0011957732 0.68199998 -0 7.4743649e-39 321 240
0.0023915465 0.68199998 -0 9.4979674e-39 322 240
0.0035925799 0.68300003 -0 1.0143337e-38 323 240
0.0047901068 0.68300003 -0 1.0419907e-38 324 240
0.0059876335 0.68300003 -0 1.0327352e-38 325 240
0.0071851597 0.68300003 -0 1.1059157e-38 326 240
0.0083826864 0.68300003 -0 9.9528092e-39 327 240
0.0095802136 0.68300003 -0 8.0217387e-39 328 240
0.01077774 0.68300003 -0 8.1139357e-39 329 240
0.011975267 0.68300003 -0 7.8366412e-39 330 240
0.01319208 0.68400002 -0 8.2979794e-39 331 240
0.01443344 0.68599999 -0 8.0231904e-39 332 240
0.015636226 0.68599999 -0 8.6685598e-39 333 240
0.01686356 0.68699998 -0 1.0692898e-38 334 240
0.018068098 0.68699998 -0 1.0047529e-38 335 240
0.019300694 0.68800002 -0 8.3847604e-39 336 240
0.020566599 0.69 -0 9.5833036e-39 337 240
0.021807959 0.69099998 -0 1.1150984e-38 338 240
0.023119451 0.69400001 -0 1.1150984e-38 339 240
0.0244064 0.69599998 -0 1.0782573e-38 340 240
0.025663542 0.69700003 -0 8.6620732e-39 341 240
0.026885614 0.69700003 -0 6.359723e-39 342 240
0.028148014 0.69800001 -0 4.1470265e-39 343 240
0.029371841 0.69800001 -0 6.9132457e-39 344 240
-0.033137999 0.69999999 -0.0012273333 1.0787615e-38 293 241
-0.031910665 0.69999999 -0.0012273333 6.915045e-39 294 241
-0.030595668 0.69800001 -0.0012238267 5.9005329e-39 295 241
-0.029371841 0.69800001 -0.0012238267 4.7055953e-39 296 241
-0.028107686 0.69700003 -0.0012220733 5.9963341e-39 297 241
-0.026769891 0.69400001 -0.0012168133 9.1288289e-39 298 241
-0.02551626 0.69300002 -0.00121506 1.1249687e-38 299 241
-0.024231065 0.69099998 -0.0012115532 1.1614877e-38 300 241
-0.022986198 0.69 -0.0012097999 7.4657132e-39 301 241
-0.021776399 0.69 -0.0012097999 5.546876e-39 302 241
-0.020506985 0.68800002 -0.0012062934 8.6815274e-39 303 241
-0.019300694 0.68800002 -0.0012062934 1.1893608e-38 304 241
-0.018068098 0.68699998 -0.0012045399 1.1801053e-38 305 241
-0.01686356 0.68699998 -0.0012045399 1.1893239e-38 306 241
-0.015636226 0.68599999 -0.0012027866 1.1708489e-38 307 241
-0.01439136 0.68400002 -0.00119928 1.0787983e-38 308 241
-0.013172794 0.68300003 -0.0011975267 9.2206588e-39 309 241
-0.011975267 0.68300003 -0.0011975267 5.8195197e-39 310 241
-0.01077774 0.68300003 -0.0011975267 5.1741502e-39 311 241
-0.0095802136 0.68300003 -0.0011975267 3.0626695e-39 312 241
-0.0083826864 0.68300003 -0.0011975267 2.6938884e-39 313 241
-0.0071851597 0.68300003 -0.0011975267 2.8772035e-39 314 241
-0.005978866 0.68199998 -0.0011957732 2.9693991e-39 315 241
-0.004783093 0.68199998 -0.0011957732 5.0866392e-39 316 241
-0.0035925799 0.68300003 -0.0011975267 6.5617692e-39 317 241
-0.0023915465 0.68199998 -0.0011957732 9.3157411e-39 318 241
-0.0011957732 0.68199998 -0.0011957732 9.5926867e-39 319 241
0 0.68199998 -0.0011957732 1.0419554e-38 320 241
0.0011957732 0.68199998 -0.0011957732 1.0511751e-38 321 241
0.0023950534 0.68300003 -0.0011975267 1.0693614e-38 322 241
0.0035925799 0.68300003 -0.0011975267 1.0325192e-38 323 241
0.0047901068 0.68300003 -0.0011975267 1.0231194e-38 324 241
0.0059876335 0.68300003 -0.0011975267 9.7702158e-39 325 241
0.0071851597 0.68300003 -0.0011975267 1.0046082e-38 326 241
0.0083826864 0.68300003 -0.0011975267 1.1244267e-38 327 241
0.0095802136 0.68300003 -0.0011975267 1.14265e-38 328 241
0.01079352 0.68400002 -0.00119928 1.0227957e-38 329 241
0.0119928 0.68400002 -0.00119928 7.648294e-39 330 241
0.01319208 0.68400002 -0.00119928 5.8043814e-39 331 241
0.01443344 0.68599999 -0.0012027866 3.8754787e-39 332 241
0.015636226 0.68599999 -0.0012027866 6.4569563e-39 333 241
0.01686356 0.68699998 -0.0012045399 9.9571448e-39 334 241
0.018068098 0.68699998 -0.0012045399 9.8649478e-39 335 241
0.019300694 0.68800002 -0.0012062934 8.3876499e-39 336 241
0.020566599 0.69 -0.0012097999 9.217412e-39 337 241
0.021807959 0.69099998 -0.0012115532 9.8595472e-39 338 241
0.023119451 0.69400001 -0.0012168133 8.5688084e-39 339 241
0.0244064 0.69599998 -0.0012203199 7.1876844e-39 340 241
0.025663542 0.69700003 -0.0012220733 6.4501194e-39 341 241
0.026885614 0.69700003 -0.0012220733 5.0718737e-39 342 241
0.028148014 0.69800001 -0.0012238267 4.1499174e-39 343 241
0.02932976 0.69700003 -0.0012220733 7.0061644e-39 344 241
0.030551834 0.69700003 -0.0012220733 1.0601794e-38 345 241
-0.031956252 0.70099998 -0.0024581731 8.0206723e-39 294 242
-0.030683333 0.69999999 -0.0024546667 6.2685966e-39 295 242
-0.029371841 0.69800001 -0.0024476533 4.6090808e-39 296 242
-0.028107686 0.69700003 -0.0024441467 5.8998197e-39 297 242
-0.026847038 0.69599998 -0.0024406398 7.1945214e-39 298 242
-0.025553079 0.69400001 -0.0024336267 7.5633039e-39 299 242
-0.024231065 0.69099998 -0.0024231065 8.8522504e-39 300 242
-0.023019511 0.69099998 -0.0024231065 7.7455441e-39 301 242
-0.021776399 0.69 -0.0024195998 7.1080907e-39 302 242
-0.020506985 0.68800002 -0.0024125867 8.9520033e-39 303 242
-0.019300694 0.68800002 -0.0024125867 1.1157489e-38 304 242
-0.018068098 0.68699998 -0.0024090798 1.1157489e-38 305 242
-0.01686356 0.68699998 -0.0024090798 1.1433703e-38 306 242
-0.015659019 0.68699998 -0.0024090798 1.1433703e-38 307 242
-0.014454478 0.68699998 -0.0024090798 1.1616293e-38 308 242
-0.01319208 0.68400002 -0.0023985601 1.124787e-38 309 242
-0.0119928 0.68400002 -0.0023985601 1.0143693e-38 310 242
-0.01077774 0.68300003 -0.0023950534 9.4061277e-39 311 242
-0.0095802136 0.68300003 -0.0023950534 8.0271687e-39 312 242
-0.0083826864 0.68300003 -0.0023950534 8.0271687e-39 313 242
-0.0071851597 0.68300003 -0.0023950534 7.8427802e-39 314 242
-0.0059876335 0.68300003 -0.0023950534 8.0271715e-39 315 242
-0.0047901068 0.68300003 -0.0023950534 8.9480362e-39 316 242
-0.0035925799 0.68300003 -0.0023950534 9.9618294e-39 317 242
-0.0023950534 0.68300003 -0.0023950534 1.1156037e-38 318 242
-0.0011975267 0.68300003 -0.0023950534 1.1248233e-38 319 242
0 0.68300003 -0.0023950534 1.0144391e-38 320 242
0.0011975267 0.68300003 -0.0023950534 8.7614561e-39 321 242
0.0023950534 0.68300003 -0.0023950534 5.5360538e-39 322 242
0.0035925799 0.68300003 -0.0023950534 5.1672713e-39 323 242
0.0047901068 0.68300003 -0.0023950534 5.6268243e-39 324 242
0.0059876335 0.68300003 -0.0023950534 6.087801e-39 325 242
0.0071956799 0.68400002 -0.0023985601 7.6562002e-39 326 242
0.0083949603 0.68400002 -0.0023985601 9.869254e-39 327 242
0.0095942402 0.68400002 -0.0023985601 1.1611613e-38 328 242
0.01079352 0.68400002 -0.0023985601 9.7677019e-39 329 242
0.0119928 0.68400002 -0.0023985601 5.7161515e-39 330 242
0.01319208 0.68400002 -0.0023985601 2.7658913e-39 331 242
0.01443344 0.68599999 -0.0024055731 2.4936372e-39 332 242
0.015659019 0.68699998 -0.0024090798 5.0751149e-39 333 242
0.01686356 0.68699998 -0.0024090798 9.4940171e-39 334 242
0.018068098 0.68699998 -0.0024090798 9.3096258e-39 335 242
0.019300694 0.68800002 -0.0024125867 7.4660692e-39 336 242
0.020596405 0.69099998 -0.0024231065 7.0972881e-39 337 242
0.021871079 0.69300002 -0.00243012 6.6384777e-39 338 242
0.023119451 0.69400001 -0.0024336267 6.2696938e-39 339 242
0.0244064 0.69599998 -0.0024406398 5.6239741e-39 340 242
0.025663542 0.69700003 -0.0024441467 5.8083667e-39 341 242
0.026924185 0.69800001 -0.0024476533 5.7158138e-39 342 242
0.028148014 0.69800001 -0.0024476533 5.0704444e-39 343 242
0.02932976 0.69700003 -0.0024441467 6.7321013e-39 344 242
0.030551834 0.69700003 -0.0024441467 1.0327372e-38 345 242
-0.034561705 0.704 -0.0037030398 1.3736077e-38 292 243
-0.033280019 0.70300001 -0.0036977797 1.1707773e-38 293 243
-0.032047424 0.70300001 -0.0036977797 9.0344683e-39 294 243
-0.030727165 0.70099998 -0.0036872597 7.1905557e-39 295 243
-0.029455997 0.69999999 -0.0036819996 4.7913239e-39 296 243
-0.028148014 0.69800001 -0.0036714801 6.1742584e-39 297 243
-0.026885614 0.69700003 -0.00366622 6.180745e-39 298 243
-0.025626717 0.69599998 -0.0036609597 4.1524411e-39 299 243
-0.024301201 0.69300002 -0.0036451798 4.0616874e-39 300 243
-0.023019511 0.69099998 -0.0036346598 5.3524262e-39 301 243
-0.021807959 0.69099998 -0.0036346598 6.0903444e-39 302 243
-0.020566599 0.69 -0.0036293997 7.196692e-39 303 243
-0.019356798 0.69 -0.0036293997 8.3948666e-39 304 243
-0.0180944 0.68800002 -0.0036188802 9.1324316e-39 305 243
-0.016888106 0.68800002 -0.0036188802 1.0236609e-38 306 243
-0.015659019 0.68699998 -0.0036136196 1.1066369e-38 307 243
-0.014454478 0.68699998 -0.0036136196 1.1893239e-38 308 243
-0.013230653 0.68599999 -0.00360836 1.1708489e-38 309 243
-0.012027865 0.68599999 -0.00360836 1.1983634e-38 310 243
-0.01079352 0.68400002 -0.00359784 1.1799243e-38 311 243
-0.0095942402 0.68400002 -0.00359784 1.115639e-38 312 243
-0.0083826864 0.68300003 -0.0035925799 1.1248586e-38 313 243
-0.0071851597 0.68300003 -0.0035925799 1.0880882e-38 314 243
-0.0059876335 0.68300003 -0.0035925799 1.0880882e-38 315 243
-0.0047901068 0.68300003 -0.0035925799 1.1340418e-38 316 243
-0.0035925799 0.68300003 -0.0035925799 1.1340418e-38 317 243
-0.0023950534 0.68300003 -0.0035925799 1.1707396e-38 318 243
-0.0011975267 0.68300003 -0.0035925799 1.1523365e-38 319 243
0 0.68300003 -0.0035925799 1.0143665e-38 320 243
0.0011975267 0.68300003 -0.0035925799 7.562187e-39 321 243
0.0023950534 0.68300003 -0.0035925799 2.9517049e-39 322 243
0.0035925799 0.68300003 -0.0035925799 1.7531617e-39 323 243
0.0047901068 0.68300003 -0.0035925799 1.8489741e-39 324 243
0.0059964 0.68400002 -0.00359784 4.3382547e-39 325 243
0.0071956799 0.68400002 -0.00359784 7.4729005e-39 326 243
0.0084195063 0.68599999 -0.00360836 9.4090087e-39 327 243
0.0096222926 0.68599999 -0.00360836 1.0967334e-38 328 243
0.010825079 0.68599999 -0.00360836 9.0315844e-39 329 243
0.012027865 0.68599999 -0.00360836 4.5208509e-39 330 243
0.013230653 0.68599999 -0.00360836 2.0315689e-39 331 243
0.014454478 0.68699998 -0.0036136196 3.0468124e-39 332 243
0.015659019 0.68699998 -0.0036136196 4.9829206e-39 333 243
0.016888106 0.68800002 -0.0036188802 7.6497556e-39 334 243
0.0180944 0.68800002 -0.0036188802 7.0969405e-39 335 243
0.019356798 0.69 -0.0036293997 5.0715205e-39 336 243
0.020656019 0.69300002 -0.0036451798 4.702738e-39 337 243
0.021871079 0.69300002 -0.0036451798 4.5215964e-39 338 243
0.023186078 0.69599998 -0.0036609597 4.7978231e-39 339 243
0.024441468 0.69700003 -0.00366622 5.3484732e-39 340 243
0.025663542 0.69700003 -0.00366622 5.5332246e-39 341 243
0.026924185 0.69800001 -0.0036714801 5.8094331e-39 342 243
0.028148014 0.69800001 -0.0036714801 4.8878355e-39 343 243
0.029371841 0.69800001 -0.0036714801 7.5582494e-39 344 243
0.030683333 0.69999999 -0.0036819996 1.1337911e-38 345 243
-0.035796054 0.704 -0.0049373866 1.5948755e-38 291 244
-0.034561705 0.704 -0.0049373866 1.4840978e-38 292 244
-0.033280019 0.70300001 -0.0049303733 1.2351696e-38 293 244
-0.032047424 0.70300001 -0.0049303733 9.0344655e-39 294 244
-0.030727165 0.70099998 -0.0049163462 7.2831072e-39 295 244
-0.029455997 0.69999999 -0.0049093333 4.7931204e-39 296 244
-0.028148014 0.69800001 -0.0048953067 6.4526403e-39 297 244
-0.026885614 0.69700003 -0.0048882933 7.1012565e-39 298 244
-0.025626717 0.69599998 -0.0048812795 4.8882027e-39 299 244
-0.024336265 0.69400001 -0.0048672534 2.678753e-39 300 244
-0.02308614 0.69300002 -0.00486024 2.0333836e-39 301 244
-0.021871079 0.69300002 -0.00486024 2.1241499e-39 302 244
-0.020596405 0.69099998 -0.0048462129 3.1383032e-39 303 244
-0.019356798 0.69 -0.0048391996 1.6753995e-39 304 244
-0.018146999 0.69 -0.0048391996 2.0441834e-39 305 244
-0.016888106 0.68800002 -0.0048251734 5.5425628e-39 306 244
-0.015659019 0.68699998 -0.0048181596 8.8616055e-39 307 244
-0.014454478 0.68699998 -0.0048181596 1.1525901e-38 308 244
-0.013230653 0.68599999 -0.0048111463 1.1433347e-38 309 244
-0.012027865 0.68599999 -0.0048111463 1.161593e-38 310 244
-0.010825079 0.68599999 -0.0048111463 1.161593e-38 311 244
-0.0095942402 0.68400002 -0.0047971201 1.1340418e-38 312 244
-0.0083949603 0.68400002 -0.0047971201 1.1340418e-38 313 244
-0.0071956799 0.68400002 -0.0047971201 1.1248942e-38 314 244
-0.0059964 0.68400002 -0.0047971201 1.1248942e-38 315 244
-0.0047971201 0.68400002 -0.0047971201 1.1340416e-38 316 244
-0.00359784 0.68400002 -0.0047971201 1.124822e-38 317 244
-0.0023985601 0.68400002 -0.0047971201 1.1523365e-38 318 244
-0.0011975267 0.68300003 -0.0047901068 1.1431169e-38 319 244
0 0.68300003 -0.0047901068 1.1430085e-38 320 244
0.0011975267 0.68300003 -0.0047901068 1.0324096e-38 321 244
0.0023950534 0.68300003 -0.0047901068 8.8428715e-39 322 244
0.0035925799 0.68300003 -0.0047901068 5.6160245e-39 323 244
0.0047901068 0.68300003 -0.0047901068 4.1481069e-39 324 244
0.0059964 0.68400002 -0.0047971201 7.835572e-39 325 244
0.0071956799 0.68400002 -0.0047971201 8.6646068e-39 326 244
0.0084195063 0.68599999 -0.0048111463 7.0976412e-39 327 244
0.0096222926 0.68599999 -0.0048111463 6.7302978e-39 328 244
0.010825079 0.68599999 -0.0048111463 6.5459051e-39 329 244
0.012027865 0.68599999 -0.0048111463 4.2435521e-39 330 244
0.013230653 0.68599999 -0.0048111463 2.7687822e-39 331 244
0.014454478 0.68699998 -0.0048181596 3.6893092e-39 332 244
0.015659019 0.68699998 -0.0048181596 4.5194286e-39 333 244
0.016888106 0.68800002 -0.0048251734 5.9005624e-39 334 244
0.018146999 0.69 -0.0048391996 6.1767891e-39 335 244
0.019384852 0.69099998 -0.0048462129 4.1528069e-39 336 244
0.020656019 0.69300002 -0.00486024 4.2450025e-39 337 244
0.021871079 0.69300002 -0.00486024 4.9822144e-39 338 244
0.023186078 0.69599998 -0.0048812795 4.9822144e-39 339 244
0.024441468 0.69700003 -0.0048882933 5.4410247e-39 340 244
0.025700359 0.69800001 -0.0048953067 5.8101674e-39 341 244
0.027001332 0.69999999 -0.0049093333 6.7299475e-39 342 244
0.028228667 0.69999999 -0.0049093333 5.992381e-39 343 244
0.029455997 0.69999999 -0.0049093333 9.2156099e-39 344 244
-0.035796054 0.704 -0.0061717331 1.6682717e-38 291 245
-0.034561705 0.704 -0.0061717331 1.5023925e-38 292 245
-0.03332736 0.704 -0.0061717331 1.2995262e-38 293 245
-0.032093015 0.704 -0.0061717331 8.6663948e-39 294 245
-0.030858666 0.704 -0.0061717331 7.0987104e-39 295 245
-0.029498078 0.70099998 -0.0061454331 5.7150725e-39 296 245
-0.028148014 0.69800001 -0.006119133 6.4526375e-39 297 245
-0.026885614 0.69700003 -0.0061103669 6.7346194e-39 298 245
-0.025663542 0.69700003 -0.0061103669 4.8907068e-39 299 245
-0.0244064 0.69599998 -0.0061015999 2.5843867e-39 300 245
-0.02308614 0.69300002 -0.0060753003 1.6624304e-39 301 245
-0.021871079 0.69300002 -0.0060753003 1.0181582e-39 302 245
-0.020656019 0.69300002 -0.0060753003 1.2025509e-39 303 245
-0.019384852 0.69099998 -0.0060577663 1.7604064e-39 304 245
-0.018146999 0.69 -0.0060489997 1.0228414e-39 305 245
-0.016888106 0.68800002 -0.0060314666 3.4235081e-39 306 245
-0.015681813 0.68800002 -0.0060314666 7.6641469e-39 307 245
-0.014454478 0.68699998 -0.0060226996 1.1617022e-38 308 245
-0.013249939 0.68699998 -0.0060226996 1.1617022e-38 309 245
-0.012045399 0.68699998 -0.0060226996 1.1616649e-38 310 245
-0.010825079 0.68599999 -0.0060139326 1.1524454e-38 311 245
-0.0096222926 0.68599999 -0.0060139326 1.1524451e-38 312 245
-0.0083949603 0.68400002 -0.0059964 1.1524451e-38 313 245
-0.0071956799 0.68400002 -0.0059964 1.1524451e-38 314 245
-0.0059964 0.68400002 -0.0059964 1.1340418e-38 315 245
-0.0047971201 0.68400002 -0.0059964 1.1707043e-38 316 245
-0.00359784 0.68400002 -0.0059964 1.1707043e-38 317 245
-0.0023985601 0.68400002 -0.0059964 1.1431888e-38 318 245
-0.00119928 0.68400002 -0.0059964 1.1339334e-38 319 245
0 0.68400002 -0.0059964 1.1706677e-38 320 245
