# .PCD v.7 - Point Cloud Data file format
FIELDS x y z rgb imX imY
SIZE 4 4 4 4 4 4
TYPE F F F F F F
COUNT 1 1 1 1 1 1
WIDTH 845
HEIGHT 1
VIEWPOINT 0 0 0 1 0 0 0
POINTS 845
DATA ascii
-0.028579334 0.65200001 0.080022126 1.1215839e-38 295 170
-0.02743616 0.65200001 0.080022126 1.1215842e-38 296 170
-0.026292987 0.65200001 0.080022126 1.1123645e-38 297 170
-0.025072664 0.64999998 0.079776667 1.1031463e-38 298 170
-0.023932999 0.64999998 0.079776667 1.0755235e-38 299 170
-0.022793332 0.64999998 0.079776667 1.112221e-38 300 170
-0.021653665 0.64999998 0.079776667 1.1399157e-38 301 170
-0.020513998 0.64999998 0.079776667 1.1401668e-38 302 170
-0.019374331 0.64999998 0.079776667 1.1862646e-38 303 170
-0.018206613 0.64899999 0.079653934 1.1771532e-38 304 170
-0.017068699 0.64899999 0.079653934 1.2232151e-38 305 170
-0.015930785 0.64899999 0.079653934 1.2419773e-38 306 170
-0.014792874 0.64899999 0.079653934 1.2604164e-38 307 170
-0.013654959 0.64899999 0.079653934 1.260488e-38 308 170
-0.01249776 0.648 0.0795312 1.2789631e-38 309 170
-0.0113616 0.648 0.0795312 1.3248802e-38 310 170
-0.010225439 0.648 0.0795312 1.3248802e-38 311 170
-0.0090892799 0.648 0.0795312 1.3250237e-38 312 170
-0.0079531204 0.648 0.0795312 1.3526464e-38 313 170
-0.0068169599 0.648 0.0795312 1.3435714e-38 314 170
-0.0056807999 0.648 0.0795312 1.3435714e-38 315 170
-0.0045516533 0.64899999 0.079653934 1.352791e-38 316 170
-0.0034137398 0.64899999 0.079653934 1.3435714e-38 317 170
-0.0022793331 0.64999998 0.079776667 1.32506e-38 318 170
-0.0011396665 0.64999998 0.079776667 1.2974373e-38 319 170
0 0.64899999 0.079653934 1.288145e-38 320 170
0.0011379133 0.64899999 0.079653934 1.2328276e-38 321 170
0.0022758266 0.64899999 0.079653934 1.232611e-38 322 170
0.0034137398 0.64899999 0.079653934 1.1680741e-38 323 170
0.0045516533 0.64899999 0.079653934 1.140021e-38 324 170
0.005698333 0.64999998 0.079776667 1.0754841e-38 325 170
0.0068379994 0.64999998 0.079776667 1.0476477e-38 326 170
0.0079776663 0.64999998 0.079776667 1.0107695e-38 327 170
0.0091453865 0.65200001 0.080022126 9.8300359e-39 328 170
0.010304339 0.653 0.08014486 9.6452859e-39 329 170
0.011466799 0.65399998 0.080267593 9.3697766e-39 330 170
0.012613479 0.65399998 0.080267593 9.3697766e-39 331 170
0.013760159 0.65399998 0.080267593 9.0020703e-39 332 170
0.014906839 0.65399998 0.080267593 9.0020703e-39 333 170
0.016078066 0.65499997 0.080390327 8.6358017e-39 334 170
0.017226499 0.65499997 0.080390327 8.6358017e-39 335 170
0.018459093 0.65799999 0.080758527 7.809285e-39 336 170
0.019642593 0.65899998 0.08088126 7.7170894e-39 337 170
0.02086116 0.66100001 0.081126735 7.1660792e-39 338 170
0.022020113 0.66100001 0.081126735 7.0738836e-39 339 170
0.0232492 0.66299999 0.081372194 6.3453037e-39 340 170
0.024558939 0.667 0.081863128 7.6360425e-39 341 170
-0.035710141 0.65700001 0.079483859 6.1551587e-39 289 171
-0.034558199 0.65700001 0.079483859 6.4310169e-39 290 171
-0.033304565 0.65499997 0.079241894 6.7079625e-39 291 171
-0.03210704 0.65399998 0.079120919 8.0847929e-39 292 171
-0.030960357 0.65399998 0.079120919 8.3617385e-39 293 171
-0.029768093 0.653 0.078999937 9.3722975e-39 294 171
-0.028579334 0.65200001 0.078878954 9.8329169e-39 295 171
-0.02743616 0.65200001 0.078878954 1.0475405e-38 296 171
-0.026212333 0.64999998 0.078636996 1.0659436e-38 297 171
-0.025072664 0.64999998 0.078636996 1.0659083e-38 298 171
-0.023932999 0.64999998 0.078636996 1.0382857e-38 299 171
-0.022793332 0.64999998 0.078636996 1.0658715e-38 300 171
-0.021653665 0.64999998 0.078636996 1.0566519e-38 301 171
-0.020513998 0.64999998 0.078636996 1.0293162e-38 302 171
-0.019374331 0.64999998 0.078636996 1.0569389e-38 303 171
-0.018206613 0.64899999 0.078516014 1.0569392e-38 304 171
-0.017068699 0.64899999 0.078516014 1.0661587e-38 305 171
-0.015906241 0.648 0.078395039 1.0938895e-38 306 171
-0.014770079 0.648 0.078395039 1.1584264e-38 307 171
-0.01363392 0.648 0.078395039 1.140347e-38 308 171
-0.012478473 0.64700001 0.078274064 1.158822e-38 309 171
-0.011344067 0.64700001 0.078274064 1.1956997e-38 310 171
-0.01020966 0.64700001 0.078274064 1.2049192e-38 311 171
-0.0090752533 0.64700001 0.078274064 1.1866949e-38 312 171
-0.0079531204 0.648 0.078395039 1.1866949e-38 313 171
-0.0068169599 0.648 0.078395039 1.2050987e-38 314 171
-0.0056807999 0.648 0.078395039 1.2327574e-38 315 171
-0.0045516533 0.64899999 0.078516014 1.2051709e-38 316 171
-0.0034137398 0.64899999 0.078516014 1.1775122e-38 317 171
-0.0022758266 0.64899999 0.078516014 1.1771882e-38 318 171
-0.0011379133 0.64899999 0.078516014 1.1310904e-38 319 171
0 0.64899999 0.078516014 1.1124348e-38 320 171
0.0011379133 0.64899999 0.078516014 1.0755207e-38 321 171
0.0022758266 0.64899999 0.078516014 1.0387133e-38 322 171
0.0034137398 0.64899999 0.078516014 1.0110188e-38 323 171
0.0045516533 0.64899999 0.078516014 1.0291713e-38 324 171
0.005698333 0.64999998 0.078636996 1.0014768e-38 325 171
0.0068379994 0.64999998 0.078636996 9.7374843e-39 326 171
0.0079776663 0.64999998 0.078636996 9.3687004e-39 327 171
0.0091453865 0.65200001 0.078878954 9.0928338e-39 328 171
0.010304339 0.653 0.078999937 9.0928338e-39 329 171
0.011449266 0.653 0.078999937 8.7272784e-39 330 171
0.012594193 0.653 0.078999937 8.7272784e-39 331 171
0.013739119 0.653 0.078999937 8.4517677e-39 332 171
0.014906839 0.65399998 0.079120919 8.4517677e-39 333 171
0.01605352 0.65399998 0.079120919 7.9011121e-39 334 171
0.017226499 0.65499997 0.079241894 7.9011121e-39 335 171
0.01843104 0.65700001 0.079483859 7.4419304e-39 336 171
0.019612785 0.65799999 0.079604842 7.349376e-39 337 171
0.02076648 0.65799999 0.079604842 6.6154109e-39 338 171
0.021920172 0.65799999 0.079604842 6.7076066e-39 339 171
-0.034610797 0.65799999 0.078451142 6.3399002e-39 290 172
-0.033304565 0.65499997 0.078093462 6.5239314e-39 291 172
-0.03210704 0.65399998 0.077974238 7.2572056e-39 292 172
-0.030960357 0.65399998 0.077974238 7.5337925e-39 293 172
-0.029768093 0.653 0.077855013 8.3581806e-39 294 172
-0.028579334 0.65200001 0.077735789 8.5425719e-39 295 172
-0.02743616 0.65200001 0.077735789 9.0021025e-39 296 172
-0.026212333 0.64999998 0.077497326 9.1864937e-39 297 172
-0.025072664 0.64999998 0.077497326 9.4627107e-39 298 172
-0.023932999 0.64999998 0.077497326 9.2786796e-39 299 172
-0.022793332 0.64999998 0.077497326 9.4627079e-39 300 172
-0.021653665 0.64999998 0.077497326 9.2786768e-39 301 172
-0.02048244 0.64899999 0.077378102 9.3719416e-39 302 172
-0.019344525 0.64899999 0.077378102 9.4644959e-39 303 172
-0.018206613 0.64899999 0.077378102 9.5559629e-39 304 172
-0.0170424 0.648 0.077258877 9.4637673e-39 305 172
-0.015881693 0.64700001 0.077139653 9.8314708e-39 306 172
-0.014747286 0.64700001 0.077139653 1.0015863e-38 307 172
-0.01363392 0.648 0.077258877 1.0110579e-38 308 172
-0.012478473 0.64700001 0.077139653 1.0202776e-38 309 172
-0.011344067 0.64700001 0.077139653 1.0571188e-38 310 172
-0.01020966 0.64700001 0.077139653 1.1032165e-38 311 172
-0.0090752533 0.64700001 0.077139653 1.0942119e-38 312 172
-0.0079408465 0.64700001 0.077139653 1.0481141e-38 313 172
-0.0068064397 0.64700001 0.077139653 1.0572257e-38 314 172
-0.0056720334 0.64700001 0.077139653 1.0757007e-38 315 172
-0.00454464 0.648 0.077258877 1.020528e-38 316 172
-0.0034137398 0.64899999 0.077378102 1.0020889e-38 317 172
-0.0022758266 0.64899999 0.077378102 9.9265405e-39 318 172
-0.0011379133 0.64899999 0.077378102 9.4655623e-39 319 172
0 0.64899999 0.077378102 9.2797333e-39 320 172
0.0011379133 0.64899999 0.077378102 8.9105907e-39 321 172
0.0022758266 0.64899999 0.077378102 9.0953379e-39 322 172
0.0034137398 0.64899999 0.077378102 9.0953379e-39 323 172
0.0045516533 0.64899999 0.077378102 9.0031577e-39 324 172
0.005698333 0.64999998 0.077497326 8.7265722e-39 325 172
0.0068379994 0.64999998 0.077497326 8.6333046e-39 326 172
0.0080022132 0.65200001 0.077735789 8.5411089e-39 327 172
0.0091453865 0.65200001 0.077735789 7.9918812e-39 328 172
0.010304339 0.653 0.077855013 7.9918812e-39 329 172
0.011449266 0.653 0.077855013 7.533424e-39 330 172
0.012594193 0.653 0.077855013 7.441227e-39 331 172
0.013739119 0.653 0.077855013 7.441227e-39 332 172
0.014884046 0.653 0.077855013 7.441227e-39 333 172
0.01605352 0.65399998 0.077974238 7.0742367e-39 334 172
0.017226499 0.65499997 0.078093462 7.0742367e-39 335 172
0.01843104 0.65700001 0.078331918 6.6154109e-39 336 172
0.019612785 0.65799999 0.078451142 6.6154109e-39 337 172
0.02076648 0.65799999 0.078451142 6.3402688e-39 338 172
0.021920172 0.65799999 0.078451142 6.4324644e-39 339 172
-0.034610797 0.65799999 0.077297449 6.5232153e-39 290 173
-0.033304565 0.65499997 0.076945029 6.5232153e-39 291 173
-0.03210704 0.65399998 0.076827556 7.4394235e-39 292 173
-0.030960357 0.65399998 0.076827556 7.5316191e-39 293 173
-0.029768093 0.653 0.076710083 8.0815587e-39 294 173
-0.028579334 0.65200001 0.076592617 8.1737543e-39 295 173
-0.02743616 0.65200001 0.076592617 8.6325675e-39 296 173
-0.026212333 0.64999998 0.076357663 8.7244044e-39 297 173
-0.025072664 0.64999998 0.076357663 8.7251274e-39 298 173
-0.023932999 0.64999998 0.076357663 8.5407348e-39 299 173
-0.022793332 0.64999998 0.076357663 8.8169699e-39 300 173
-0.021620352 0.64899999 0.076240189 8.8169699e-39 301 173
-0.02048244 0.64899999 0.076240189 8.9095187e-39 302 173
-0.019344525 0.64899999 0.076240189 8.9095187e-39 303 173
-0.018206613 0.64899999 0.076240189 9.1846665e-39 304 173
-0.0170424 0.648 0.076122716 9.4608932e-39 305 173
-0.015881693 0.64700001 0.07600525 8.9102432e-39 306 173
-0.014747286 0.64700001 0.07600525 9.0946344e-39 307 173
-0.01363392 0.648 0.076122716 9.9200805e-39 308 173
-0.012478473 0.64700001 0.07600525 1.0012276e-38 309 173
-0.011344067 0.64700001 0.07600525 1.0195944e-38 310 173
-0.01019388 0.64600003 0.075887777 1.0380336e-38 311 173
-0.0090612266 0.64600003 0.075887777 9.9225972e-39 312 173
-0.0079408465 0.64700001 0.07600525 9.6460103e-39 313 173
-0.0068064397 0.64700001 0.07600525 9.4634141e-39 314 173
-0.0056720334 0.64700001 0.07600525 9.0946316e-39 315 173
-0.00454464 0.648 0.076122716 8.4528551e-39 316 173
-0.0034137398 0.64899999 0.076240189 8.6372478e-39 317 173
-0.0022758266 0.64899999 0.076240189 8.5450508e-39 318 173
-0.0011379133 0.64899999 0.076240189 8.4528551e-39 319 173
0 0.64899999 0.076240189 8.1762697e-39 320 173
0.0011379133 0.64899999 0.076240189 8.268824e-39 321 173
0.0022793331 0.64999998 0.076357663 8.817679e-39 322 173
0.0034189997 0.64999998 0.076357663 8.817679e-39 323 173
0.0045586661 0.64999998 0.076357663 8.4503356e-39 324 173
0.005698333 0.64999998 0.076357663 8.3581386e-39 325 173
0.0068590399 0.65200001 0.076592617 7.9900791e-39 326 173
0.0080022132 0.65200001 0.076592617 7.806048e-39 327 173
0.0091453865 0.65200001 0.076592617 7.5309002e-39 328 173
0.010304339 0.653 0.076710083 7.4387046e-39 329 173
0.011449266 0.653 0.076710083 7.5305443e-39 330 173
0.012594193 0.653 0.076710083 7.5305443e-39 331 173
0.013739119 0.653 0.076710083 7.3468705e-39 332 173
0.014884046 0.653 0.076710083 7.4387074e-39 333 173
0.01605352 0.65399998 0.076827556 6.7058115e-39 334 173
0.017226499 0.65499997 0.076945029 6.7980071e-39 335 173
0.018374931 0.65499997 0.076945029 6.5232181e-39 336 173
0.019732011 0.662 0.077767342 6.6154137e-39 337 173
0.020892721 0.662 0.077767342 6.4328175e-39 338 173
-0.034610797 0.65799999 0.076143757 6.7068835e-39 290 174
-0.033406258 0.65700001 0.076028034 6.7990791e-39 291 174
-0.03210704 0.65399998 0.075680874 6.7987288e-39 292 174
-0.030960357 0.65399998 0.075680874 6.7061744e-39 293 174
-0.029768093 0.653 0.075565159 6.9809691e-39 294 174
-0.028579334 0.65200001 0.075449437 6.9809691e-39 295 174
-0.02743616 0.65200001 0.075449437 7.3483097e-39 296 174
-0.026212333 0.64999998 0.075217992 7.4405053e-39 297 174
-0.025072664 0.64999998 0.075217992 7.7160132e-39 298 174
-0.023932999 0.64999998 0.075217992 7.7160132e-39 299 174
-0.022758266 0.64899999 0.075102277 7.8082158e-39 300 174
-0.021620352 0.64899999 0.075102277 7.9004114e-39 301 174
-0.02048244 0.64899999 0.075102277 7.6256224e-39 302 174
-0.019344525 0.64899999 0.075102277 7.9018492e-39 303 174
-0.018206613 0.64899999 0.075102277 7.901496e-39 304 174
-0.0170424 0.648 0.074986562 7.7174649e-39 305 174
-0.015881693 0.64700001 0.07487084 8.084095e-39 306 174
-0.014747286 0.64700001 0.07487084 8.2684863e-39 307 174
-0.01363392 0.648 0.074986562 8.2692052e-39 308 174
-0.012478473 0.64700001 0.07487084 8.3614022e-39 309 174
-0.011344067 0.64700001 0.07487084 8.2702856e-39 310 174
-0.01019388 0.64600003 0.074755117 8.3624812e-39 311 174
-0.0090612266 0.64600003 0.074755117 8.2702856e-39 312 174
-0.0079408465 0.64700001 0.07487084 8.1780899e-39 313 174
-0.0068064397 0.64700001 0.07487084 8.2688492e-39 314 174
-0.0056720334 0.64700001 0.07487084 8.0848181e-39 315 174
-0.00454464 0.648 0.074986562 7.9933414e-39 316 174
-0.00340848 0.648 0.074986562 7.9933414e-39 317 174
-0.0022758266 0.64899999 0.075102277 7.7178335e-39 318 174
-0.0011379133 0.64899999 0.075102277 7.7178335e-39 319 174
0 0.64899999 0.075102277 7.5337925e-39 320 174
0.0011379133 0.64899999 0.075102277 7.5337925e-39 321 174
0.0022793331 0.64999998 0.075217992 7.716739e-39 322 174
0.0034189997 0.64999998 0.075217992 7.6241833e-39 323 174
0.0045586661 0.64999998 0.075217992 7.4405081e-39 324 174
0.005698333 0.64999998 0.075217992 7.2557581e-39 325 174
0.0068590399 0.65200001 0.075449437 6.8887706e-39 326 174
0.0080022132 0.65200001 0.075449437 6.796575e-39 327 174
0.0091594132 0.653 0.075565159 6.6132627e-39 328 174
0.010304339 0.653 0.075565159 6.5210657e-39 329 174
0.011449266 0.653 0.075565159 6.5207126e-39 330 174
0.012594193 0.653 0.075565159 6.5207126e-39 331 174
0.013739119 0.653 0.075565159 6.4303162e-39 332 174
0.014906839 0.65399998 0.075680874 6.4303162e-39 333 174
0.016078066 0.65499997 0.075796597 6.2477172e-39 334 174
0.017226499 0.65499997 0.075796597 6.2477172e-39 335 174
0.018374931 0.65499997 0.075796597 6.0647581e-39 336 174
-0.035981905 0.662 0.075445928 6.9834704e-39 289 175
-0.034663398 0.65899998 0.075104028 6.6157669e-39 290 175
-0.033406258 0.65700001 0.0748761 6.5232125e-39 291 175
-0.03225432 0.65700001 0.0748761 6.7980043e-39 292 175
-0.031007698 0.65499997 0.074648157 6.7058087e-39 293 175
-0.029813679 0.65399998 0.074534193 6.889121e-39 294 175
-0.028623167 0.653 0.074420229 6.889121e-39 295 175
-0.02743616 0.65200001 0.074306265 7.1642659e-39 296 175
-0.026212333 0.64999998 0.074078329 7.2564615e-39 297 175
-0.025072664 0.64999998 0.074078329 7.2564615e-39 298 175
-0.023932999 0.64999998 0.074078329 7.3486572e-39 299 175
-0.022758266 0.64899999 0.073964357 7.4405025e-39 300 175
-0.021620352 0.64899999 0.073964357 7.4405025e-39 301 175
-0.02048244 0.64899999 0.073964357 7.2579119e-39 302 175
-0.019344525 0.64899999 0.073964357 7.4419444e-39 303 175
-0.018206613 0.64899999 0.073964357 7.4412242e-39 304 175
-0.017068699 0.64899999 0.073964357 7.4412242e-39 305 175
-0.015906241 0.648 0.073850393 7.6241833e-39 306 175
-0.014770079 0.648 0.073850393 7.8089347e-39 307 175
-0.01363392 0.648 0.073850393 7.9018492e-39 308 175
-0.012478473 0.64700001 0.073736429 8.0862404e-39 309 175
-0.011344067 0.64700001 0.073736429 7.9036456e-39 310 175
-0.01020966 0.64700001 0.073736429 7.9962e-39 311 175
-0.0090752533 0.64700001 0.073736429 7.7206893e-39 312 175
-0.0079408465 0.64700001 0.073736429 7.5359379e-39 313 175
-0.0068064397 0.64700001 0.073736429 7.5341429e-39 314 175
-0.0056720334 0.64700001 0.073736429 7.4419472e-39 315 175
-0.00454464 0.648 0.073850393 7.6241833e-39 316 175
-0.00340848 0.648 0.073850393 7.6241833e-39 317 175
-0.0022758266 0.64899999 0.073964357 7.440871e-39 318 175
-0.0011379133 0.64899999 0.073964357 7.440871e-39 319 175
0 0.64899999 0.073964357 7.3486726e-39 320 175
0.0011379133 0.64899999 0.073964357 7.3486726e-39 321 175
0.0022793331 0.64999998 0.074078329 7.2557581e-39 322 175
0.0034189997 0.64999998 0.074078329 7.1635625e-39 323 175
0.0045586661 0.64999998 0.074078329 6.980253e-39 324 175
0.0057158666 0.65200001 0.074306265 6.7958603e-39 325 175
0.0068590399 0.65200001 0.074306265 6.6125425e-39 326 175
0.0080022132 0.65200001 0.074306265 6.5203469e-39 327 175
0.0091594132 0.653 0.074420229 6.4288645e-39 328 175
0.010304339 0.653 0.074420229 6.2448334e-39 329 175
0.011449266 0.653 0.074420229 6.4288673e-39 330 175
0.012594193 0.653 0.074420229 6.4288673e-39 331 175
0.013760159 0.65399998 0.074534193 6.2462739e-39 332 175
0.014929632 0.65499997 0.074648157 6.4306666e-39 333 175
0.016078066 0.65499997 0.074648157 6.1558747e-39 334 175
0.0172791 0.65700001 0.0748761 6.2480704e-39 335 175
-0.035981905 0.662 0.074285224 7.1671386e-39 289 176
-0.034663398 0.65899998 0.073948584 6.891272e-39 290 176
-0.033457108 0.65799999 0.073836371 6.7068807e-39 291 176
-0.03225432 0.65700001 0.073724158 6.7058087e-39 292 176
-0.031007698 0.65499997 0.073499724 6.6136131e-39 293 176
-0.029813679 0.65399998 0.073387519 6.7058087e-39 294 176
-0.028623167 0.653 0.073275305 6.7058087e-39 295 176
-0.02743616 0.65200001 0.073163092 6.7061646e-39 296 176
-0.026212333 0.64999998 0.072938658 6.7983603e-39 297 176
-0.025072664 0.64999998 0.072938658 6.8884049e-39 298 176
-0.023932999 0.64999998 0.072938658 6.9806005e-39 299 176
-0.022793332 0.64999998 0.072938658 6.9809691e-39 300 176
-0.021620352 0.64899999 0.072826453 7.0731647e-39 301 176
-0.02048244 0.64899999 0.072826453 6.8905713e-39 302 176
-0.019344525 0.64899999 0.072826453 6.8905713e-39 303 176
-0.018206613 0.64899999 0.072826453 6.7983757e-39 304 176
-0.017068699 0.64899999 0.072826453 6.7983757e-39 305 176
-0.015906241 0.648 0.072714239 6.7980254e-39 306 176
-0.014770079 0.648 0.072714239 6.890221e-39 307 176
-0.01363392 0.648 0.072714239 7.0746164e-39 308 176
-0.012478473 0.64700001 0.072602026 7.3508432e-39 309 176
-0.011344067 0.64700001 0.072602026 7.168247e-39 310 176
-0.01020966 0.64700001 0.072602026 7.352997e-39 311 176
-0.0090752533 0.64700001 0.072602026 6.9849319e-39 312 176
-0.0079408465 0.64700001 0.072602026 6.8005407e-39 313 176
-0.0068064397 0.64700001 0.072602026 6.8902182e-39 314 176
-0.0056720334 0.64700001 0.072602026 6.7980226e-39 315 176
-0.00454464 0.648 0.072714239 6.8898552e-39 316 176
-0.00340848 0.648 0.072714239 6.8898552e-39 317 176
-0.0022758266 0.64899999 0.072826453 6.8898524e-39 318 176
-0.0011379133 0.64899999 0.072826453 6.8898524e-39 319 176
0 0.64899999 0.072826453 6.7976568e-39 320 176
0.0011379133 0.64899999 0.072826453 6.7976568e-39 321 176
0.0022793331 0.64999998 0.072938658 6.6129068e-39 322 176
0.0034189997 0.64999998 0.072938658 6.5207098e-39 323 176
0.0045726933 0.65200001 0.073163092 6.3374003e-39 324 176
0.0057158666 0.65200001 0.073163092 6.2452047e-39 325 176
0.0068695596 0.653 0.073275305 6.4288701e-39 326 176
0.0080144862 0.653 0.073275305 6.4288701e-39 327 176
0.0091594132 0.653 0.073275305 6.4288645e-39 328 176
0.010304339 0.653 0.073275305 6.4288645e-39 329 176
0.011449266 0.653 0.073275305 6.1533566e-39 330 176
0.012613479 0.65399998 0.073387519 6.2455522e-39 331 176
0.013760159 0.65399998 0.073387519 6.2462711e-39 332 176
0.014929632 0.65499997 0.073499724 6.3384681e-39 333 176
0.01612716 0.65700001 0.073724158 6.0647553e-39 334 176
0.0172791 0.65700001 0.073724158 6.1573097e-39 335 176
0.018487146 0.65899998 0.073948584 6.0658301e-39 336 176
-0.035981905 0.662 0.07312452 7.1671386e-39 289 177
-0.0347686 0.66100001 0.073014058 6.7990763e-39 290 177
-0.033507951 0.65899998 0.072793134 6.7068807e-39 291 177
-0.032303412 0.65799999 0.072682679 6.6136103e-39 292 177
-0.031149717 0.65799999 0.072682679 6.6136103e-39 293 177
-0.029859263 0.65499997 0.072351299 6.7972785e-39 294 177
-0.028666999 0.65399998 0.072240837 6.7972785e-39 295 177
-0.027478239 0.653 0.072130375 6.7061646e-39 296 177
-0.026292987 0.65200001 0.07201992 6.7061646e-39 297 177
-0.025072664 0.64999998 0.071798995 6.7969281e-39 298 177
-0.023932999 0.64999998 0.071798995 6.6128956e-39 299 177
-0.022793332 0.64999998 0.071798995 6.8880518e-39 300 177
-0.021653665 0.64999998 0.071798995 6.9802474e-39 301 177
-0.02048244 0.64899999 0.07168854 6.7980099e-39 302 177
-0.019344525 0.64899999 0.07168854 6.7054556e-39 303 177
-0.018206613 0.64899999 0.07168854 6.4299477e-39 304 177
-0.017068699 0.64899999 0.07168854 6.4299477e-39 305 177
-0.015930785 0.64899999 0.07168854 6.6136285e-39 306 177
-0.014792874 0.64899999 0.07168854 6.6136285e-39 307 177
-0.013654959 0.64899999 0.07168854 6.7969506e-39 308 177
-0.01249776 0.648 0.071578078 7.073536e-39 309 177
-0.0113616 0.648 0.071578078 6.7994687e-39 310 177
-0.010225439 0.648 0.071578078 6.8916643e-39 311 177
-0.0090892799 0.648 0.071578078 6.890937e-39 312 177
-0.0079531204 0.648 0.071578078 6.7069059e-39 313 177
-0.0068169599 0.648 0.071578078 6.797654e-39 314 177
-0.0056807999 0.648 0.071578078 6.7054584e-39 315 177
-0.0045516533 0.64899999 0.07168854 6.7061772e-39 316 177
-0.0034137398 0.64899999 0.07168854 6.7061772e-39 317 177
-0.0022758266 0.64899999 0.07168854 6.6139788e-39 318 177
-0.0011379133 0.64899999 0.07168854 6.7061744e-39 319 177
0 0.64899999 0.07168854 6.7054556e-39 320 177
0.0011379133 0.64899999 0.07168854 6.6132599e-39 321 177
0.0022793331 0.64999998 0.071798995 6.7958547e-39 322 177
0.0034295199 0.65200001 0.07201992 6.7040178e-39 323 177
0.0045726933 0.65200001 0.07201992 6.2448418e-39 324 177
0.0057246331 0.653 0.072130375 6.2448418e-39 325 177
0.0068800794 0.65399998 0.072240837 6.244839e-39 326 177
0.0080267601 0.65399998 0.072240837 6.244839e-39 327 177
0.0091734398 0.65399998 0.072240837 6.1533538e-39 328 177
0.01032012 0.65399998 0.072240837 6.1533538e-39 329 177
0.011466799 0.65399998 0.072240837 6.1533538e-39 330 177
0.012632766 0.65499997 0.072351299 6.1533538e-39 331 177
0.013781199 0.65499997 0.072351299 6.062956e-39 332 177
0.014929632 0.65499997 0.072351299 6.1551531e-39 333 177
0.01612716 0.65700001 0.072572216 6.0651112e-39 334 177
0.017305398 0.65799999 0.072682679 6.1573069e-39 335 177
0.018487146 0.65899998 0.072793134 6.3416939e-39 336 177
0.019732011 0.662 0.07312452 6.3416939e-39 337 177
-0.035981905 0.662 0.071963809 7.1671386e-39 289 178
-0.0347686 0.66100001 0.071855105 6.8916279e-39 290 178
-0.033507951 0.65899998 0.07163769 6.7990735e-39 291 178
-0.032352503 0.65899998 0.07163769 6.7061618e-39 292 178
-0.031149717 0.65799999 0.071528979 6.6139662e-39 293 178
-0.029996024 0.65799999 0.071528979 6.61289e-39 294 178
-0.028710833 0.65499997 0.071202859 6.8894769e-39 295 178
-0.027520318 0.65399998 0.071094155 6.8894741e-39 296 178
-0.026333313 0.653 0.070985451 6.8894741e-39 297 178
-0.025149813 0.65200001 0.070876747 6.889121e-39 298 178
-0.024006641 0.65200001 0.070876747 6.7969253e-39 299 178
-0.022793332 0.64999998 0.070659332 6.7965722e-39 300 178
-0.021653665 0.64999998 0.070659332 6.7965722e-39 301 178
-0.020513998 0.64999998 0.070659332 6.6143347e-39 302 178
-0.019374331 0.64999998 0.070659332 6.6143347e-39 303 178
-0.018234665 0.64999998 0.070659332 6.4299449e-39 304 178
-0.017068699 0.64899999 0.070550621 6.3377479e-39 305 178
-0.015930785 0.64899999 0.070550621 6.5210657e-39 306 178
-0.014792874 0.64899999 0.070550621 6.6132627e-39 307 178
-0.013654959 0.64899999 0.070550621 6.6129096e-39 308 178
-0.012517046 0.64899999 0.070550621 6.7973009e-39 309 178
-0.011379133 0.64899999 0.070550621 6.6154292e-39 310 178
-0.010225439 0.648 0.070441917 6.6154292e-39 311 178
-0.0090892799 0.648 0.070441917 6.7983757e-39 312 178
-0.0079531204 0.648 0.070441917 6.70618e-39 313 178
-0.0068169599 0.648 0.070441917 6.4306666e-39 314 178
-0.0056807999 0.648 0.070441917 6.4306666e-39 315 178
-0.0045516533 0.64899999 0.070550621 6.6143347e-39 316 178
-0.0034137398 0.64899999 0.070550621 6.6143347e-39 317 178
-0.0022793331 0.64999998 0.070659332 6.6143347e-39 318 178
-0.0011396665 0.64999998 0.070659332 6.7065304e-39 319 178
0 0.64999998 0.070659332 6.7058115e-39 320 178
0.0011396665 0.64999998 0.070659332 6.5210601e-39 321 178
0.0022863466 0.65200001 0.070876747 6.6128956e-39 322 178
0.0034295199 0.65200001 0.070876747 6.5203412e-39 323 178
0.0045797066 0.653 0.070985451 6.4285072e-39 324 178
0.0057333997 0.65399998 0.071094155 6.3366703e-39 325 178
0.0068800794 0.65399998 0.071094155 6.2448334e-39 326 178
0.008039033 0.65499997 0.071202859 6.2448334e-39 327 178
0.0091874655 0.65499997 0.071202859 6.0625931e-39 328 178
0.010335899 0.65499997 0.071202859 6.0625931e-39 329 178
0.011484332 0.65499997 0.071202859 6.0625903e-39 330 178
0.01267134 0.65700001 0.071420282 5.9703947e-39 331 178
0.013823279 0.65700001 0.071420282 6.0622372e-39 332 178
0.01497522 0.65700001 0.071420282 6.3388241e-39 333 178
0.016151706 0.65799999 0.071528979 6.1562279e-39 334 178
0.017331699 0.65899998 0.07163769 6.2484235e-39 335 178
0.018543253 0.66100001 0.071855105 6.1573041e-39 336 178
0.019732011 0.662 0.071963809 6.3416939e-39 337 178
-0.036036257 0.66299999 0.070910059 6.8912748e-39 289 179
-0.0347686 0.66100001 0.070696153 6.890909e-39 290 179
-0.033507951 0.65899998 0.070482239 6.7987134e-39 291 179
-0.032303412 0.65799999 0.070375293 6.7972785e-39 292 179
-0.031149717 0.65799999 0.070375293 6.8894741e-39 293 179
-0.029996024 0.65799999 0.070375293 6.6132459e-39 294 179
-0.028710833 0.65499997 0.070054427 6.7972785e-39 295 179
-0.027562398 0.65499997 0.070054427 6.7061646e-39 296 179
-0.02637364 0.65399998 0.069947474 6.7061646e-39 297 179
-0.025149813 0.65200001 0.069733568 6.8884049e-39 298 179
-0.024006641 0.65200001 0.069733568 6.7962079e-39 299 179
-0.022793332 0.64999998 0.069519661 6.7965722e-39 300 179
-0.021653665 0.64999998 0.069519661 6.8891266e-39 301 179
-0.020513998 0.64999998 0.069519661 6.7058087e-39 302 179
-0.019374331 0.64999998 0.069519661 6.6136131e-39 303 179
-0.018234665 0.64999998 0.069519661 6.5206972e-39 304 179
-0.017095 0.64999998 0.069519661 6.6128928e-39 305 179
-0.015955333 0.64999998 0.069519661 6.4288673e-39 306 179
-0.014815666 0.64999998 0.069519661 6.4288673e-39 307 179
-0.013675999 0.64999998 0.069519661 6.3373975e-39 308 179
-0.012517046 0.64899999 0.069412716 6.6136257e-39 309 179
-0.011379133 0.64899999 0.069412716 6.247004e-39 310 179
-0.01024122 0.64899999 0.069412716 6.247004e-39 311 179
-0.0091033066 0.64899999 0.069412716 6.7965778e-39 312 179
-0.0079531204 0.648 0.069305755 6.7965778e-39 313 179
-0.0068169599 0.648 0.069305755 6.6139788e-39 314 179
-0.0056895665 0.64899999 0.069412716 6.6139788e-39 315 179
-0.0045516533 0.64899999 0.069412716 6.3384681e-39 316 179
-0.0034137398 0.64899999 0.069412716 6.4306638e-39 317 179
-0.0022793331 0.64999998 0.069519661 6.6143347e-39 318 179
-0.0011396665 0.64999998 0.069519661 6.6143347e-39 319 179
0 0.64999998 0.069519661 6.6136131e-39 320 179
0.0011431733 0.65200001 0.069733568 6.521416e-39 321 179
0.0022898533 0.653 0.069840528 6.5206972e-39 322 179
0.0034347798 0.653 0.069840528 6.4285015e-39 323 179
0.0045797066 0.653 0.069840528 6.4285029e-39 324 179
0.0057333997 0.65399998 0.069947474 6.4285029e-39 325 179
0.0068905996 0.65499997 0.070054427 6.2451893e-39 326 179
0.008039033 0.65499997 0.070054427 6.2451893e-39 327 179
0.0091874655 0.65499997 0.070054427 6.1537097e-39 328 179
0.010335899 0.65499997 0.070054427 6.1537097e-39 329 179
0.011484332 0.65499997 0.070054427 5.878562e-39 330 179
0.01267134 0.65700001 0.07026834 5.878562e-39 331 179
0.013823279 0.65700001 0.07026834 5.9707604e-39 332 179
0.014998012 0.65799999 0.070375293 6.062956e-39 333 179
0.016176252 0.65899998 0.070482239 6.2477074e-39 334 179
0.0173843 0.66100001 0.070696153 6.5239342e-39 335 179
0.018571306 0.662 0.070803106 6.341338e-39 336 179
-0.0347686 0.66100001 0.0695372 6.8905559e-39 290 180
-0.033507951 0.65899998 0.069326796 6.7983603e-39 291 180
-0.032303412 0.65799999 0.069221593 6.6143319e-39 292 180
-0.031149717 0.65799999 0.069221593 6.4303008e-39 293 180
-0.029996024 0.65799999 0.069221593 6.6136159e-39 294 180
-0.028710833 0.65499997 0.068905994 6.7058115e-39 295 180
-0.027562398 0.65499997 0.068905994 6.7058087e-39 296 180
-0.02637364 0.65399998 0.068800792 6.7058087e-39 297 180
-0.025149813 0.65200001 0.068590395 6.7969281e-39 298 180
-0.024006641 0.65200001 0.068590395 6.6128956e-39 299 180
-0.022793332 0.64999998 0.068379998 6.7958547e-39 300 180
-0.021653665 0.64999998 0.068379998 6.8880518e-39 301 180
-0.020513998 0.64999998 0.068379998 6.7054556e-39 302 180
-0.019374331 0.64999998 0.068379998 6.7054556e-39 303 180
-0.018234665 0.64999998 0.068379998 6.5210629e-39 304 180
-0.017095 0.64999998 0.068379998 6.5210629e-39 305 180
-0.015955333 0.64999998 0.068379998 6.3373947e-39 306 180
-0.014815666 0.64999998 0.068379998 6.2451991e-39 307 180
-0.013675999 0.64999998 0.068379998 6.245918e-39 308 180
-0.012536332 0.64999998 0.068379998 6.338115e-39 309 180
-0.011396666 0.64999998 0.068379998 6.4306666e-39 310 180
-0.010256999 0.64999998 0.068379998 6.4306666e-39 311 180
-0.0091033066 0.64899999 0.068274796 6.6132627e-39 312 180
-0.0079653924 0.64899999 0.068274796 6.6132627e-39 313 180
-0.0068274797 0.64899999 0.068274796 6.4295946e-39 314 180
-0.0056895665 0.64899999 0.068274796 6.6136257e-39 315 180
-0.0045516533 0.64899999 0.068274796 6.3384709e-39 316 180
-0.0034137398 0.64899999 0.068274796 6.3384709e-39 317 180
-0.0022793331 0.64999998 0.068379998 6.6136159e-39 318 180
-0.0011396665 0.64999998 0.068379998 6.5210601e-39 319 180
0 0.64999998 0.068379998 6.6128928e-39 320 180
0.0011431733 0.65200001 0.068590395 6.7969253e-39 321 180
0.0022898533 0.653 0.068695597 6.6128928e-39 322 180
0.0034347798 0.653 0.068695597 6.5206972e-39 323 180
0.0045867199 0.65399998 0.068800792 6.2451893e-39 324 180
0.0057421662 0.65499997 0.068905994 6.2451893e-39 325 180
0.0068905996 0.65499997 0.068905994 6.1533538e-39 326 180
0.008039033 0.65499997 0.068905994 6.1533538e-39 327 180
0.0091874655 0.65499997 0.068905994 6.1529965e-39 328 180
0.01036746 0.65700001 0.069116399 6.1529965e-39 329 180
0.011519399 0.65700001 0.069116399 5.8778487e-39 330 180
0.01267134 0.65700001 0.069116399 5.9700443e-39 331 180
0.01384432 0.65799999 0.069221593 5.9696884e-39 332 180
0.014998012 0.65799999 0.069221593 6.2462739e-39 333 180
0.016151706 0.65799999 0.069221593 6.2469984e-39 334 180
0.0173843 0.66100001 0.0695372 6.5235839e-39 335 180
0.018543253 0.66100001 0.0695372 6.340266e-39 336 180
-0.0347686 0.66100001 0.068378247 6.8905559e-39 290 181
-0.033609647 0.66100001 0.068378247 6.7061646e-39 291 181
-0.032352503 0.65899998 0.068171352 6.7061646e-39 292 181
-0.031197058 0.65899998 0.068171352 6.7061646e-39 293 181
-0.029996024 0.65799999 0.068067901 6.7058087e-39 294 181
-0.028798498 0.65700001 0.067964457 6.7058087e-39 295 181
-0.027646558 0.65700001 0.067964457 6.7058115e-39 296 181
-0.026413966 0.65499997 0.067757562 6.6136159e-39 297 181
-0.025226958 0.65399998 0.067654118 6.796575e-39 298 181
-0.024043459 0.653 0.067550674 6.6125425e-39 299 181
-0.022863466 0.65200001 0.06744723 6.6129068e-39 300 181
-0.021653665 0.64999998 0.067240328 6.6129068e-39 301 181
-0.020513998 0.64999998 0.067240328 6.4299505e-39 302 181
-0.019374331 0.64999998 0.067240328 6.6139816e-39 303 181
-0.018234665 0.64999998 0.067240328 6.6132599e-39 304 181
-0.017095 0.64999998 0.067240328 6.6132599e-39 305 181
-0.015955333 0.64999998 0.067240328 6.3377507e-39 306 181
-0.014815666 0.64999998 0.067240328 6.3377507e-39 307 181
-0.01371808 0.65200001 0.06744723 6.2462739e-39 308 181
-0.012574906 0.65200001 0.06744723 6.3384709e-39 309 181
-0.011431733 0.65200001 0.06744723 6.2469984e-39 310 181
-0.010256999 0.64999998 0.067240328 6.2469984e-39 311 181
-0.0091173323 0.64999998 0.067240328 6.4306694e-39 312 181
-0.0079776663 0.64999998 0.067240328 6.4306694e-39 313 181
-0.0068379994 0.64999998 0.067240328 6.6139816e-39 314 181
-0.005698333 0.64999998 0.067240328 6.6139816e-39 315 181
-0.0045586661 0.64999998 0.067240328 6.3384709e-39 316 181
-0.0034189997 0.64999998 0.067240328 6.4306666e-39 317 181
-0.0022793331 0.64999998 0.067240328 6.4303008e-39 318 181
-0.0011396665 0.64999998 0.067240328 6.4303008e-39 319 181
0 0.65200001 0.06744723 6.6136131e-39 320 181
0.0011431733 0.65200001 0.06744723 6.6136131e-39 321 181
0.0022898533 0.653 0.067550674 6.3377479e-39 322 181
0.0034400397 0.65399998 0.067654118 6.2455522e-39 323 181
0.0045867199 0.65399998 0.067654118 6.2448334e-39 324 181
0.0057421662 0.65499997 0.067757562 6.2448334e-39 325 181
0.0068905996 0.65499997 0.067757562 6.1529993e-39 326 181
0.008039033 0.65499997 0.067757562 6.1529993e-39 327 181
0.0091874655 0.65499997 0.067757562 6.0611638e-39 328 181
0.01036746 0.65700001 0.067964457 6.0611638e-39 329 181
0.011519399 0.65700001 0.067964457 5.8785676e-39 330 181
0.01267134 0.65700001 0.067964457 5.9707632e-39 331 181
0.01384432 0.65799999 0.068067901 5.8792934e-39 332 181
0.014998012 0.65799999 0.068067901 5.8792934e-39 333 181
0.016151706 0.65799999 0.068067901 6.2477172e-39 334 181
0.0173843 0.66100001 0.068378247 6.3402716e-39 335 181
0.018543253 0.66100001 0.068378247 6.3409849e-39 336 181
-0.034821201 0.662 0.067320988 7.0745842e-39 290 182
-0.033609647 0.66100001 0.067219295 6.8905531e-39 291 182
-0.032352503 0.65899998 0.067015901 6.6143319e-39 292 182
-0.031197058 0.65899998 0.067015901 6.6143319e-39 293 182
-0.030041611 0.65899998 0.067015901 6.7058115e-39 294 182
-0.028842334 0.65799999 0.066914216 6.7980071e-39 295 182
-0.027646558 0.65700001 0.066812515 6.7065304e-39 296 182
-0.026413966 0.65499997 0.066609129 6.6143347e-39 297 182
-0.025265532 0.65499997 0.066609129 6.6132599e-39 298 182
-0.024043459 0.653 0.066405743 6.5210629e-39 299 182
-0.022863466 0.65200001 0.066304058 6.6125425e-39 300 182
-0.021653665 0.64999998 0.066100657 6.796575e-39 301 182
-0.020513998 0.64999998 0.066100657 6.4306666e-39 302 182
-0.019374331 0.64999998 0.066100657 6.4306666e-39 303 182
-0.018234665 0.64999998 0.066100657 6.6132627e-39 304 182
-0.017095 0.64999998 0.066100657 6.5210657e-39 305 182
-0.015955333 0.64999998 0.066100657 6.3373947e-39 306 182
-0.014815666 0.64999998 0.066100657 6.3373947e-39 307 182
-0.01371808 0.65200001 0.066304058 6.2462711e-39 308 182
-0.012574906 0.65200001 0.066304058 6.3384681e-39 309 182
-0.011431733 0.65200001 0.066304058 6.2473515e-39 310 182
-0.01028856 0.65200001 0.066304058 6.523937e-39 311 182
-0.0091453865 0.65200001 0.066304058 6.5228622e-39 312 182
-0.0079776663 0.64999998 0.066100657 6.5228622e-39 313 182
-0.0068379994 0.64999998 0.066100657 6.6132627e-39 314 182
-0.005698333 0.64999998 0.066100657 6.6132627e-39 315 182
-0.0045586661 0.64999998 0.066100657 6.4299477e-39 316 182
-0.0034295199 0.65200001 0.066304058 6.6139788e-39 317 182
-0.0022863466 0.65200001 0.066304058 6.4299449e-39 318 182
-0.0011431733 0.65200001 0.066304058 6.4299449e-39 319 182
0 0.65200001 0.066304058 6.4299449e-39 320 182
0.0011449266 0.653 0.066405743 6.4299449e-39 321 182
0.00229336 0.65399998 0.066507436 6.3377479e-39 322 182
0.0034400397 0.65399998 0.066507436 6.3377479e-39 323 182
0.0045867199 0.65399998 0.066507436 6.245555e-39 324 182
0.0057421662 0.65499997 0.066609129 6.1533594e-39 325 182
0.0068905996 0.65499997 0.066609129 6.1533594e-39 326 182
0.008039033 0.65499997 0.066609129 6.0611638e-39 327 182
0.0091874655 0.65499997 0.066609129 6.0611638e-39 328 182
0.01036746 0.65700001 0.066812515 6.0611638e-39 329 182
0.011519399 0.65700001 0.066812515 5.7874509e-39 330 182
0.01267134 0.65700001 0.066812515 5.6948966e-39 331 182
0.01384432 0.65799999 0.066914216 5.9704073e-39 332 182
0.014998012 0.65799999 0.066914216 6.1551587e-39 333 182
0.016176252 0.65899998 0.067015901 6.2480732e-39 334 182
0.0173843 0.66100001 0.067219295 6.4324644e-39 335 182
0.018543253 0.66100001 0.067219295 6.2498682e-39 336 182
-0.034873798 0.66299999 0.066260219 7.0742213e-39 290 183
-0.033609647 0.66100001 0.066060342 6.9820257e-39 291 183
-0.032352503 0.65899998 0.065860458 6.7061646e-39 292 183
-0.031197058 0.65899998 0.065860458 6.6136103e-39 293 183
-0.030041611 0.65899998 0.065860458 6.6143347e-39 294 183
-0.028842334 0.65799999 0.065760516 6.7065304e-39 295 183
-0.027646558 0.65700001 0.065660581 6.6143347e-39 296 183
-0.026413966 0.65499997 0.065460697 6.6143347e-39 297 183
-0.025265532 0.65499997 0.065460697 6.7969281e-39 298 183
-0.024080278 0.65399998 0.065360755 6.6128956e-39 299 183
-0.022898532 0.653 0.06526082 6.6132599e-39 300 183
-0.021653665 0.64999998 0.064960994 6.7054556e-39 301 183
-0.020513998 0.64999998 0.064960994 6.5232181e-39 302 183
-0.019374331 0.64999998 0.064960994 6.4306638e-39 303 183
-0.018234665 0.64999998 0.064960994 6.7965722e-39 304 183
-0.017095 0.64999998 0.064960994 6.6125397e-39 305 183
-0.015955333 0.64999998 0.064960994 6.3373947e-39 306 183
-0.014815666 0.64999998 0.064960994 6.3373947e-39 307 183
-0.01371808 0.65200001 0.065160878 6.2462711e-39 308 183
-0.012574906 0.65200001 0.065160878 6.3384681e-39 309 183
-0.011431733 0.65200001 0.065160878 6.2484263e-39 310 183
-0.01028856 0.65200001 0.065160878 6.2484263e-39 311 183
-0.0091453865 0.65200001 0.065160878 6.7065304e-39 312 183
-0.0080022132 0.65200001 0.065160878 6.6143347e-39 313 183
-0.0068379994 0.64999998 0.064960994 6.6132599e-39 314 183
-0.005698333 0.64999998 0.064960994 6.6132599e-39 315 183
-0.0045586661 0.64999998 0.064960994 6.4299449e-39 316 183
-0.0034295199 0.65200001 0.065160878 6.6143347e-39 317 183
-0.0022863466 0.65200001 0.065160878 6.6143347e-39 318 183
-0.0011431733 0.65200001 0.065160878 6.4299449e-39 319 183
0 0.65200001 0.065160878 6.3384681e-39 320 183
0.00114668 0.65399998 0.065360755 6.3384681e-39 321 183
0.0022968664 0.65499997 0.065460697 6.1551559e-39 322 183
0.0034452998 0.65499997 0.065460697 5.9707632e-39 323 183
0.0045937328 0.65499997 0.065460697 6.1533566e-39 324 183
0.0057421662 0.65499997 0.065460697 6.2455522e-39 325 183
0.0069116396 0.65700001 0.065660581 5.9700443e-39 326 183
0.0080635799 0.65700001 0.065660581 5.9700443e-39 327 183
0.0092155198 0.65700001 0.065660581 5.9700443e-39 328 183
0.01036746 0.65700001 0.065660581 5.9700443e-39 329 183
0.011519399 0.65700001 0.065660581 5.8782116e-39 330 183
0.012690626 0.65799999 0.065760516 5.8782116e-39 331 183
0.01384432 0.65799999 0.065760516 6.245918e-39 332 183
0.015020805 0.65899998 0.065860458 6.338115e-39 333 183
0.016176252 0.65899998 0.065860458 6.2480732e-39 334 183
0.0173843 0.66100001 0.066060342 6.4324644e-39 335 183
0.018571306 0.662 0.066160277 6.1580257e-39 336 183
-0.033609647 0.66100001 0.064901382 7.0742213e-39 291 184
-0.032352503 0.65899998 0.064705007 6.7061618e-39 292 184
-0.031197058 0.65899998 0.064705007 6.7061618e-39 293 184
-0.030041611 0.65899998 0.064705007 6.7058087e-39 294 184
-0.028842334 0.65799999 0.064606823 6.7058087e-39 295 184
-0.027646558 0.65700001 0.064508639 6.7065304e-39 296 184
-0.026494619 0.65700001 0.064508639 6.4299449e-39 297 184
-0.025265532 0.65499997 0.064312264 6.8891238e-39 298 184
-0.024080278 0.65399998 0.064214081 6.6128956e-39 299 184
-0.022933599 0.65399998 0.064214081 6.6132599e-39 300 184
-0.021753605 0.653 0.064115889 6.7980099e-39 301 184
-0.02057712 0.65200001 0.064017706 6.6143347e-39 302 184
-0.019433947 0.65200001 0.064017706 6.6143347e-39 303 184
-0.018290773 0.65200001 0.064017706 6.6132599e-39 304 184
-0.017147599 0.65200001 0.064017706 6.6132599e-39 305 184
-0.016004426 0.65200001 0.064017706 6.3377507e-39 306 184
-0.014861252 0.65200001 0.064017706 6.4299477e-39 307 184
-0.01371808 0.65200001 0.064017706 6.2462711e-39 308 184
-0.012574906 0.65200001 0.064017706 6.3384681e-39 309 184
-0.011431733 0.65200001 0.064017706 6.3395471e-39 310 184
-0.01028856 0.65200001 0.064017706 6.3395471e-39 311 184
-0.0091453865 0.65200001 0.064017706 6.6143347e-39 312 184
-0.0080022132 0.65200001 0.064017706 6.7065304e-39 313 184
-0.0068590399 0.65200001 0.064017706 6.6143347e-39 314 184
-0.005698333 0.64999998 0.063821331 6.4299449e-39 315 184
-0.0045586661 0.64999998 0.063821331 6.6139788e-39 316 184
-0.0034295199 0.65200001 0.064017706 6.4299477e-39 317 184
-0.0022863466 0.65200001 0.064017706 6.6136159e-39 318 184
-0.0011449266 0.653 0.064115889 6.6136159e-39 319 184
0 0.65399998 0.064214081 6.3377507e-39 320 184
0.0011484332 0.65499997 0.064312264 6.3377507e-39 321 184
0.0022968664 0.65499997 0.064312264 6.0626029e-39 322 184
0.0034452998 0.65499997 0.064312264 6.0626029e-39 323 184
0.0045937328 0.65499997 0.064312264 6.2455522e-39 324 184
0.0057421662 0.65499997 0.064312264 6.1533566e-39 325 184
0.0069116396 0.65700001 0.064508639 6.1533566e-39 326 184
0.0080635799 0.65700001 0.064508639 6.1533566e-39 327 184
0.0092155198 0.65700001 0.064508639 5.9700443e-39 328 184
0.01036746 0.65700001 0.064508639 5.9700443e-39 329 184
0.011519399 0.65700001 0.064508639 5.8774928e-39 330 184
0.012690626 0.65799999 0.064606823 5.9696884e-39 331 184
0.013865359 0.65899998 0.064705007 6.245918e-39 332 184
0.015066394 0.66100001 0.064901382 6.338115e-39 333 184
0.016225345 0.66100001 0.064901382 6.2480732e-39 334 184
0.017410601 0.662 0.064999565 6.3402688e-39 335 184
0.018599359 0.66299999 0.065097757 6.4328147e-39 336 184
-0.033609647 0.66100001 0.063742429 6.8905531e-39 291 185
-0.032352503 0.65899998 0.063549563 6.7983603e-39 292 185
-0.031197058 0.65899998 0.063549563 6.7061646e-39 293 185
-0.030041611 0.65899998 0.063549563 6.6143319e-39 294 185
-0.028842334 0.65799999 0.06345313 6.6143319e-39 295 185
-0.027646558 0.65700001 0.063356705 6.7983603e-39 296 185
-0.026494619 0.65700001 0.063356705 6.7061646e-39 297 185
-0.025265532 0.65499997 0.063163824 6.7972813e-39 298 185
-0.024080278 0.65399998 0.063067392 6.7972813e-39 299 185
-0.022933599 0.65399998 0.063067392 6.6136159e-39 300 185
-0.021753605 0.653 0.062970966 6.7058115e-39 301 185
-0.020608678 0.653 0.062970966 6.6154137e-39 302 185
-0.019433947 0.65200001 0.062874533 6.5232181e-39 303 185
-0.018290773 0.65200001 0.062874533 6.4306666e-39 304 185
-0.017147599 0.65200001 0.062874533 6.3384709e-39 305 185
-0.016004426 0.65200001 0.062874533 6.3384681e-39 306 185
-0.014861252 0.65200001 0.062874533 6.3384681e-39 307 185
-0.013739119 0.653 0.062970966 6.2462711e-39 308 185
-0.012594193 0.653 0.062970966 6.3384681e-39 309 185
-0.011449266 0.653 0.062970966 6.3395471e-39 310 185
-0.010304339 0.653 0.062970966 6.3395471e-39 311 185
-0.0091594132 0.653 0.062970966 6.7061744e-39 312 185
-0.0080022132 0.65200001 0.062874533 6.6139788e-39 313 185
-0.0068590399 0.65200001 0.062874533 6.2480732e-39 314 185
-0.0057158666 0.65200001 0.062874533 6.1558775e-39 315 185
-0.0045726933 0.65200001 0.062874533 6.4306638e-39 316 185
-0.0034295199 0.65200001 0.062874533 6.3384681e-39 317 185
-0.00229336 0.65399998 0.063067392 6.6132599e-39 318 185
-0.0011484332 0.65499997 0.063163824 6.5210629e-39 319 185
0 0.65499997 0.063163824 6.3377507e-39 320 185
0.00115194 0.65700001 0.063356705 6.3377507e-39 321 185
0.0023038799 0.65700001 0.063356705 6.1551559e-39 322 185
0.0034558198 0.65700001 0.063356705 6.0629588e-39 323 185
0.0046077599 0.65700001 0.063356705 6.0625931e-39 324 185
0.0057596997 0.65700001 0.063356705 6.0625931e-39 325 185
0.0069116396 0.65700001 0.063356705 5.9700415e-39 326 185
0.0080635799 0.65700001 0.063356705 5.9700415e-39 327 185
0.0092155198 0.65700001 0.063356705 5.9700443e-39 328 185
0.01038324 0.65799999 0.06345313 5.9700443e-39 329 185
0.011536933 0.65799999 0.06345313 5.8774928e-39 330 185
0.012690626 0.65799999 0.06345313 5.8774928e-39 331 185
0.01390744 0.66100001 0.063742429 6.1530035e-39 332 185
0.015066394 0.66100001 0.063742429 6.4299505e-39 333 185
0.016225345 0.66100001 0.063742429 6.3395471e-39 334 185
0.017410601 0.662 0.063838862 6.6161326e-39 335 185
-0.0349264 0.66399997 0.062867515 7.1664169e-39 290 186
-0.033660494 0.662 0.062678158 7.0742213e-39 291 186
-0.032450691 0.66100001 0.062583476 6.7983575e-39 292 186
-0.031291738 0.66100001 0.062583476 6.7983575e-39 293 186
-0.030041611 0.65899998 0.062394116 6.6143291e-39 294 186
-0.028842334 0.65799999 0.062299434 6.6143291e-39 295 186
-0.027688639 0.65799999 0.062299434 6.7061646e-39 296 186
-0.026494619 0.65700001 0.06220476 6.7061646e-39 297 186
-0.025265532 0.65499997 0.062015396 6.7969253e-39 298 186
-0.024080278 0.65399998 0.061920714 6.6128928e-39 299 186
-0.022933599 0.65399998 0.061920714 6.6136159e-39 300 186
-0.021786919 0.65399998 0.061920714 6.7980071e-39 301 186
-0.020608678 0.653 0.061826039 6.5232153e-39 302 186
-0.019463753 0.653 0.061826039 6.5232153e-39 303 186
-0.018290773 0.65200001 0.061731357 6.3384681e-39 304 186
-0.017147599 0.65200001 0.061731357 6.3384681e-39 305 186
-0.016004426 0.65200001 0.061731357 6.3384709e-39 306 186
-0.014884046 0.653 0.061826039 6.2462739e-39 307 186
-0.013739119 0.653 0.061826039 6.2462739e-39 308 186
-0.012594193 0.653 0.061826039 6.3384709e-39 309 186
-0.011449266 0.653 0.061826039 6.4299505e-39 310 186
-0.010304339 0.653 0.061826039 6.6139816e-39 311 186
-0.0091594132 0.653 0.061826039 6.4306666e-39 312 186
-0.0080144862 0.653 0.061826039 6.4306666e-39 313 186
-0.0068695596 0.653 0.061826039 6.6143347e-39 314 186
-0.0057158666 0.65200001 0.061731357 6.6143347e-39 315 186
-0.0045726933 0.65200001 0.061731357 6.4306666e-39 316 186
-0.0034452998 0.65499997 0.062015396 6.3384709e-39 317 186
-0.0022968664 0.65499997 0.062015396 6.338115e-39 318 186
-0.0011484332 0.65499997 0.062015396 6.245918e-39 319 186
0 0.65499997 0.062015396 6.1551587e-39 320 186
0.00115194 0.65700001 0.06220476 6.1551587e-39 321 186
0.0023038799 0.65700001 0.06220476 6.062956e-39 322 186
0.0034558198 0.65700001 0.06220476 6.062956e-39 323 186
0.0046077599 0.65700001 0.06220476 6.2459054e-39 324 186
0.0057596997 0.65700001 0.06220476 6.2459054e-39 325 186
0.0069116396 0.65700001 0.06220476 6.0625931e-39 326 186
0.0080635799 0.65700001 0.06220476 5.9703975e-39 327 186
0.0092295464 0.65799999 0.062299434 6.1533538e-39 328 186
0.01038324 0.65799999 0.062299434 6.1533538e-39 329 186
0.011536933 0.65799999 0.062299434 6.1529993e-39 330 186
0.012690626 0.65799999 0.062299434 6.2448362e-39 331 186
0.01390744 0.66100001 0.062583476 6.2459208e-39 332 186
0.015066394 0.66100001 0.062583476 6.3381178e-39 333 186
0.016225345 0.66100001 0.062583476 6.2480732e-39 334 186
0.017410601 0.662 0.062678158 6.3402688e-39 335 186
-0.0349264 0.66399997 0.061703302 7.2571804e-39 290 187
-0.033660494 0.662 0.061517447 7.0731493e-39 291 187
-0.032450691 0.66100001 0.061424527 6.9809565e-39 292 187
-0.031291738 0.66100001 0.061424527 6.8884021e-39 293 187
-0.030041611 0.65899998 0.061238669 6.7058115e-39 294 187
-0.028886165 0.65899998 0.061238669 6.7058115e-39 295 187
-0.027688639 0.65799999 0.061145745 6.7058115e-39 296 187
-0.026494619 0.65700001 0.061052818 6.7058115e-39 297 187
-0.025265532 0.65499997 0.060866963 6.6132599e-39 298 187
-0.024117097 0.65499997 0.060866963 6.5210629e-39 299 187
-0.022968665 0.65499997 0.060866963 6.7958519e-39 300 187
-0.021786919 0.65399998 0.060774036 6.8884077e-39 301 187
-0.020640239 0.65399998 0.060774036 6.5232181e-39 302 187
-0.019493559 0.65399998 0.060774036 6.4306638e-39 303 187
-0.01834688 0.65399998 0.060774036 6.4306694e-39 304 187
-0.017200198 0.65399998 0.060774036 6.245918e-39 305 187
-0.01605352 0.65399998 0.060774036 6.3373975e-39 306 187
-0.014906839 0.65399998 0.060774036 6.3373975e-39 307 187
-0.013760159 0.65399998 0.060774036 6.245918e-39 308 187
-0.012613479 0.65399998 0.060774036 6.245918e-39 309 187
-0.011466799 0.65399998 0.060774036 6.4295946e-39 310 187
-0.01032012 0.65399998 0.060774036 6.6136257e-39 311 187
-0.0091734398 0.65399998 0.060774036 6.4303134e-39 312 187
-0.0080144862 0.653 0.060681112 6.4303134e-39 313 187
-0.0068695596 0.653 0.060681112 6.6132627e-39 314 187
-0.0057246331 0.653 0.060681112 6.6132627e-39 315 187
-0.0046077599 0.65700001 0.061052818 6.4306666e-39 316 187
-0.0034452998 0.65499997 0.060866963 6.3384709e-39 317 187
-0.0022968664 0.65499997 0.060866963 6.3384681e-39 318 187
-0.0011484332 0.65499997 0.060866963 6.3384681e-39 319 187
0 0.65499997 0.060866963 6.1551559e-39 320 187
0.00115194 0.65700001 0.061052818 6.0629588e-39 321 187
0.0023038799 0.65700001 0.061052818 6.2462711e-39 322 187
0.0034558198 0.65700001 0.061052818 6.06224e-39 323 187
0.0046077599 0.65700001 0.061052818 6.0622372e-39 324 187
